# .PCD v0.7 - Point Cloud Data file format
VERSION 0.7
FIELDS x y z rgba
SIZE 4 4 4 4
TYPE F F F U
COUNT 1 1 1 1
WIDTH 1000
HEIGHT 1
VIEWPOINT 0 0 0 1 0 0 0
POINTS 1000
DATA ascii
-0.079572588 -0.0033872998 0.55500001 4286341963
-0.07837715 -0.003381484 0.55400002 4288447083
-0.077325128 -0.0033817668 0.55400002 4292526263
-0.076273158 -0.0033820455 0.55400002 4294967289
-0.075221233 -0.0033823201 0.55400002 4294967295
-0.074035481 -0.0033764848 0.55299997 4293519849
-0.072985567 -0.003376751 0.55299997 4292925652
-0.072065786 -0.0033831198 0.55400002 4293780704
-0.064450622 -0.0033174076 0.54299998 4294967295
-0.063420087 -0.0033176376 0.54299998 4294967295
-0.062389594 -0.0033178634 0.54299998 4294967295
-0.061359141 -0.0033180858 0.54299998 4294967295
-0.060439847 -0.0033244148 0.54400003 4294967295
-0.059516795 -0.0033307408 0.54500002 4294704123
-0.058482684 -0.003330952 0.54500002 4293651435
-0.057448618 -0.0033311597 0.54500002 4292402395
-0.056518104 -0.0033374757 0.546 4291678928
-0.055482235 -0.0033376757 0.546 4287344047
-0.054346684 -0.0033317585 0.54500002 4285304208
-0.053312782 -0.0033319499 0.54500002 4284181368
-0.052278932 -0.0033321381 0.54500002 4281418062
-0.051245116 -0.0033323225 0.54500002 4282071365
-0.050119221 -0.0033263881 0.54400003 4280887091
-0.049087387 -0.0033265641 0.54400003 4281412151
-0.048055582 -0.0033267362 0.54400003 4280622636
-0.047023822 -0.0033269047 0.54400003 4281017644
-0.046076644 -0.0033331851 0.54500002 4281543988
-0.045043062 -0.0033333462 0.54500002 4282134580
-0.044009518 -0.0033335034 0.54500002 4282265910
-0.042818304 -0.0033214237 0.54299998 4282529338
-0.041711655 -0.0033154555 0.542 4282595131
-0.040683914 -0.0033156008 0.542 4282333503
-0.039656188 -0.0033157419 0.542 4281149486
-0.038628507 -0.0033158793 0.542 4281017394
-0.03753148 -0.0033098955 0.54100001 4281083187
-0.036505755 -0.0033100254 0.54100001 4281083437
-0.035480063 -0.0033101512 0.54100001 4280622886
-0.034454405 -0.0033102734 0.54100001 4280884261
-0.03342877 -0.0033103924 0.54100001 4278190080
-0.032403164 -0.0033105069 0.54100001 4280943104
-0.031319588 -0.003304499 0.54000002 4293838259
-0.030183721 -0.0032923664 0.53799999 4293519838
-0.029055472 -0.0032802301 0.53600001 4294375146
-0.028039455 -0.0032803291 0.53600001 4294242543
-0.027023461 -0.0032804245 0.53600001 4294110701
-0.026056012 -0.0032866364 0.537 4294046191
-0.02503817 -0.003286724 0.537 4294572791
-0.024020348 -0.0032868085 0.537 4293850097
-0.02300255 -0.0032868893 0.537 4285099628
-0.021984773 -0.0032869661 0.537 4282985794
-0.021123199 -0.0033115242 0.54100001 4280156695
-0.020135026 -0.0033177156 0.542 4280096784
-0.01896682 -0.003293297 0.53799999 4278517760
-0.017947223 -0.003293359 0.53799999 4280418304
-0.016864721 -0.0032811749 0.53600001 4290419078
-0.01584895 -0.0032812299 0.53600001 4291676348
-0.014777848 -0.003269037 0.53399998 4294373861
-0.013688563 -0.0032507195 0.53100002 4294176748
-0.012682316 -0.0032507631 0.53100002 4293847783
-0.011654089 -0.0032446804 0.52999997 4293979114
-0.01064976 -0.0032447164 0.52999997 4294044907
-0.0096454434 -0.0032447493 0.52999997 4293848044
-0.0086574424 -0.0032509004 0.53100002 4293782251
-0.0076944795 -0.0032692922 0.53399998 4293782251
-0.0066951304 -0.003275437 0.53500003 4293914093
-0.0056707589 -0.0032693329 0.53399998 4294110703
-0.00465891 -0.0032693471 0.53399998 4294176496
-0.0036470694 -0.0032693588 0.53399998 4293650656
-0.002635235 -0.003269366 0.53399998 4294374379
-0.0016203659 -0.003263247 0.53299999 4294506481
-0.00061043689 -0.0032632472 0.53299999 4294769652
0.00039948817 -0.0032632439 0.53299999 4293257972
0.0014094098 -0.0032632363 0.53299999 4288455083
0.002419329 -0.0032632258 0.53299999 4286153070
0.0034292468 -0.0032632116 0.53299999 4287403137
0.0044308347 -0.0032570711 0.53200001 4289044394
0.0054286327 -0.003250927 0.53100002 4291018184
0.0064347605 -0.0032509023 0.53100002 4291281883
0.0074549019 -0.0032569955 0.53200001 4288913335
0.0084629282 -0.0032569629 0.53200001 4282736750
0.0094887596 -0.0032630491 0.53299999 4278196776
0.01047899 -0.0032568872 0.53200001 4279900698
0.011443841 -0.0032445998 0.52999997 4278848010
0.012424608 -0.0032384314 0.52899998 4280549376
0.013426972 -0.0032383811 0.52899998 4288442986
0.01442934 -0.0032383269 0.52899998 4290949279
0.015402549 -0.003232148 0.528 4294831066
0.01640304 -0.003232087 0.528 4294176750
0.017403541 -0.0032320223 0.528 4293847785
0.018334342 -0.0032197121 0.52600002 4293716197
0.019294318 -0.0032135192 0.52499998 4294176748
0.020289171 -0.0032134443 0.52499998 4293783021
0.021284027 -0.0032133653 0.52499998 4292598747
0.022236465 -0.0032071627 0.52399999 4288130497
0.023185125 -0.0032009569 0.523 4278190091
0.024176234 -0.0032008679 0.523 4278190080
0.025167359 -0.0032007748 0.523 4278190080
0.026208516 -0.0032067988 0.52399999 4278190080
0.027201567 -0.0032066982 0.52399999 4278190080
0.028194636 -0.0032065944 0.52399999 4278255616
0.029132023 -0.0032003685 0.523 4280359700
0.030065639 -0.0031941386 0.52200001 4282528807
0.031054972 -0.0031940246 0.52200001 4284502597
0.032044325 -0.0031939072 0.52200001 4286803566
0.033033703 -0.0031937859 0.52200001 4288579977
0.034023099 -0.0031936611 0.52200001 4289764254
0.034945443 -0.003187415 0.52100003 4290948527
0.035932984 -0.0031872827 0.52100003 4292263361
0.036991417 -0.0031932644 0.52200001 4292723912
0.038053662 -0.0031992418 0.523 4294041051
0.038970422 -0.0031929824 0.52200001 4293909465
0.039883401 -0.0031867193 0.52100003 4294306791
0.040871069 -0.0031865693 0.52100003 4293846240
0.041858763 -0.0031864154 0.52100003 4293254360
0.042846482 -0.003186258 0.52100003 4292728016
0.043834228 -0.0031860969 0.52100003 4292136145
0.044822004 -0.0031859328 0.52100003 4291478215
0.045809809 -0.0031857647 0.52100003 4290492349
-0.11665226 -0.0023687161 0.56599998 4294967295
-0.11455454 -0.0023482472 0.56099999 4293848044
-0.11348737 -0.0023486994 0.56099999 4283979094
-0.11161867 -0.0023323963 0.55699998 4280360495
-0.11055923 -0.0023328357 0.55699998 4282268492
-0.10989299 -0.0023416488 0.55900002 4282532168
-0.10882986 -0.0023420805 0.55900002 4282532168
-0.10738119 -0.002334127 0.55699998 4282794054
-0.10632198 -0.0023345489 0.55699998 4282794054
-0.1052628 -0.0023349659 0.55699998 4282859848
-0.10476493 -0.0023479566 0.56 4282333503
-0.10351499 -0.0023441736 0.55900002 4282528055
-0.1024522 -0.0023445787 0.55900002 4285488740
-0.10120808 -0.0023407848 0.55800003 4290881385
-0.10014728 -0.0023411799 0.55800003 4293578642
-0.099086545 -0.0023415713 0.55800003 4290488267
-0.098025881 -0.002341958 0.55800003 4288909492
-0.096617706 -0.0023339447 0.55599999 4285759882
-0.095560953 -0.0023343214 0.55599999 4283588713
-0.094334282 -0.0023304943 0.55500001 4282203732
-0.09311147 -0.002326662 0.55400002 4279177255
-0.092058674 -0.0023270242 0.55400002 4278517766
-0.090677388 -0.0023189797 0.55199999 4278190081
-0.089303777 -0.0023109289 0.55000001 4282072064
-0.088098295 -0.0023070732 0.54900002 4281545728
-0.087055221 -0.0023074148 0.54900002 4285035296
-0.086168878 -0.0023119557 0.55000001 4285495847
-0.085124016 -0.0023122893 0.55000001 4286284922
-0.084079221 -0.002312619 0.55000001 4288455835
-0.083034478 -0.0023129443 0.55000001 4292663965
-0.08198978 -0.0023132651 0.55000001 4293322152
-0.081239477 -0.0023219949 0.55199999 4294438623
-0.080191098 -0.0023223085 0.55199999 4294966766
-0.078999393 -0.0023184107 0.551 4294967295
-0.077953018 -0.002318715 0.551 4294967295
-0.076906674 -0.0023190151 0.551 4294967295
-0.075860411 -0.0023193115 0.551 4294967295
-0.075085737 -0.0023280231 0.55299997 4294967295
-0.073767997 -0.002319891 0.551 4294967295
-0.072721876 -0.0023201741 0.551 4294967295
-0.072066061 -0.0023330878 0.55400002 4294967295
-0.065481462 -0.0022880768 0.54299998 4292793830
-0.064450875 -0.0022883276 0.54299998 4292267486
-0.06330353 -0.0022843592 0.542 4288515275
-0.062274929 -0.0022846011 0.542 4287923138
-0.061246369 -0.0022848386 0.542 4285689226
-0.060440075 -0.0022935043 0.54400003 4282991970
-0.059407808 -0.0022937343 0.54400003 4279575617
-0.058375597 -0.0022939611 0.54400003 4278191394
-0.05734342 -0.0022941832 0.54400003 4278192915
-0.056311298 -0.0022944014 0.54400003 4278191373
-0.055279206 -0.0022946151 0.54400003 4278591261
-0.054247163 -0.0022948252 0.54400003 4279117605
-0.053117335 -0.0022908119 0.54299998 4280102958
-0.052087273 -0.0022910135 0.54299998 4280695095
-0.051057253 -0.0022912109 0.54299998 4281154363
-0.05002727 -0.0022914039 0.54299998 4281285949
-0.04899732 -0.0022915932 0.54299998 4281874236
-0.047967415 -0.0022917783 0.54299998 4281874236
-0.046937551 -0.0022919595 0.54299998 4281938496
-0.045907721 -0.0022921364 0.54299998 4281741373
-0.044960581 -0.0022965316 0.54400003 4281478447
-0.043767422 -0.0022882568 0.542 4280754724
-0.04258189 -0.0022799773 0.54000002 4280096280
-0.041557897 -0.0022801373 0.54000002 4279635729
-0.04053393 -0.0022802935 0.54000002 4279372051
-0.039510004 -0.0022804453 0.54000002 4279372051
-0.038486108 -0.0022805941 0.54000002 4279898395
-0.037462249 -0.002280738 0.54000002 4280819497
-0.036438413 -0.0022808781 0.54000002 4281608992
-0.035349023 -0.0022767896 0.53899997 4280293132
-0.034327153 -0.0022769216 0.53899997 4280884011
-0.033305306 -0.0022770497 0.53899997 4278452231
-0.032223593 -0.0022729489 0.53799999 4280090624
-0.031203702 -0.0022730685 0.53799999 4290812315
-0.030127728 -0.0022689588 0.537 4294043331
-0.029055579 -0.0022648454 0.53600001 4294767311
-0.028039558 -0.0022649525 0.53600001 4294110189
-0.026922721 -0.0022566046 0.53399998 4293715432
-0.02591054 -0.0022567038 0.53399998 4293782505
-0.024898378 -0.0022567993 0.53399998 4294637814
-0.023886241 -0.0022568903 0.53399998 4294046706
-0.022959797 -0.002265431 0.53600001 4288651681
-0.021902971 -0.002261288 0.53500003 4281546359
-0.020889003 -0.0022613681 0.53500003 4278190138
-0.019875053 -0.002261444 0.53500003 4279241728
-0.018861124 -0.0022615162 0.53500003 4279241728
-0.01781385 -0.0022573567 0.53399998 4279894528
-0.016738925 -0.0022489659 0.53200001 4287065959
-0.015730729 -0.0022490257 0.53200001 4290029220
-0.014694879 -0.0022448541 0.53100002 4294766316
-0.013662832 -0.0022406783 0.52999997 4294308588
-0.012658474 -0.0022407267 0.52999997 4294045159
-0.011654128 -0.0022407707 0.52999997 4293847783
-0.010649797 -0.002240811 0.52999997 4293781990
-0.009645476 -0.0022408473 0.52999997 4293782251
-0.0086574713 -0.0022451079 0.53100002 4293716458
-0.0076656868 -0.0022493647 0.53200001 4293781738
-0.0066576079 -0.0022493897 0.53200001 4293847787
-0.0056707757 -0.002257867 0.53399998 4294044907
-0.0046501993 -0.002253656 0.53299999 4294176750
-0.0036402501 -0.0022536695 0.53299999 4294242541
-0.0026352415 -0.0022579068 0.53399998 4294242541
-0.0016203687 -0.002253684 0.53299999 4294439404
-0.00061043591 -0.0022536858 0.53299999 4294965748
0.00039874346 -0.0022494553 0.53200001 4294375154
0.0014067742 -0.0022494495 0.53200001 4294112238
0.0024148026 -0.0022494392 0.53200001 4294178544
0.0034228289 -0.0022494248 0.53200001 4294770682
0.0044058687 -0.0022367223 0.52899998 4293913842
0.0054082088 -0.0022367011 0.52899998 4294045428
0.0064105508 -0.0022366757 0.52899998 4292267245
0.007398881 -0.0022324182 0.528 4290162125
0.008399331 -0.0022323853 0.528 4285228677
0.0094175879 -0.0022365763 0.52899998 4278846757
0.010419938 -0.0022365351 0.52899998 4278258183
0.011422295 -0.0022364906 0.52899998 4278587405
0.01240117 -0.0022322144 0.528 4278190080
0.013376262 -0.0022279348 0.52700001 4280691761
0.014374845 -0.0022278782 0.52700001 4284832125
0.015373438 -0.0022278184 0.52700001 4293714175
0.016372038 -0.0022277541 0.52700001 4294242543
0.017337689 -0.0022234598 0.52600002 4294176750
0.018299555 -0.0022191613 0.52499998 4294045930
0.019257642 -0.0022148592 0.52399999 4294243052
0.020250602 -0.0022147808 0.52399999 4294045932
0.02124357 -0.0022146977 0.52399999 4293782503
0.022109244 -0.0022019325 0.52100003 4290626783
0.02309655 -0.0022018424 0.52100003 4285560722
0.024083875 -0.0022017492 0.52100003 4286220140
0.025071217 -0.0022016515 0.52100003 4287931015
0.026108587 -0.0022057763 0.52200001 4290489760
0.027149759 -0.0022098958 0.523 4291608497
0.028087132 -0.0022055614 0.52200001 4292398790
0.029076431 -0.0022054482 0.52200001 4293319892
0.030065754 -0.0022053318 0.52200001 4293321693
0.031055095 -0.0022052112 0.52200001 4293584608
0.032044448 -0.0022050866 0.52200001 4293321187
0.033033825 -0.0022049579 0.52200001 4293584358
0.033958059 -0.0022006023 0.52100003 4292794082
0.034945581 -0.0022004666 0.52100003 4292662239
0.035933126 -0.0022003269 0.52100003 4291608270
0.036991552 -0.0022044063 0.52200001 4291345098
0.038053807 -0.0022084815 0.523 4290488508
0.038970564 -0.0022041074 0.52200001 4290093750
0.039960105 -0.0022039521 0.52200001 4289304738
0.040871225 -0.0021995709 0.52100003 4288514966
0.041858923 -0.0021994079 0.52100003 4287595651
0.042846654 -0.0021992417 0.52100003 4287069307
0.043834396 -0.0021990712 0.52100003 4286807162
0.044822183 -0.0021988966 0.52100003 4286478197
-0.11479785 -0.0012744697 0.55699998 4294967295
-0.1137382 -0.0012749461 0.55699998 4293585642
-0.11247636 -0.0012731282 0.55599999 4283519313
-0.11141873 -0.0012735947 0.55599999 4279639084
-0.11036119 -0.0012740566 0.55599999 4281678667
-0.10930368 -0.0012745139 0.55599999 4282532422
-0.10844092 -0.0012772597 0.55699998 4282532422
-0.10718884 -0.0012754147 0.55599999 4282860100
-0.10613152 -0.0012758583 0.55599999 4282925893
-0.10488527 -0.001274002 0.55500001 4282991173
-0.10382995 -0.0012744359 0.55500001 4282530622
-0.10277469 -0.0012748651 0.55500001 4282265389
-0.10171948 -0.0012752897 0.55500001 4284304715
-0.10048296 -0.0012734114 0.55400002 4286999877
-0.099429779 -0.0012738263 0.55400002 4287920979
-0.098731801 -0.0012788369 0.55599999 4285822068
-0.097674921 -0.0012792442 0.55599999 4283650899
-0.096444324 -0.0012773457 0.55500001 4278202922
-0.095389456 -0.0012777431 0.55500001 4278203179
-0.094164692 -0.0012758336 0.55400002 4278190080
-0.093111843 -0.0012762214 0.55400002 4278190080
-0.091892861 -0.0012743005 0.55299997 4278190080
-0.09051349 -0.0012700688 0.551 4282660147
-0.089304142 -0.0012681354 0.55000001 4285617984
-0.087938167 -0.0012638902 0.54799998 4287723360
-0.086897008 -0.001264252 0.54799998 4289171835
-0.085855879 -0.0012646089 0.54799998 4290553488
-0.084814809 -0.0012649618 0.54799998 4291410610
-0.083773822 -0.0012653102 0.54799998 4292726469
-0.082732856 -0.0012656541 0.54799998 4294371814
-0.081691958 -0.0012659937 0.54799998 4294967295
-0.080798276 -0.0012686397 0.54900002 4294967295
-0.079900876 -0.0012712826 0.55000001 4294967295
-0.07871297 -0.0012692981 0.54900002 4294967295
-0.077670373 -0.0012696207 0.54900002 4294967295
-0.076627843 -0.0012699389 0.54900002 4294967295
-0.075585365 -0.0012702525 0.54900002 4294967295
-0.074542917 -0.0012705621 0.54900002 4294967295
-0.073500544 -0.0012708672 0.54900002 4294967295
-0.072458208 -0.0012711677 0.54900002 4294967295
-0.071415938 -0.0012714639 0.54900002 4294967295
-0.069220036 -0.0012509074 0.54000002 4294967295
-0.068194941 -0.0012511902 0.54000002 4294967295
-0.067294277 -0.001253786 0.54100001 4294835709
-0.066267386 -0.0012540609 0.54100001 4289835441
-0.065119945 -0.0012520127 0.54000002 4289635748
-0.06409505 -0.0012522786 0.54000002 4287135613
-0.063070185 -0.0012525398 0.54000002 4284247161
-0.062045384 -0.0012527969 0.54000002 4280365374
-0.061133616 -0.0012553701 0.54100001 4279639084
-0.060329203 -0.0012602607 0.54299998 4280297271
-0.059298836 -0.0012605062 0.54299998 4278190080
-0.058268506 -0.0012607474 0.54299998 4278192907
-0.057238232 -0.0012609846 0.54299998 4278521401
-0.056207996 -0.0012612173 0.54299998 4279771467
-0.055177808 -0.0012614457 0.54299998 4281215831
-0.054147653 -0.0012616698 0.54299998 4280689487
-0.053019729 -0.0012595658 0.542 4281413937
-0.051991552 -0.0012597808 0.542 4281611316
-0.050963428 -0.0012599918 0.542 4282069037
-0.049935333 -0.0012601983 0.542 4282266416
-0.048907284 -0.0012604005 0.542 4281410857
-0.047879267 -0.0012605987 0.542 4281542443
-0.046851296 -0.0012607925 0.542 4280821023
-0.045823358 -0.0012609819 0.542 4280623388
-0.044878107 -0.001263494 0.54299998 4280360720
-0.043606099 -0.001256694 0.54000002 4280294927
-0.042503197 -0.0012545424 0.53899997 4279832602
-0.041481096 -0.0012547136 0.53899997 4280424739
-0.040534098 -0.0012572092 0.54000002 4281543738
-0.039363828 -0.0012527156 0.53799999 4283583577
-0.038343724 -0.0012528744 0.53799999 4285226879
-0.037393011 -0.0012553575 0.53899997 4284305777
-0.036303598 -0.0012531785 0.53799999 4282859098
-0.035283584 -0.0012533246 0.53799999 4279240483
-0.034199908 -0.0012511362 0.537 4280422942
-0.033120066 -0.0012489435 0.53600001 4279042058
-0.03210393 -0.001249076 0.53600001 4278583296
-0.031087827 -0.0012492046 0.53600001 4288448646
-0.030015644 -0.0012469983 0.53500003 4291806640
-0.028947273 -0.0012447869 0.53399998 4294504152
-0.027935036 -0.0012449026 0.53399998 4294176237
-0.02687241 -0.0012426825 0.53299999 4293847015
-0.02586212 -0.0012427894 0.53299999 4293584356
-0.024851849 -0.0012428922 0.53299999 4294242543
-0.023841603 -0.0012429908 0.53299999 4294111986
-0.022874214 -0.0012454176 0.53399998 4290164406
-0.021821175 -0.0012431758 0.53299999 4286018695
-0.020810993 -0.0012432621 0.53299999 4278190090
-0.019837977 -0.0012456768 0.53399998 4278387968
-0.018825941 -0.001245755 0.53399998 4279111686
-0.017813919 -0.0012458286 0.53399998 4278978048
-0.016738988 -0.0012412322 0.53200001 4282201904
-0.015730789 -0.0012412973 0.53200001 4289434493
-0.014694935 -0.0012390249 0.53100002 4294961619
-0.013662883 -0.0012367485 0.52999997 4294373357
-0.012658522 -0.001236801 0.52999997 4294110441
-0.011654173 -0.0012368495 0.52999997 4293978599
-0.010649836 -0.0012368938 0.52999997 4293912806
-0.0096455133 -0.0012369341 0.52999997 4293716712
-0.0086575039 -0.0012393041 0.53100002 4293716712
-0.0076513072 -0.0012393364 0.53100002 4294044394
-0.0066451179 -0.0012393643 0.53100002 4294176237
-0.0056495583 -0.001241722 0.53200001 4294176237
-0.0046414919 -0.0012417417 0.53200001 4294307566
-0.0036334326 -0.0012417572 0.53200001 4294505458
-0.0026303148 -0.0012441027 0.53299999 4294176750
-0.0016173329 -0.0012417757 0.53200001 4294307303
-0.00060585502 -0.0012347761 0.52899998 4294767854
0.000395749 -0.001232441 0.528 4294768369
0.0013962045 -0.001232436 0.528 4294570990
0.0023966576 -0.0012324266 0.528 4294505710
0.0033906749 -0.0012300792 0.52700001 4293782244
0.0043892311 -0.0012300618 0.52700001 4292728798
0.0053877858 -0.00123004 0.52700001 4291873489
0.0063742232 -0.0012276806 0.52600002 4291084754
0.0073708864 -0.0012276508 0.52600002 4288913585
0.0083834575 -0.0012299508 0.52700001 4283329654
0.0093820225 -0.001229913 0.52700001 4278196773
0.010380587 -0.0012298708 0.52700001 4278190080
0.011422344 -0.0012344919 0.52899998 4278191872
0.012377734 -0.0012297743 0.52700001 4278190080
0.013350935 -0.0012273865 0.52600002 4279048721
0.01432035 -0.0012249945 0.52499998 4283127092
0.015315157 -0.0012249323 0.52499998 4292469698
0.016341042 -0.001227199 0.52600002 4293979885
0.017304797 -0.0012247951 0.52499998 4294045678
0.018160205 -0.0012153895 0.52100003 4293651435
0.019147469 -0.0012153113 0.52100003 4293651435
0.020134747 -0.001215229 0.52100003 4294110955
0.021122035 -0.0012151428 0.52100003 4293979112
0.022109333 -0.0012150524 0.52100003 4293124587
0.023096647 -0.001214958 0.52100003 4290624453
0.024083976 -0.0012148595 0.52100003 4289308845
0.025071317 -0.0012147567 0.52100003 4291282635
0.026108691 -0.0012169816 0.52200001 4292398538
0.027149873 -0.0012192019 0.523 4292859089
0.028087243 -0.0012167556 0.52200001 4293977570
0.02907655 -0.0012166365 0.52200001 4293648605
0.030065874 -0.0012165135 0.52200001 4293782503
0.031055219 -0.0012163863 0.52200001 4293059037
0.032044578 -0.0012162548 0.52200001 4292467156
0.033033967 -0.0012161195 0.52200001 4292006606
0.033958189 -0.0012136506 0.52100003 4291743951
0.034945719 -0.0012135073 0.52100003 4291349193
0.035933267 -0.0012133598 0.52100003 4289442745
-0.11565001 -0.00021697984 0.55599999 4294967295
-0.11459224 -0.0002174836 0.55599999 4294967295
-0.1135345 -0.00021798268 0.55599999 4293519849
-0.11227454 -0.00021808417 0.55500001 4283124555
-0.11121882 -0.00021857308 0.55500001 4278981663
-0.11036164 -0.00021945203 0.55599999 4280626231
-0.10930414 -0.00021993254 0.55599999 4281413685
-0.108052 -0.00022001193 0.55500001 4281413685
-0.10699654 -0.00022048231 0.55500001 4281281072
-0.10555931 -0.00022015179 0.55299997 4281215279
-0.10394078 -0.00021941442 0.55000001 4280754724
-0.10289498 -0.00021986674 0.55000001 4280294173
-0.10184922 -0.00022031447 0.55000001 4280487445
-0.10080353 -0.00022075765 0.55000001 4280881947
-0.100302 -0.00022240267 0.55299997 4284101890
-0.099250734 -0.00022283901 0.55299997 4284036097
-0.09802191 -0.00022286696 0.55199999 4285949515
-0.096972644 -0.0002232933 0.55199999 4286804824
-0.096270956 -0.0002245256 0.55400002 4287400834
-0.095217995 -0.00022494425 0.55400002 4289045659
-0.093995094 -0.00022495144 0.55299997 4292136606
-0.092944153 -0.0002253601 0.55299997 4292597157
-0.091727078 -0.00022535588 0.55199999 4293910998
-0.090349607 -0.00022493664 0.55000001 4294964457
-0.089142166 -0.00022491967 0.54900002 4294967289
-0.08793854 -0.00022489659 0.54799998 4294967295
-0.086897366 -0.00022527875 0.54799998 4294967295
-0.085856244 -0.00022565629 0.54799998 4294967295
-0.084815174 -0.00022602928 0.54799998 4294967295
-0.083774164 -0.00022639771 0.54799998 4294967295
-0.08258225 -0.00022634781 0.54699999 4294967295
-0.081543244 -0.00022670643 0.54699999 4294967295
-0.080504283 -0.00022706053 0.54699999 4294967295
-0.079610661 -0.0002278258 0.54799998 4294966778
-0.078426525 -0.00022775501 0.54699999 4294571494
-0.077387743 -0.00022809545 0.54699999 4292465862
-0.076349013 -0.00022843134 0.54699999 4292598234
-0.075172633 -0.00022834443 0.546 4294967295
-0.074135885 -0.00022867063 0.546 4294967295
-0.073099196 -0.00022899227 0.546 4294967295
-0.072458521 -0.00023056933 0.54900002 4294967295
-0.071416236 -0.00023088361 0.54900002 4294967295
-0.069220327 -0.00022740323 0.54000002 4294967295
-0.068195224 -0.00022770339 0.54000002 4294967295
-0.067170173 -0.00022799904 0.54000002 4293979616
-0.066145174 -0.00022829023 0.54000002 4280557845
-0.065120228 -0.00022857693 0.54000002 4278196224
-0.064095318 -0.00022885911 0.54000002 4278196224
-0.063070461 -0.00022913683 0.54000002 4278788645
-0.062045649 -0.00022941007 0.54000002 4278722852
-0.061020877 -0.0002296788 0.54000002 4282993192
-0.060107253 -0.00023036885 0.54100001 4289046148
-0.059080672 -0.00023062908 0.54100001 4292202403
-0.058054142 -0.00023088486 0.54100001 4292596905
-0.057027645 -0.00023113612 0.54100001 4292989405
-0.05610472 -0.00023181055 0.542 4293187041
-0.055076417 -0.00023205328 0.542 4290164402
-0.053948443 -0.00023186294 0.54100001 4279571985
-0.052824307 -0.00023166726 0.54000002 4278192901
-0.051799927 -0.00023189562 0.54000002 4278194186
-0.050869614 -0.00023254937 0.54100001 4279631883
-0.049843408 -0.00023276918 0.54100001 4282393653
-0.048817258 -0.00023298456 0.54100001 4282918475
-0.047702797 -0.00023276436 0.54000002 4285813623
-0.04667861 -0.00023297034 0.54000002 4286277743
-0.045654465 -0.00023317184 0.54000002 4288580498
-0.044713005 -0.00023380104 0.54100001 4291082380
-0.043444775 -0.00023269636 0.53799999 4291542931
-0.042345669 -0.00023245087 0.537 4292136134
-0.041327354 -0.00023263345 0.537 4293188565
-0.040309072 -0.00023281157 0.537 4293847013
-0.039290827 -0.00023298523 0.537 4294768115
-0.038343884 -0.00023358862 0.53799999 4294440688
-0.037323795 -0.00023375369 0.53799999 4291151038
-0.036236268 -0.00023347951 0.537 4288322952
-0.035152562 -0.00023320029 0.53600001 4278190080
-0.03413637 -0.00023335144 0.53600001 4278977293
-0.033058412 -0.00023306248 0.53500003 4279109135
-0.032044172 -0.00023320447 0.53500003 4278976512
-0.030971956 -0.00023290585 0.53399998 4286408801
-0.02995966 -0.00023303869 0.53399998 4290291606
-0.028893188 -0.0002327305 0.53299999 4294765273
-0.027882842 -0.00023285425 0.53299999 4294307564
-0.026872521 -0.00023297363 0.53299999 4294110441
-0.025813706 -0.00023265128 0.53200001 4293912806
-0.024805328 -0.00023276161 0.53200001 4294176235
-0.023841701 -0.00023330523 0.53299999 4293914605
-0.022831473 -0.00023340693 0.53299999 4291743436
-0.021821268 -0.00023350422 0.53299999 4288323494
-0.020811083 -0.00023359711 0.53299999 4278190080
-0.019800914 -0.00023368554 0.53299999 4278190080
-0.018826017 -0.00023420819 0.53399998 4279705116
-0.017780636 -0.00023384922 0.53299999 4279372805
-0.016739057 -0.00023348557 0.53200001 4280293907
-0.015701286 -0.00023311719 0.53100002 4284960359
-0.014694996 -0.00023318331 0.53100002 4294631929
-0.013662941 -0.00023280582 0.52999997 4294833649
-0.012658574 -0.00023286304 0.52999997 4294438891
-0.011654222 -0.00023291587 0.52999997 4294439404
-0.010649881 -0.00023296435 0.52999997 4294505197
-0.0096455533 -0.0002330084 0.52999997 4294570990
-0.0086412355 -0.00023304806 0.52999997 4294768369
-0.007636928 -0.00023308335 0.52999997 4294570738
-0.0066326307 -0.00023311426 0.52999997 4294504945
-0.0056283409 -0.00023314074 0.52999997 4294373607
-0.0046415101 -0.00023404273 0.53200001 4293452761
-0.00060356618 -0.00023188745 0.52700001 4289833392
0.00039425251 -0.00023144762 0.52600002 4286149788
0.0013909226 -0.00023144345 0.52600002 4285228687
0.0023875902 -0.00023143491 0.52600002 4283258467
0.0033842565 -0.00023142203 0.52600002 4281284677
0.0043725925 -0.00023096483 0.52499998 4278388270
0.0053673629 -0.00023094329 0.52499998 4278190099
0.0063500153 -0.00023047756 0.52399999 4278190080
0.0073428927 -0.00023044736 0.52399999 4278190080
0.0083834948 -0.00023173199 0.52700001 4278190080
0.0092752455 -0.000229055 0.52100003 4278321152
0.010262447 -0.00022901206 0.52100003 4278977293
0.011249654 -0.00022896481 0.52100003 4282925130
0.012236864 -0.0002289132 0.52100003 4282794584
0.013300228 -0.00023017508 0.52399999 4284834423
0.01426586 -0.00022967535 0.523 4285621890
0.015256879 -0.00022961055 0.523 4292595692
0.016185777 -0.00022866367 0.52100003 4294176746
0.017173026 -0.00022859054 0.52100003 4294637297
0.018160284 -0.00022851305 0.52100003 4294308595
0.019147551 -0.00022843124 0.52100003 4294242802
0.020134831 -0.00022834513 0.52100003 4294242793
0.021122126 -0.00022825474 0.52100003 4294045157
0.022109428 -0.00022815997 0.52100003 4293322473
0.02309675 -0.00022806095 0.52100003 4293059044
0.024084078 -0.00022795756 0.52100003 4291874524
0.025071427 -0.00022784986 0.52100003 4291808731
0.026108801 -0.00022817495 0.52200001 4292004296
0.027098076 -0.00022805843 0.52200001 4291083194
0.028087368 -0.00022793755 0.52200001 4289701043
0.029076677 -0.00022781236 0.52200001 4289437614
0.031983327 -0.00022697516 0.52100003 4286874492
-0.11523452 0.00083474204 0.55400002 4294966267
-0.11418054 0.00083421654 0.55400002 4294967295
-0.11312661 0.00083369587 0.55400002 4293519334
-0.11207275 0.00083317998 0.55400002 4283321419
-0.11101893 0.00083266868 0.55400002 4278192896
-0.11016365 0.00083366421 0.55500001 4280561442
-0.10891147 0.00083166035 0.55400002 4280624671
-0.1078578 0.00083116314 0.55400002 4280427292
-0.10680422 0.0008306707 0.55400002 4280163091
-0.10498714 0.00082418893 0.55000001 4280491799
-0.10375229 0.00082221179 0.54900002 4280098581
-0.10270837 0.00082173781 0.54900002 4280624925
-0.1016645 0.00082126854 0.54900002 4282660397
-0.10062069 0.00082080398 0.54900002 4284765516
-0.099576958 0.00082034426 0.54900002 4286802258
-0.098533273 0.00081988907 0.54900002 4288183911
-0.097489625 0.0008194386 0.54900002 4289368464
-0.09644606 0.00081899291 0.54900002 4290092187
-0.095402531 0.00081855169 0.54900002 4292591040
-0.094530918 0.00081960548 0.55000001 4293643728
-0.093655586 0.00082066248 0.551 4293779160
-0.092608437 0.00082023401 0.551 4294966004
-0.091561317 0.00081981014 0.551 4294967295
-0.09035001 0.00081790413 0.55000001 4294967295
-0.088980176 0.00081451779 0.54799998 4294967295
-0.087778471 0.00081262493 0.54699999 4294967295
-0.086739182 0.00081222295 0.54699999 4294967295
-0.08554329 0.00081034168 0.546 4294967295
-0.084506005 0.00080994994 0.546 4294967295
-0.083621673 0.0008110457 0.54699999 4294967295
-0.082431637 0.00080918061 0.546 4294967295
-0.081394531 0.0008088029 0.546 4294177779
-0.08035747 0.0008084299 0.546 4293125091
-0.079320468 0.00080806162 0.546 4292203989
-0.078283526 0.00080769818 0.546 4290823870
-0.077246614 0.00080733938 0.546 4289376423
-0.076209776 0.00080698531 0.546 4289244542
-0.075035289 0.00080515863 0.54500002 4294179017
-0.073864661 0.00080333784 0.54400003 4294967293
-0.072831772 0.00080299919 0.54400003 4294967295
-0.071798928 0.00080266525 0.54400003 4294967295
-0.070636049 0.00080086105 0.54299998 4294967295
-0.06934882 0.00079758855 0.54100001 4294967295
-0.068195537 0.00079579675 0.54000002 4294967295
-0.067170478 0.00079548394 0.54000002 4293518815
-0.06614548 0.00079517579 0.54000002 4282070834
-0.065120511 0.00079487223 0.54000002 4278651136
-0.064095609 0.00079457357 0.54000002 4280953634
-0.063070737 0.00079427951 0.54000002 4281676332
-0.062045921 0.00079399016 0.54000002 4280821023
-0.061021153 0.0007937054 0.54000002 4285092167
-0.059996419 0.00079342537 0.54000002 4293645514
-0.058971737 0.0007931501 0.54000002 4293979366
-0.057947092 0.00079287944 0.54000002 4293848037
-0.056922499 0.00079261354 0.54000002 4294829549
-0.055897947 0.00079235225 0.54000002 4294171619
-0.054873437 0.00079209573 0.54000002 4291349193
-0.053848963 0.00079184381 0.54000002 4279243281
-0.052824549 0.00079159683 0.54000002 4279435264
-0.051800154 0.0007913544 0.54000002 4282852640
-0.050775815 0.00079111662 0.54000002 4283973423
-0.049751509 0.00079088361 0.54000002 4286341971
-0.048636999 0.00078919099 0.53899997 4287988099
-0.047614664 0.00078896777 0.53899997 4289501081
-0.046592373 0.00078874931 0.53899997 4290816946
-0.045147397 0.00078122073 0.53399998 4291606206
-0.044134662 0.00078101363 0.53399998 4293316310
-0.04328347 0.0007837356 0.53600001 4294829549
-0.042267006 0.00078353699 0.53600001 4294308849
-0.041250579 0.00078334298 0.53600001 4294967295
-0.040234186 0.00078315381 0.53600001 4294967295
-0.039144669 0.00078150857 0.53500003 4294967295
-0.038130246 0.00078132912 0.53500003 4294967295
-0.037185218 0.00078261428 0.53600001 4292467679
-0.036168952 0.00078244379 0.53600001 4286815404
-0.035152722 0.00078227802 0.53600001 4278191382
-0.034072835 0.00078065775 0.53500003 4278190091
-0.03299677 0.00077904266 0.53399998 4278913819
-0.031984419 0.00077889144 0.53399998 4280221696
-0.030914094 0.00077728665 0.53299999 4283575085
-0.029903691 0.00077714509 0.53299999 4290023800
-0.028839106 0.00077555043 0.53200001 4294961102
-0.027830655 0.00077541848 0.53200001 4294176237
-0.026771812 0.00077383389 0.53100002 4294044394
-0.0257653 0.00077371136 0.53100002 4294045159
-0.024805441 0.00077505043 0.53200001 4294176746
-0.02379708 0.00077493704 0.53200001 4293782251
-0.022788743 0.00077482837 0.53200001 4292992992
-0.021780424 0.00077472423 0.53200001 4288984257
-0.020772131 0.00077462499 0.53200001 4278259998
-0.019763852 0.00077453023 0.53200001 4278190080
-0.018790849 0.0007758959 0.53299999 4279903776
-0.017747354 0.00077435491 0.53200001 4279833604
-0.01670767 0.00077281881 0.53100002 4278190080
-0.015671786 0.00077128748 0.52999997 4285484849
-0.014667387 0.00077121629 0.52999997 4294959811
-0.013637222 0.00076969492 0.52899998 4294308849
-0.01263475 0.00076963322 0.52899998 4294243056
-0.011632286 0.00076957612 0.52899998 4294374129
-0.010629835 0.00076952367 0.52899998 4294308336
-0.0096273972 0.00076947582 0.52899998 4294571506
-0.00862497 0.00076943269 0.52899998 4294176748
-0.007622554 0.00076939422 0.52899998 4293649636
-0.006632661 0.00077081454 0.52999997 4293123292
-0.0056283674 0.00077078538 0.52999997 4292400337
-0.0046240822 0.00077076076 0.52999997 4291413442
-0.0035788252 0.00076201535 0.52399999 4289902518
-0.0025859226 0.00076200016 0.52399999 4288915622
-0.0015930254 0.00076198956 0.52399999 4285171063
-0.00060127856 0.00076343771 0.52499998 4283197273
0.00039350442 0.00076343631 0.52499998 4282667584
0.0013882843 0.00076343957 0.52499998 4280035864
0.0023830615 0.00076344737 0.52499998 4278190084
0.0033714031 0.00076200557 0.52399999 4278190081
0.0043642828 0.00076202262 0.52399999 4278190080
0.005346939 0.00076058996 0.523 4278190080
0.006325806 0.00075916178 0.52200001 4278190080
0.0073008854 0.00075773807 0.52100003 4278190080
0.0082880836 0.00075777323 0.52100003 4280356107
0.0092752883 0.00075781299 0.52100003 4283448121
0.010242795 0.00075640262 0.51999998 4285159500
0.01122811 0.00075645139 0.51999998 4287264619
0.012213432 0.00075650477 0.51999998 4288646293
0.013224141 0.0007580177 0.52100003 4289041051
0.014211369 0.00075808016 0.52100003 4291931829
0.015198605 0.00075814739 0.52100003 4293971412
0.016185852 0.00075821916 0.52100003 4294044646
0.0171731 0.00075829541 0.52100003 4294110439
0.018160366 0.00075837632 0.52100003 4294307312
0.019147638 0.00075846171 0.52100003 4293978603
0.020134922 0.00075855176 0.52100003 4293452255
0.021122219 0.00075864629 0.52100003 4292925911
0.022109527 0.00075874536 0.52100003 4292203476
0.02309685 0.00075884903 0.52100003 4291742925
0.024084184 0.00075895723 0.52100003 4291150284
0.025071535 0.00075906998 0.52100003 4290755526
-0.11523507 0.0018856978 0.55400002 4294966267
-0.11397497 0.001881746 0.55299997 4294967038
-0.11292293 0.0018812027 0.55299997 4292928480
-0.11207327 0.0018840655 0.55400002 4281480241
-0.11101945 0.001883531 0.55400002 4281027871
-0.10996568 0.0018830012 0.55400002 4283528262
-0.10871536 0.0018790781 0.55299997 4286408045
-0.10688487 0.0018649711 0.54900002 4288579214
-0.10584077 0.0018644603 0.54900002 4290292104
-0.10479675 0.0018639546 0.54900002 4291015826
-0.10356378 0.0018600592 0.54799998 4293319863
-0.10252176 0.0018595636 0.54799998 4293648827
-0.10147978 0.0018590727 0.54799998 4294241761
-0.10043788 0.0018585869 0.54799998 4294965485
-0.099396035 0.0018581059 0.54799998 4294967286
-0.098174751 0.0018542396 0.54699999 4294967294
-0.097134918 0.0018537691 0.54699999 4294967295
-0.096095137 0.0018533032 0.54699999 4294967295
-0.095055409 0.0018528423 0.54699999 4294964733
-0.094359487 0.001859159 0.54900002 4294964990
-0.093316071 0.001858706 0.54900002 4294899442
-0.092272721 0.0018582579 0.54900002 4294967294
-0.091229424 0.0018578146 0.54900002 4294967295
-0.090350427 0.0018607592 0.55000001 4294966524
-0.088980585 0.00185356 0.54799998 4294571240
-0.087778889 0.0018497503 0.54699999 4292597450
-0.086581014 0.0018459469 0.546 4290623188
-0.084917001 0.0018320099 0.542 4290096843
-0.083887316 0.0018316011 0.542 4286018223
-0.083010569 0.0018345756 0.54299998 4285162914
-0.082130082 0.0018375538 0.54400003 4283455080
-0.081096753 0.0018371575 0.54400003 4281810256
-0.080210671 0.0018401431 0.54500002 4281346890
-0.079175554 0.0018397562 0.54500002 4280491581
-0.077997133 0.0018359993 0.54400003 4279639836
-0.076964036 0.0018356232 0.54400003 4278190080
-0.076070547 0.0018386249 0.54500002 4281410857
-0.074760288 0.0018315116 0.54299998 4294108906
-0.07359346 0.0018277784 0.542 4294967290
-0.072564349 0.0018274228 0.542 4294967292
-0.071535289 0.0018270721 0.542 4294967295
-0.07050629 0.001826726 0.542 4294967295
-0.069220975 0.001819646 0.54000002 4294967295
-0.068195857 0.0018193112 0.54000002 4294967295
-0.067170806 0.0018189811 0.54000002 4294176748
-0.066145793 0.001818656 0.54000002 4283913040
-0.065000229 0.0018149683 0.53899997 4280953134
-0.063858517 0.0018112869 0.53799999 4281742650
-0.062837444 0.0018109776 0.53799999 4282136883
-0.061816413 0.0018106732 0.53799999 4281083939
-0.060908429 0.0018137385 0.53899997 4285484115
-0.059885595 0.0018134433 0.53899997 4294826721
-0.058862805 0.0018131529 0.53899997 4294633703
-0.057840057 0.0018128677 0.53899997 4294436324
-0.056817353 0.0018125871 0.53899997 4293845720
-0.055794697 0.0018123115 0.53899997 4291214000
-0.054772079 0.0018120407 0.53899997 4290755485
-0.053749505 0.0018117748 0.53899997 4290952863
-0.052726969 0.001811514 0.53899997 4293849022
-0.051608551 0.0018078977 0.53799999 4294441160
-0.050587997 0.0018076472 0.53799999 4294965742
-0.049567476 0.0018074011 0.53799999 4294967285
-0.048547 0.0018071603 0.53799999 4294967295
-0.047526557 0.0018069245 0.53799999 4294967295
-0.046246834 0.0017966194 0.53500003 4294967295
-0.045147605 0.0017930364 0.53399998 4294967295
-0.044134866 0.0017928169 0.53399998 4294505979
-0.043122165 0.0017926024 0.53399998 4294045428
-0.042188358 0.0017957494 0.53500003 4294308338
-0.041173816 0.0017955442 0.53500003 4294967295
-0.040159322 0.0017953439 0.53500003 4294967295
-0.039071683 0.001791793 0.53399998 4294967293
-0.038059149 0.001791603 0.53399998 4294638330
-0.037116021 0.0017947727 0.53500003 4292730333
-0.03610165 0.0017945921 0.53500003 4290167475
-0.035021722 0.0017910619 0.53399998 4278192640
-0.034009311 0.0017908916 0.53399998 4278190086
-0.03299693 0.0017907263 0.53399998 4279047717
-0.031984571 0.0017905654 0.53399998 4279304198
-0.030856244 0.0017837042 0.53200001 4281344037
-0.029847728 0.001783554 0.53200001 4285552752
-0.028785039 0.0017800564 0.53100002 4294697722
-0.027778476 0.0017799163 0.53100002 4294176750
-0.026771942 0.0017797811 0.53100002 4294044907
-0.025716901 0.0017762991 0.52999997 4293979366
-0.024712304 0.0017761738 0.52999997 4294637297
-0.023797195 0.0017827557 0.53200001 4294176748
-0.022788851 0.0017826398 0.53200001 4293518561
-0.021780532 0.0017825288 0.53200001 4292533454
-0.020655096 0.0017723715 0.52899998 4281282850
-0.019652495 0.0017722709 0.52899998 4278190080
-0.018720433 0.0017788755 0.53100002 4279770922
-0.017680721 0.0017754344 0.52999997 4280294155
-0.016644821 0.0017719985 0.52899998 4278190080
-0.015642293 0.0017719175 0.52899998 4283575557
-0.014639784 0.0017718414 0.52899998 4292523405
-0.013637289 0.0017717703 0.52899998 4292790466
-0.01263481 0.0017717041 0.52899998 4292329915
-0.011632342 0.0017716425 0.52899998 4289239999
-0.010629887 0.001771586 0.52899998 4287989933
-0.0096274447 0.0017715344 0.52899998 4286348941
-0.0085924054 0.0017647902 0.52700001 4284967288
-0.0075937724 0.0017647485 0.52700001 4282927710
-0.006595151 0.0017647117 0.52700001 4279966768
-0.0055965371 0.0017646799 0.52700001 4278190112
-0.0045717573 0.0017546074 0.52399999 4278190101
-0.0035788438 0.0017545854 0.52399999 4278190080
-0.0025810017 0.0017512199 0.523 4278190080
-0.0015899944 0.0017512074 0.523 4278190080
-0.00059899245 0.0017511999 0.523 4278190080
0.00039200572 0.0017511975 0.523 4282468096
0.0013830005 0.0017511997 0.523 4282468096
0.0023785322 0.0017545552 0.52399999 4283519066
0.0033649835 0.0017512187 0.523 4286479494
0.0043559736 0.0017512355 0.523 4289503866
0.0053469632 0.0017512571 0.523 4289964417
0.0063258349 0.0017479351 0.52200001 4291673520
0.0073009189 0.0017446178 0.52100003 4292857795
0.0082881227 0.0017446538 0.52100003 4293450708
0.0092575271 0.0017413459 0.51999998 4293977308
0.010242842 0.0017413914 0.51999998 4293977820
0.011206571 0.001738093 0.51899999 4294635750
0.012190001 0.001738148 0.51899999 4293386214
0.013224203 0.0017449064 0.52100003 4293254629
0.014211435 0.0017449713 0.52100003 4292267736
0.015198676 0.0017450411 0.52100003 4292070100
0.016185924 0.0017451157 0.52100003 4290688190
0.01717318 0.001745195 0.52100003 4290293432
0.018160449 0.0017452793 0.52100003 4289635507
0.019147724 0.0017453682 0.52100003 4288912040
0.020135019 0.0017454623 0.52100003 4288254360
-0.11502761 0.0029313674 0.55299997 4294964983
-0.11356333 0.0029201973 0.551 4294966525
-0.11251509 0.0029196322 0.551 4292535521
-0.11146691 0.0029190732 0.551 4285692792
-0.1104188 0.0029185179 0.551 4287329651
-0.10956921 0.0029232635 0.55199999 4289171855
-0.10812613 0.0029121283 0.55000001 4290551458
-0.1066907 0.0029010018 0.54799998 4291209387
-0.1056485 0.0029004687 0.54799998 4293511879
-0.10460637 0.0028999415 0.54799998 4294959582
-0.10356428 0.0028994186 0.54799998 4294636786
-0.10252227 0.0028989012 0.54799998 4294967036
-0.10148029 0.0028983878 0.54799998 4294967289
-0.1002551 0.0028925918 0.54699999 4294967290
-0.099215157 0.0028920898 0.54699999 4294967295
-0.097995758 0.0028863058 0.546 4294967295
-0.096957833 0.0028858148 0.546 4294967295
-0.095919929 0.0028853277 0.546 4294637049
-0.094882101 0.0028848462 0.546 4294308084
-0.093844339 0.0028843698 0.546 4294242291
-0.09331654 0.0028997436 0.54900002 4293978601
-0.091600873 0.0028781502 0.54500002 4293518050
-0.09056516 0.0028776887 0.54500002 4292664279
-0.090022333 0.0028930709 0.54799998 4291743177
-0.088981025 0.0028926167 0.54799998 4290626240
-0.087137423 0.0028657804 0.54299998 4289705138
-0.086105727 0.0028653406 0.54299998 4286289047
-0.084917419 0.0028596297 0.542 4283657070
-0.083887741 0.0028592008 0.542 4283388763
-0.082858115 0.0028587768 0.542 4280296235
-0.081828535 0.002858358 0.542 4280689717
-0.080948077 0.0028632167 0.54299998 4279702821
-0.079916723 0.0028628078 0.54299998 4280422693
-0.078740127 0.0028571317 0.542 4281015086
-0.077710755 0.0028567326 0.542 4281082142
-0.076822937 0.002861609 0.54299998 4278452224
-0.075373039 0.0028454114 0.54000002 4283511552
-0.074347623 0.0028450289 0.54000002 4294961829
-0.073322259 0.0028446515 0.54000002 4294967290
-0.072296955 0.0028442794 0.54000002 4294967295
-0.07127168 0.002843912 0.54000002 4294967295
-0.070116378 0.0028382833 0.53899997 4294967295
-0.068964936 0.0028326623 0.53799999 4294967295
-0.067943625 0.002832311 0.53799999 4294967295
-0.066673569 0.0028214378 0.53600001 4294703094
-0.065656148 0.0028210981 0.53600001 4284570972
-0.064638771 0.0028207637 0.53600001 4281084470
-0.063621439 0.002820434 0.53600001 4281413435
-0.062604159 0.0028201097 0.53600001 4281873454
-0.061586924 0.0028197903 0.53600001 4281412903
-0.060682736 0.0028247363 0.537 4285743176
-0.059774794 0.0028296863 0.53799999 4293046199
-0.058753893 0.0028293806 0.53799999 4291347136
-0.057733029 0.0028290804 0.53799999 4290886585
-0.05681764 0.0028340435 0.53899997 4288652198
-0.055691458 0.0028284956 0.53799999 4286612616
-0.05467074 0.0028282106 0.53799999 4286282312
-0.053650051 0.0028279312 0.53799999 4293387956
-0.052629407 0.002827656 0.53799999 4294966516
-0.051129177 0.0028011098 0.53299999 4294967295
-0.0501181 0.0028008481 0.53299999 4294967295
-0.049291331 0.0028111001 0.53500003 4294967295
-0.048276536 0.0028108475 0.53500003 4294967295
-0.047350116 0.0028158531 0.53600001 4294967293
-0.046247061 0.0028103571 0.53500003 4294572537
-0.045147832 0.002804867 0.53399998 4293322470
-0.044052441 0.0027993831 0.53299999 4291811291
-0.043041624 0.0027991568 0.53299999 4290890189
-0.042109706 0.0028041871 0.53399998 4291611309
-0.041174032 0.0028092219 0.53500003 4294835166
-0.040084455 0.0028037594 0.53399998 4294967295
-0.039071884 0.0028035531 0.53399998 4294966778
-0.038059343 0.0028033522 0.53399998 4294309881
-0.037046827 0.0028031564 0.53399998 4293717743
-0.036101833 0.0028082149 0.53500003 4289775306
-0.035021901 0.0028027799 0.53399998 4278656289
-0.033945795 0.0027973517 0.53299999 4278190092
-0.032935306 0.0027971768 0.53299999 4279441460
-0.031864941 0.0027917593 0.53200001 4278978048
-0.030740399 0.0027811001 0.52999997 4278190080
-0.029735671 0.0027809413 0.52999997 4284896575
-0.028676765 0.0027755413 0.52899998 4293844423
-0.02767399 0.0027753934 0.52899998 4293912806
-0.02667124 0.0027752507 0.52899998 4293715684
-0.025668511 0.0027751129 0.52899998 4293716197
-0.024665805 0.0027749802 0.52899998 4294045161
-0.02366312 0.0027748526 0.52899998 4294307564
-0.022531953 0.0027589947 0.52600002 4294307564
-0.021534996 0.0027588781 0.52600002 4292664801
-0.020577108 0.0027640113 0.52700001 4282466886
-0.019578295 0.0027639046 0.52700001 4280354592
-0.018579509 0.002763804 0.52700001 4280749093
-0.017580735 0.0027637072 0.52700001 4280360720
-0.016613442 0.00276886 0.528 4279242240
-0.015612806 0.0027687738 0.528 4282254848
-0.01463986 0.0027739361 0.52899998 4290412912
-0.013637361 0.0027738605 0.52899998 4288650903
-0.010609848 0.0027684204 0.528 4282795840
-0.0095910979 0.0027631214 0.52700001 4280956727
-0.0085924501 0.0027630713 0.52700001 4279706917
-0.0075938138 0.0027630262 0.52700001 4278190080
-0.0065951869 0.0027629868 0.52700001 4278190080
-0.0055009914 0.0027157669 0.51800001 4278190080
-0.0045717829 0.0027471941 0.52399999 4278190080
-0.003578864 0.0027471697 0.52399999 4278190080
-0.0025711474 0.0027314229 0.52100003 4278190080
-0.0015717642 0.0027104386 0.51700002 4282064128
-0.00059212634 0.0027104297 0.51700002 4284893221
0.000390506 0.0027313966 0.52100003 4286341721
0.0013777161 0.0027313975 0.52100003 4288118131
0.0023649239 0.0027314043 0.52100003 4289237144
0.0033521301 0.0027314154 0.52100003 4290487211
0.004339335 0.002731432 0.52100003 4292459718
0.0053265407 0.0027314536 0.52100003 4293643991
0.0063137454 0.0027314804 0.52100003 4293580752
0.0073009524 0.0027315123 0.52100003 4293909717
0.008272253 0.0027263057 0.51999998 4294766057
0.0092575718 0.0027263481 0.51999998 4294305506
0.010242891 0.0027263947 0.51999998 4294043100
0.011206624 0.0027212035 0.51899999 4293648342
0.01219006 0.0027212605 0.51899999 4292466647
0.013198882 0.002726566 0.51999998 4291677132
-0.11461218 0.0039660605 0.551 4294967294
-0.11315171 0.003951075 0.54900002 4294967295
-0.11210725 0.0039504892 0.54900002 4294967294
-0.11086057 0.0039427136 0.54799998 4294506742
-0.10981815 0.0039421385 0.54799998 4294967295
-0.10897429 0.0039487621 0.54900002 4294967295
-0.10773348 0.0039410037 0.54799998 4294967295
-0.10669123 0.0039404444 0.54799998 4294967295
-0.10564904 0.0039398889 0.54799998 4294967295
-0.10441601 0.0039321505 0.54699999 4294967295
-0.10337583 0.0039316067 0.54699999 4294967295
-0.10233571 0.003931067 0.54699999 4294967295
-0.10111045 0.0039233477 0.546 4294966515
-0.10007234 0.0039228192 0.546 4294110691
-0.09903428 0.0039222962 0.546 4293649888
-0.097996287 0.0039217784 0.546 4291939014
-0.096780747 0.003914082 0.54500002 4289177036
-0.095744759 0.0039135753 0.54500002 4288321727
-0.094187483 0.0038915332 0.542 4284378011
-0.093157299 0.0038910385 0.542 4283983253
-0.092297159 0.003897727 0.54299998 4283191127
-0.091097124 0.003890065 0.542 4280954165
-0.090067111 0.0038895858 0.542 4278784029
-0.090022802 0.0039321641 0.54799998 4278190092
-0.088981487 0.0039316891 0.54799998 4279969041
-0.086816937 0.0038810044 0.54100001 4279047939
-0.085789017 0.0038805457 0.54100001 4279183891
-0.084604509 0.0038729208 0.54000002 4278854670
-0.083578624 0.0038724737 0.54000002 4279642916
-0.082552791 0.0038720316 0.54000002 4279642916
-0.081677996 0.0038787643 0.54100001 4281218359
-0.080650374 0.003878332 0.54100001 4281678910
-0.07962279 0.0038779043 0.54100001 4282006837
-0.078595266 0.0038774814 0.54100001 4282401595
-0.077424407 0.0038698979 0.54000002 4282860100
-0.076398894 0.003869487 0.54000002 4280162587
-0.075233839 0.003861916 0.53899997 4283642395
-0.074210323 0.0038615158 0.53899997 4294959819
-0.073051065 0.0038539579 0.53799999 4294967287
-0.071895666 0.0038464058 0.537 4294967295
-0.070876099 0.0038460225 0.537 4294967295
-0.069856584 0.0038456449 0.537 4294967295
-0.068837106 0.0038452721 0.537 4294967295
-0.067691393 0.0038377452 0.53600001 4294967295
-0.066673927 0.0038373836 0.53600001 4294637562
-0.065656498 0.0038370271 0.53600001 4285031784
-0.064639106 0.003836676 0.53600001 4280363591
-0.063621782 0.0038363298 0.53600001 4280034625
-0.062604487 0.0038359894 0.53600001 4281282351
-0.061587244 0.0038356539 0.53600001 4281413937
-0.060570054 0.003835324 0.53600001 4282983466
-0.059664004 0.0038421536 0.537 4282851879
-0.058644991 0.0038418332 0.537 4282847512
-0.057626028 0.0038415187 0.537 4282189838
-0.056712527 0.003848362 0.53799999 4280096030
-0.055588242 0.0038409051 0.537 4278190080
-0.054569405 0.0038406057 0.537 4280942598
-0.053351168 0.0038260093 0.53500003 4294955739
