# .PCD v0.7 - Point Cloud Data file format
VERSION 0.7
FIELDS x y z rgba
SIZE 4 4 4 4
TYPE F F F U
COUNT 1 1 1 1
WIDTH 1075
HEIGHT 1
VIEWPOINT 0 0 0 1 0 0 0
POINTS 1075
DATA ascii
-0.22947168 -0.13961186 0.602 4293717230
-0.22832941 -0.13961393 0.602 4293716458
-0.22718702 -0.13961592 0.602 4293979887
-0.22566906 -0.13938592 0.60100001 4293848048
-0.22452833 -0.13938779 0.60100001 4293979635
-0.22338749 -0.13938956 0.60100001 4293848046
-0.22224653 -0.13939127 0.60100001 4294177011
-0.22073759 -0.13916099 0.60000002 4293914093
-0.21959831 -0.13916257 0.60000002 4293979887
-0.21882305 -0.13939603 0.60100001 4293716208
-0.21768166 -0.13939747 0.60100001 4294045430
-0.21617989 -0.13916694 0.60000002 4293848048
-0.21396503 -0.13847242 0.597 4294176757
-0.21283095 -0.13847366 0.597 4293913842
-0.21134222 -0.1382429 0.59600002 4294176757
-0.21020985 -0.13824402 0.59600002 4293782253
-0.20907743 -0.13824509 0.59600002 4294177011
-0.20794494 -0.1382461 0.59600002 4293913842
-0.20681232 -0.13824704 0.59600002 4294176757
-0.20602478 -0.1384799 0.597 4294046195
-0.20489015 -0.13848075 0.597 4294374904
-0.20375545 -0.13848153 0.597 4294308595
-0.20262067 -0.13848227 0.597 4294440438
-0.20148583 -0.13848294 0.597 4294176757
-0.20035091 -0.13848357 0.597 4294505979
-0.19921593 -0.13848414 0.597 4294308595
-0.19808094 -0.13848467 0.597 4294374644
-0.19694588 -0.13848515 0.597 4294308597
-0.19581072 -0.13848557 0.597 4294506233
-0.19467552 -0.13848594 0.597 4294177783
-0.19386446 -0.13871823 0.59799999 4294440699
-0.19272727 -0.13871852 0.59799999 4294177783
-0.19159001 -0.13871874 0.59799999 4294638078
-0.19045275 -0.13871893 0.59799999 4294572537
-0.18931544 -0.13871908 0.59799999 4294506744
-0.18817805 -0.13871917 0.59799999 4294440186
-0.18704066 -0.13871922 0.59799999 4294505979
-0.18590321 -0.13871925 0.59799999 4294374392
-0.18507475 -0.13895118 0.59899998 4294900735
-0.18393531 -0.13895111 0.59899998 4294505979
-0.18279585 -0.13895099 0.59899998 4294374392
-0.18195967 -0.13918282 0.60000002 4294440186
-0.18142098 -0.13964659 0.602 4294834943
-0.18027575 -0.13964634 0.602 4294638330
-0.17913051 -0.13964608 0.602 4294835709
-0.17828089 -0.13987772 0.60299999 4294440186
-0.17713368 -0.13987738 0.60299999 4294834943
-0.17598648 -0.13987702 0.60299999 4294835195
-0.17483924 -0.13987659 0.60299999 4294835195
-0.17369199 -0.13987616 0.60299999 4294769148
-0.17254473 -0.13987567 0.60299999 4294967039
-0.17225021 -0.14057107 0.60600001 4294769148
-0.1710972 -0.14057052 0.60600001 4294900735
-0.16994421 -0.14056993 0.60600001 4294704123
-0.16879117 -0.14056933 0.60600001 4294967295
-0.16791479 -0.14080064 0.60699999 4294704123
-0.16675986 -0.14079997 0.60699999 4294901502
-0.16587777 -0.14103124 0.60799998 4294638330
-0.16472092 -0.14103049 0.60799998 4294967295
-0.16383311 -0.1412617 0.60900003 4294505979
-0.1626744 -0.14126092 0.60900003 4294703357
-0.16204605 -0.14172401 0.611 4294637562
-0.16088355 -0.14172317 0.611 4294966783
-0.1599824 -0.14195426 0.61199999 4294769146
-0.1590775 -0.1421853 0.61299998 4294703353
-0.15816878 -0.14241634 0.61400002 4294505979
-0.15700056 -0.1424154 0.61400002 4294966783
-0.15608616 -0.14264639 0.61500001 4294769148
-0.15516794 -0.14287734 0.616 4294900735
-0.15399595 -0.14287634 0.616 4294769148
-0.15282395 -0.1428753 0.616 4294966783
-0.15165199 -0.14287426 0.616 4294901502
-0.1512129 -0.14356898 0.61900002 4294967295
-0.15052001 -0.14403176 0.62099999 4294901502
-0.14957906 -0.14426258 0.62199998 4294901502
-0.1488729 -0.14472531 0.62400001 4294901502
-0.14792247 -0.14495608 0.625 4294967295
-0.14767259 -0.14588262 0.62900001 4294769146
-0.14647602 -0.14588141 0.62900001 4294900989
-0.14551042 -0.14611213 0.63 4294637562
-0.14454104 -0.14634281 0.63099998 4294834941
-0.14334072 -0.14634156 0.63099998 4294572537
-0.14236571 -0.14657223 0.63200003 4294638330
-0.14116354 -0.14657094 0.63200003 4294506744
-0.13996139 -0.14656964 0.63200003 4294704123
-0.13941795 -0.14726408 0.63499999 4294506233
-0.13864547 -0.14772658 0.63700002 4294637562
-0.13808113 -0.14842094 0.63999999 4294440951
-0.13686389 -0.1484196 0.63999999 4294506744
-0.1358586 -0.14865014 0.64099997 4294243574
-0.26580307 -0.14322577 0.62300003 4290229432
-0.26462504 -0.14322993 0.62300003 4290493123
-0.26302394 -0.14300409 0.62199998 4292466657
-0.26184744 -0.14300807 0.62199998 4292466393
-0.26025158 -0.14278202 0.62099999 4292466393
-0.2586593 -0.14255586 0.62 4292400598
-0.25665534 -0.14209966 0.61799997 4292532441
-0.2546587 -0.14164335 0.616 4292137429
-0.25266951 -0.14118694 0.61400002 4292664029
-0.25109723 -0.14096032 0.61299998 4292664027
-0.24993637 -0.1409636 0.61299998 4292795356
-0.2483695 -0.14073683 0.61199999 4292532441
-0.24721014 -0.14073993 0.61199999 4292927198
-0.24524656 -0.140283 0.61000001 4292664027
-0.24369051 -0.14005594 0.60900003 4293058785
-0.24253632 -0.14005876 0.60900003 4293058014
-0.24098563 -0.13983151 0.60799998 4293058014
-0.23983304 -0.13983417 0.60799998 4292794845
-0.23868032 -0.13983674 0.60799998 4293189603
-0.23674607 -0.13937925 0.60600001 4293059046
-0.23481929 -0.13892166 0.60399997 4293453804
-0.23328683 -0.13869397 0.60299999 4293125093
-0.23214301 -0.13869624 0.60299999 4293190886
-0.23099904 -0.1386984 0.60299999 4293189349
-0.22985493 -0.13870052 0.60299999 4293584107
-0.22833145 -0.13847253 0.602 4293386982
-0.22718897 -0.13847448 0.602 4293715947
-0.22567093 -0.13824634 0.60100001 4293519084
-0.22453013 -0.13824816 0.60100001 4293848048
-0.22338921 -0.13824989 0.60100001 4293519849
-0.2222482 -0.13825157 0.60100001 4293585642
-0.22110707 -0.13825317 0.60100001 4293848046
-0.21996585 -0.13825472 0.60100001 4293979633
-0.21882451 -0.13825618 0.60100001 4293519084
-0.21768306 -0.13825761 0.60100001 4293716206
-0.21618125 -0.13802892 0.60000002 4293649387
-0.21396627 -0.13734002 0.597 4293978351
-0.21247564 -0.13711117 0.59600002 4293518311
-0.21134338 -0.13711236 0.59600002 4293650154
-0.21021095 -0.13711342 0.59600002 4293519084
-0.20907848 -0.13711448 0.59600002 4293979635
-0.20794591 -0.13711545 0.59600002 4293848048
-0.20681325 -0.13711637 0.59600002 4294045428
-0.20602562 -0.13734728 0.597 4293913842
-0.20489097 -0.1373481 0.597 4294176757
-0.20375618 -0.13734885 0.597 4293913839
-0.20262136 -0.13734956 0.597 4294242804
-0.20148647 -0.13735022 0.597 4294045428
-0.20035154 -0.13735081 0.597 4294242806
-0.1992165 -0.13735135 0.597 4293914093
-0.19841321 -0.13758188 0.59799999 4294242802
-0.19727616 -0.13758235 0.59799999 4293979633
-0.1961391 -0.13758275 0.59799999 4294242804
-0.19500193 -0.13758308 0.59799999 4294046195
-0.19386478 -0.13758339 0.59799999 4294243574
-0.19272754 -0.13758364 0.59799999 4293980146
-0.19159023 -0.13758384 0.59799999 4294440697
-0.1904529 -0.13758402 0.59799999 4294440951
-0.18931554 -0.13758412 0.59799999 4294440951
-0.18817812 -0.13758419 0.59799999 4294242804
-0.1870407 -0.13758424 0.59799999 4294308597
-0.18590319 -0.13758421 0.59799999 4294045428
-0.18507463 -0.13781422 0.59899998 4294505979
-0.1839352 -0.13781413 0.59899998 4294506233
-0.18310089 -0.13804407 0.60000002 4294440184
-0.18195948 -0.1380439 0.60000002 4294111734
-0.18142077 -0.13850385 0.602 4294572285
-0.18027551 -0.1385036 0.602 4294506744
-0.17913021 -0.13850331 0.602 4294506744
-0.17828055 -0.13873304 0.60299999 4294242804
-0.17713332 -0.13873269 0.60299999 4294703355
-0.17598605 -0.13873227 0.60299999 4294637560
-0.17483881 -0.13873185 0.60299999 4294769146
-0.17369153 -0.13873139 0.60299999 4294572539
-0.17254423 -0.1387309 0.60299999 4294835455
-0.17139691 -0.13873036 0.60299999 4294440697
-0.17109661 -0.13942 0.60600001 4294704125
-0.16994362 -0.13941939 0.60600001 4294572537
-0.16879053 -0.13941877 0.60600001 4294901502
-0.16791415 -0.13964818 0.60699999 4294506231
-0.16675919 -0.13964751 0.60699999 4294637560
-0.16587703 -0.13987684 0.60799998 4294374644
-0.16499113 -0.14010617 0.60900003 4294637560
-0.16383232 -0.14010538 0.60900003 4294308597
-0.16267358 -0.14010461 0.60900003 4294506233
-0.16204524 -0.14056388 0.611 4294571254
-0.16114599 -0.14079306 0.61199999 4294702840
-0.15998153 -0.14079218 0.61199999 4294505460
-0.15907659 -0.14102133 0.61299998 4294571254
-0.15816785 -0.14125048 0.61400002 4294505206
-0.1569996 -0.14124951 0.61400002 4294834428
-0.15608518 -0.14147858 0.61500001 4294506231
-0.15516695 -0.14170763 0.616 4294703353
-0.15399492 -0.1417066 0.616 4294374904
-0.15282293 -0.14170557 0.616 4294835455
-0.15165092 -0.14170448 0.616 4294704123
-0.15096752 -0.14216349 0.61799997 4294704123
-0.15027653 -0.14262246 0.62 4294704123
-0.14909698 -0.14262132 0.62 4294704123
-0.14839458 -0.14308025 0.62199998 4294242802
-0.14792129 -0.14376917 0.625 4294506231
-0.14767139 -0.14468811 0.62900001 4294308597
-0.14647481 -0.14468691 0.62900001 4294637562
-0.1455092 -0.1449157 0.63 4294440184
-0.1445398 -0.14514449 0.63099998 4294769148
-0.14333947 -0.14514323 0.63099998 4294506744
-0.14236444 -0.14537197 0.63200003 4294572537
-0.14116225 -0.14537069 0.63200003 4294308597
-0.140403 -0.14582941 0.634 4294703355
-0.13963619 -0.14628813 0.63599998 4294637560
-0.13864413 -0.1465168 0.63700002 4294637560
-0.13764828 -0.14674547 0.63800001 4294111988
-0.13686252 -0.14720412 0.63999999 4294177781
-0.13564527 -0.14720273 0.63999999 4294111988
-0.26580721 -0.1420459 0.62300003 4290229434
-0.26462913 -0.14205 0.62300003 4290690246
-0.26302791 -0.14182597 0.62199998 4292466657
-0.26185131 -0.14182989 0.62199998 4292466647
-0.26025534 -0.14160568 0.62099999 4292532441
-0.258663 -0.14138137 0.62 4292400852
-0.25707421 -0.14115693 0.61900002 4292598232
-0.25466219 -0.1404763 0.616 4292335575
-0.25308439 -0.14025165 0.61500001 4292796126
-0.25151017 -0.14002691 0.61400002 4292861403
-0.24993959 -0.13980207 0.61299998 4292992989
-0.24837263 -0.13957715 0.61199999 4292795356
-0.24721317 -0.13958016 0.61199999 4293124578
-0.24524945 -0.13912696 0.61000001 4292992992
-0.24369334 -0.13890174 0.60900003 4293255907
-0.24214081 -0.13867643 0.60799998 4292992992
-0.24059196 -0.13845104 0.60699999 4293321700
-0.23944119 -0.13845365 0.60699999 4293058533
-0.23789772 -0.13822806 0.60600001 4293321704
-0.23596716 -0.13777429 0.60399997 4293124839
-0.23482162 -0.13777663 0.60399997 4293519597
-0.23328908 -0.13755082 0.60299999 4293321702
-0.23176022 -0.13732491 0.602 4293387495
-0.23061806 -0.13732703 0.602 4293124328
-0.22947581 -0.1373291 0.602 4293716208
-0.2283334 -0.13733107 0.602 4293519082
-0.22719088 -0.13733298 0.602 4293716460
-0.22567272 -0.13710667 0.60100001 4293584877
-0.22453187 -0.13710846 0.60100001 4293979635
-0.22339089 -0.13711016 0.60100001 4293519336
-0.22224981 -0.1371118 0.60100001 4293519336
-0.22110862 -0.13711336 0.60100001 4293716206
-0.21996729 -0.13711485 0.60100001 4294176757
-0.21882594 -0.1371163 0.60100001 4293716208
-0.2176844 -0.13711767 0.60100001 4293979637
-0.21618253 -0.13689083 0.60000002 4293913839
-0.21396749 -0.1362076 0.597 4294308597
-0.21247685 -0.13598065 0.59600002 4293848048
-0.21134445 -0.13598175 0.59600002 4294045428
-0.21021199 -0.1359828 0.59600002 4294045428
-0.20907946 -0.13598381 0.59600002 4294242806
-0.20794684 -0.13598475 0.59600002 4294045682
-0.20681413 -0.13598563 0.59600002 4294242804
-0.20602643 -0.13621463 0.597 4294045682
-0.20523493 -0.13644357 0.59799999 4294242804
-0.20409821 -0.1364443 0.59799999 4293979633
-0.20296143 -0.13644497 0.59799999 4294308597
-0.20182458 -0.1364456 0.59799999 4294045941
-0.20068766 -0.13644616 0.59799999 4294243576
-0.19955069 -0.13644668 0.59799999 4294242802
-0.19841366 -0.13644713 0.59799999 4294506231
-0.19727658 -0.13644755 0.59799999 4294242802
-0.19613947 -0.13644792 0.59799999 4294440438
-0.19500224 -0.13644823 0.59799999 4294440949
-0.19386502 -0.13644852 0.59799999 4294704377
-0.19272773 -0.13644873 0.59799999 4294440951
-0.19159041 -0.13644892 0.59799999 4294572537
-0.19013454 -0.13622087 0.597 4294506231
-0.18899906 -0.13622098 0.597 4294703353
-0.18817817 -0.13644919 0.59799999 4294440184
-0.1870407 -0.1364492 0.59799999 4294506233
-0.18621399 -0.13667732 0.59899998 4294242806
-0.18507458 -0.13667728 0.59899998 4294505979
-0.18393506 -0.13667713 0.59899998 4294506231
-0.18310072 -0.13690516 0.60000002 4294506231
-0.18195927 -0.13690497 0.60000002 4294243576
-0.18142052 -0.13736109 0.602 4294704127
-0.18027522 -0.13736081 0.602 4294572537
-0.17912988 -0.13736051 0.602 4294506744
-0.17798454 -0.13736017 0.602 4294440184
-0.17683916 -0.13735978 0.602 4294769148
-0.1756938 -0.13735937 0.602 4294637562
-0.17483835 -0.1375871 0.60299999 4294769148
-0.17369103 -0.13758661 0.60299999 4294703353
-0.1725437 -0.1375861 0.60299999 4294835195
-0.17139636 -0.13758554 0.60299999 4294703355
-0.17109603 -0.13826947 0.60600001 4294769148
-0.16994299 -0.13826887 0.60600001 4294703353
-0.16906841 -0.13849638 0.60699999 4294966782
-0.16819008 -0.13872387 0.60799998 4294637560
-0.16703321 -0.13872318 0.60799998 4294769146
-0.16614914 -0.13895062 0.60900003 4294506231
-0.16499035 -0.13894986 0.60900003 4294703353
-0.16356252 -0.13872088 0.60799998 4294506233
-0.16240565 -0.13872008 0.60799998 4294900735
-0.16177918 -0.13917556 0.61000001 4294702840
-0.16088182 -0.13940285 0.611 4294768633
-0.15998064 -0.13963012 0.61199999 4294637049
-0.15881616 -0.13962919 0.61199999 4294834428
-0.1581669 -0.14008456 0.61400002 4294637047
-0.15699865 -0.1400836 0.61400002 4294834682
-0.15608416 -0.14031076 0.61500001 4294506233
-0.15516593 -0.1405379 0.616 4294769148
-0.15399387 -0.14053686 0.616 4294703355
-0.15282185 -0.14053582 0.616 4294900735
-0.15164988 -0.14053476 0.616 4294638330
-0.15096642 -0.14098991 0.61799997 4294572537
-0.14979063 -0.1409888 0.61799997 4294703353
-0.14885537 -0.14121583 0.61900002 4294835195
-0.14815487 -0.14167093 0.62099999 4294505979
-0.14721012 -0.1418979 0.62199998 4294769150
-0.14767018 -0.14349361 0.62900001 4294505979
-0.14647359 -0.14349239 0.62900001 4294966527
-0.14550795 -0.14371929 0.63 4294769148
-0.14453855 -0.14394616 0.63099998 4294900735
-0.14333822 -0.1439449 0.63099998 4294703353
-0.14236315 -0.14417174 0.63200003 4294769146
-0.14160766 -0.14462668 0.634 4294374392
-0.14062314 -0.14485349 0.63499999 4294703357
-0.13963485 -0.14508027 0.63599998 4294506231
-0.13864277 -0.14530705 0.63700002 4294637560
-0.13764691 -0.1455338 0.63800001 4294440184
-0.13686115 -0.14598866 0.63999999 4294506233
-0.1356439 -0.14598727 0.63999999 4294374390
-0.13463673 -0.14621399 0.64099997 4294637562
-0.26698938 -0.14086184 0.62300003 4288321688
-0.26581138 -0.14086597 0.62300003 4290492601
-0.26463318 -0.14087002 0.62300003 4290887627
-0.26303184 -0.1406478 0.62199998 4292269280
-0.26185513 -0.14065166 0.62199998 4292137429
-0.26025909 -0.14042927 0.62099999 4292334807
-0.2586666 -0.14020678 0.62 4292137683
-0.25707775 -0.13998418 0.61900002 4292400598
-0.25590593 -0.13998765 0.61900002 4292334805
-0.25349927 -0.13931254 0.616 4292532441
-0.25192305 -0.13908963 0.61500001 4292400598
-0.25035048 -0.13886665 0.61400002 4292664027
-0.24878149 -0.13864353 0.61299998 4292597209
-0.24721612 -0.13842034 0.61199999 4292926431
-0.24525234 -0.13797086 0.61000001 4292860636
-0.24369614 -0.1377475 0.60900003 4293123808
-0.24214353 -0.13752402 0.60799998 4292664029
-0.24059458 -0.13730046 0.60699999 4293058531
-0.2394437 -0.13730302 0.60699999 4292992738
-0.23790017 -0.1370793 0.60600001 4293255909
-0.23596953 -0.13662927 0.60399997 4292926946
-0.23482394 -0.13663158 0.60399997 4293321704
-0.23329134 -0.13640761 0.60299999 4293124580
-0.23176235 -0.13618354 0.602 4293255909
-0.23062016 -0.13618565 0.602 4293058785
-0.22947776 -0.13618761 0.602 4293519336
-0.22833529 -0.13618955 0.602 4293256679
-0.22719273 -0.13619143 0.602 4293453802
-0.22567451 -0.13596699 0.60100001 4293387497
-0.22453359 -0.13596871 0.60100001 4293782255
-0.22339255 -0.13597037 0.60100001 4293322470
-0.2222514 -0.13597198 0.60100001 4293454056
-0.22111014 -0.1359735 0.60100001 4293584877
-0.21996877 -0.13597497 0.60100001 4293782255
-0.21882732 -0.13597636 0.60100001 4293321704
-0.21768571 -0.13597769 0.60100001 4293848048
-0.2161838 -0.13575272 0.60000002 4293782251
-0.21396869 -0.13507514 0.597 4293979887
-0.21247795 -0.13485003 0.59600002 4293585644
-0.21134548 -0.13485111 0.59600002 4294046195
-0.21021301 -0.13485214 0.59600002 4293980148
-0.2090804 -0.13485311 0.59600002 4293783026
-0.20794775 -0.13485402 0.59600002 4293782255
-0.20681497 -0.13485487 0.59600002 4293979635
-0.20602724 -0.13508193 0.597 4293848048
-0.20523566 -0.13530895 0.59799999 4294176757
-0.20409885 -0.13530964 0.59799999 4293914093
-0.20296207 -0.13531028 0.59799999 4294177009
-0.20182513 -0.13531087 0.59799999 4293783026
-0.20068818 -0.13531141 0.59799999 4294045941
-0.19955115 -0.13531189 0.59799999 4293914607
-0.19841412 -0.13531235 0.59799999 4294111986
-0.19727695 -0.13531272 0.59799999 4293914355
-0.19613978 -0.13531306 0.59799999 4294243576
-0.19500256 -0.13531336 0.59799999 4294111986
-0.19354106 -0.13508733 0.597 4294375158
-0.19240564 -0.13508752 0.597 4294243574
-0.19159058 -0.13531397 0.59799999 4294243574
-0.19013464 -0.13508779 0.597 4294176496
-0.18899912 -0.13508786 0.597 4294637047
-0.18786348 -0.13508789 0.597 4294373877
-0.18704066 -0.13531415 0.59799999 4294373877
-0.18590304 -0.13531408 0.59799999 4294242293
-0.18507448 -0.13554028 0.59899998 4294505208
-0.18393493 -0.13554014 0.59899998 4294242802
-0.18310055 -0.13576625 0.60000002 4294440438
-0.18195908 -0.13576604 0.60000002 4294177781
-0.18142025 -0.13621832 0.602 4294440697
-0.18027493 -0.13621803 0.602 4294374644
-0.17912954 -0.13621771 0.602 4294506231
-0.17798419 -0.13621736 0.602 4294374390
-0.17683879 -0.13621695 0.602 4294506233
-0.17569336 -0.13621651 0.602 4294242802
-0.17454791 -0.13621603 0.602 4294506231
-0.17340249 -0.13621555 0.602 4294505460
-0.17225701 -0.13621502 0.602 4294768633
-0.17111157 -0.13621446 0.602 4294571256
-0.17109542 -0.13711895 0.60600001 4294505206
-0.16994233 -0.13711831 0.60600001 4294177011
-0.16906774 -0.13734391 0.60699999 4294506233
-0.16791275 -0.13734321 0.60699999 4294242802
-0.16703247 -0.13756876 0.60799998 4294440438
-0.16587557 -0.13756803 0.60799998 4294374644
-0.16471863 -0.13756725 0.60799998 4294374644
-0.1635617 -0.13756646 0.60799998 4294177011
-0.16240482 -0.13756564 0.60799998 4294506233
-0.16151312 -0.13779105 0.60900003 4294308595
-0.16088092 -0.13824268 0.611 4294506231
-0.1599797 -0.13846803 0.61199999 4294374390
-0.15881525 -0.1384671 0.61199999 4294506233
-0.15790837 -0.13869241 0.61299998 4294505460
-0.15699767 -0.13891768 0.61400002 4294768633
-0.15608318 -0.13914293 0.61500001 4294242802
-0.1551649 -0.13936816 0.616 4294506231
-0.15399285 -0.13936712 0.616 4294637560
-0.1528208 -0.13936606 0.616 4294703353
-0.15164877 -0.13936496 0.616 4294440697
-0.1509653 -0.13981634 0.61799997 4294440697
-0.14978951 -0.13981523 0.61799997 4294505460
-0.14885421 -0.14004034 0.61900002 4294702840
-0.14815368 -0.14049163 0.62099999 4294440184
-0.14720893 -0.14071669 0.62199998 4294506233
-0.14672989 -0.14139417 0.625 4294374392
-0.14554089 -0.14139298 0.625 4294637308
-0.14504479 -0.14207043 0.62800002 4294374904
-0.14385012 -0.14206918 0.62800002 4294572539
-0.14401838 -0.14342523 0.634 4294243572
-0.14281237 -0.14342394 0.634 4294440951
-0.1418297 -0.14364885 0.63499999 4294242291
-0.14084327 -0.14387377 0.63599998 4294373877
-0.13985308 -0.14409865 0.63700002 4294308338
-0.13885908 -0.1443235 0.63800001 4294702840
-0.13807705 -0.14477454 0.63999999 4294637560
-0.13685976 -0.14477319 0.63999999 4294506231
-0.13564251 -0.14477181 0.63999999 4294177011
-0.1344253 -0.14477041 0.63999999 4294308597
-0.26656494 -0.13945766 0.62199998 4290097330
-0.26538873 -0.13946173 0.62199998 4290952639
-0.26421231 -0.13946569 0.62199998 4291216079
-0.26303571 -0.13946956 0.62199998 4292597732
-0.26143792 -0.13924912 0.62099999 4292466643
-0.25984365 -0.13902856 0.62 4292532436
-0.25867018 -0.13903214 0.62 4292400598
-0.25708121 -0.13881135 0.61900002 4292664027
-0.25590926 -0.13881476 0.61900002 4292335575
-0.25432557 -0.13859379 0.61799997 4292598747
-0.25233585 -0.13814849 0.616 4292532441
-0.25035357 -0.13770306 0.61400002 4292927198
-0.24878451 -0.13748182 0.61299998 4292794843
-0.24762297 -0.13748471 0.61299998 4293189601
-0.24525517 -0.13681473 0.61000001 4292926431
-0.24369889 -0.13659319 0.60900003 4293321189
-0.24214616 -0.13637155 0.60799998 4293058531
-0.24059713 -0.13614984 0.60699999 4293321702
-0.23944622 -0.13615237 0.60699999 4293255907
-0.23790257 -0.13593048 0.60600001 4293519336
-0.23597185 -0.13548419 0.60399997 4293387497
-0.23482619 -0.13548645 0.60399997 4293584877
-0.23368035 -0.13548863 0.60399997 4293519336
-0.23214939 -0.13526642 0.60299999 4293716458
-0.23062216 -0.13504416 0.602 4293255907
-0.22947976 -0.13504611 0.602 4293585129
-0.2283372 -0.13504802 0.602 4293453289
-0.22719453 -0.13504983 0.602 4293782253
-0.22567628 -0.13482726 0.60100001 4293585390
-0.22453524 -0.13482893 0.60100001 4293783026
-0.22339416 -0.13483055 0.60100001 4293585131
-0.22225295 -0.13483211 0.60100001 4293848046
-0.2211116 -0.13483359 0.60100001 4293716206
-0.21997015 -0.134835 0.60100001 4293913842
-0.21882865 -0.13483638 0.60100001 4293716206
-0.21732484 -0.13461334 0.60000002 4294242806
-0.216185 -0.13461456 0.60000002 4293914089
-0.21396983 -0.13394265 0.597 4294045932
-0.21247907 -0.1337194 0.59600002 4293980400
-0.21134654 -0.13372043 0.59600002 4294177779
-0.210214 -0.13372144 0.59600002 4293913839
-0.20908132 -0.13372236 0.59600002 4293848046
-0.20794861 -0.13372324 0.59600002 4293782001
-0.20681578 -0.13372406 0.59600002 4294045430
-0.20637308 -0.13417356 0.59799999 4293913842
-0.20523636 -0.13417429 0.59799999 4294440186
-0.20409952 -0.13417494 0.59799999 4294177009
-0.20296267 -0.13417557 0.59799999 4294440438
-0.20182568 -0.13417611 0.59799999 4294111986
-0.20035309 -0.13395225 0.597 4294243572
-0.19921793 -0.13395271 0.597 4293980146
-0.1984145 -0.13417751 0.59799999 4294177781
-0.19727729 -0.13417786 0.59799999 4294111988
-0.19614008 -0.13417819 0.59799999 4294440697
-0.19500278 -0.13417844 0.59799999 4294111988
-0.1935413 -0.1339543 0.597 4294374904
-0.1924058 -0.13395447 0.597 4294374906
-0.19159068 -0.134179 0.59799999 4294440699
-0.19013473 -0.1339547 0.597 4294440438
-0.18899913 -0.13395473 0.597 4294769146
-0.18786348 -0.13395473 0.597 4294242804
-0.1870406 -0.13417909 0.59799999 4294440184
-0.185903 -0.134179 0.59799999 4294374644
-0.18507433 -0.13440326 0.59899998 4294703353
-0.18393473 -0.13440309 0.59899998 4294506231
-0.18310033 -0.13462728 0.60000002 4294769146
-0.18226208 -0.13485143 0.60100001 4294308597
-0.18141997 -0.13507554 0.602 4294440184
-0.18027461 -0.13507524 0.602 4294374390
-0.17912918 -0.13507488 0.602 4294637562
-0.17798382 -0.1350745 0.602 4294506231
-0.17683834 -0.13507409 0.602 4294703353
-0.17569289 -0.13507363 0.602 4294440438
-0.17454742 -0.13507314 0.602 4294900989
-0.17340197 -0.13507265 0.602 4294769146
-0.17225647 -0.1350721 0.602 4294769146
-0.17111097 -0.13507152 0.602 4294440186
-0.17109481 -0.13596837 0.60600001 4294505979
-0.16994168 -0.13596773 0.60600001 4294374392
-0.16906705 -0.13619143 0.60699999 4294703357
-0.16791207 -0.13619074 0.60699999 4294440438
-0.16703172 -0.13641436 0.60799998 4294637560
-0.16587479 -0.1364136 0.60799998 4294374390
-0.16471784 -0.13641281 0.60799998 4294506233
-0.16356091 -0.13641202 0.60799998 4294242806
-0.16240396 -0.13641118 0.60799998 4294505979
-0.16151227 -0.13663469 0.60900003 4294374390
-0.16088003 -0.1370825 0.611 4294703355
-0.15971741 -0.13708161 0.611 4294506231
-0.15881428 -0.13730501 0.61199999 4294703353
-0.15790735 -0.13752839 0.61299998 4294637560
-0.15699667 -0.13775177 0.61400002 4294966782
-0.15608217 -0.13797513 0.61500001 4294506231
-0.15516385 -0.13819842 0.616 4294769146
-0.15399179 -0.13819739 0.616 4294703353
-0.15281972 -0.1381963 0.616 4294769146
-0.15164767 -0.1381952 0.616 4294637308
-0.1509642 -0.13864279 0.61799997 4294703357
-0.14978839 -0.13864166 0.61799997 4294637562
-0.14885309 -0.13886486 0.61900002 4294834941
-0.14791395 -0.139088 0.62 4294703353
-0.14744441 -0.13975984 0.62300003 4294703353
-0.14649393 -0.13998297 0.62400001 4294374392
-0.14553966 -0.14020605 0.625 4294769150
-0.14504354 -0.14087781 0.62800002 4294637560
-0.14384884 -0.14087655 0.62800002 4294835195
-0.14401713 -0.14222124 0.634 4294637560
-0.14326157 -0.14266856 0.63599998 4294769146
-0.14205174 -0.14266725 0.63599998 4294506231
-0.14106339 -0.14289024 0.63700002 4294703353
-0.13985172 -0.1428889 0.63700002 4294440184
-0.13885772 -0.14311185 0.63800001 4294834941
-0.13807569 -0.14355913 0.63999999 4294506231
-0.13643071 -0.14310913 0.63800001 4294506231
-0.13521725 -0.14310774 0.63800001 4294308597
-0.13442391 -0.14355496 0.63999999 4294374390
-0.13320671 -0.14355356 0.63999999 4294242804
-0.13384564 -0.14557084 0.64899999 4294506233
-0.13261139 -0.1455694 0.64899999 4294242802
-0.13157962 -0.14579226 0.64999998 4294242802
-0.13094515 -0.14646369 0.653 4294045680
-0.26656902 -0.13827953 0.62199998 4290687936
-0.26539269 -0.13828354 0.62199998 4291411658
-0.26421624 -0.13828744 0.62199998 4291609551
-0.2630395 -0.13829124 0.62199998 4292596446
-0.26144156 -0.13807261 0.62099999 4292006096
-0.25984725 -0.13785389 0.62 4292203476
-0.25825647 -0.13763507 0.61900002 4292137683
-0.25708464 -0.13763849 0.61900002 4292466647
-0.25591257 -0.13764183 0.61900002 4292203476
-0.25432882 -0.13742271 0.61799997 4292532441
-0.25315827 -0.13742585 0.61799997 4292400598
-0.25198758 -0.13742894 0.61799997 4292664027
-0.2491933 -0.13654241 0.61400002 4292597209
-0.24762586 -0.13632289 0.61299998 4292729052
-0.24525791 -0.13565852 0.61000001 4292597211
-0.24330136 -0.13521641 0.60799998 4293057762
-0.24214876 -0.13521902 0.60799998 4292861151
-0.24059966 -0.13499919 0.60699999 4293124580
-0.23944862 -0.13500161 0.60699999 4292861153
-0.23790494 -0.1347816 0.60600001 4293124326
-0.23675552 -0.13478391 0.60600001 4293255142
-0.2348284 -0.13434128 0.60399997 4293584107
-0.23329562 -0.134121 0.60299999 4293255655
-0.23215148 -0.13412306 0.60299999 4293519084
-0.23062412 -0.13390264 0.602 4292927458
-0.22948162 -0.13390455 0.602 4293059044
-0.22833903 -0.13390641 0.602 4293255396
-0.22719629 -0.1339082 0.602 4293650154
-0.22605343 -0.13390988 0.602 4293322475
-0.2249105 -0.13391155 0.602 4293585390
-0.2237674 -0.13391313 0.602 4293190886
-0.22262423 -0.13391465 0.602 4293322473
-0.22111301 -0.13369364 0.60100001 4293321450
-0.21997152 -0.13369502 0.60100001 4293519086
-0.21882996 -0.13369636 0.60100001 4293453291
-0.21732603 -0.13347515 0.60000002 4293782255
-0.2161862 -0.13347638 0.60000002 4293453540
-0.21504621 -0.13347752 0.60000002 4293848298
-0.21354961 -0.13325612 0.59899998 4293783275
-0.21170215 -0.1328122 0.597 4293914605
-0.21056761 -0.13281316 0.597 4293585644
-0.20943302 -0.13281406 0.597 4293717230
-0.20829836 -0.13281491 0.597 4293782255
-0.20716357 -0.13281572 0.597 4293979635
-0.20637384 -0.13303892 0.59799999 4293716460
-0.20523702 -0.13303959 0.59799999 4294177011
-0.20410015 -0.13304023 0.59799999 4293848044
-0.2029632 -0.13304082 0.59799999 4294242802
-0.20182623 -0.13304135 0.59799999 4294046193
-0.20035359 -0.13281935 0.597 4294111986
-0.19921835 -0.13281979 0.597 4293848046
-0.19841489 -0.13304266 0.59799999 4294045682
-0.19727764 -0.13304299 0.59799999 4294176498
-0.19614038 -0.13304327 0.59799999 4294242291
-0.19467697 -0.13282105 0.597 4293848046
-0.1935415 -0.13282125 0.597 4294177011
-0.19240594 -0.13282138 0.597 4294046195
-0.1915908 -0.13304397 0.59799999 4294243574
-0.19013478 -0.13282156 0.597 4294243572
-0.18899915 -0.13282159 0.597 4294177779
-0.18786347 -0.13282156 0.597 4293782253
-0.18704054 -0.13304397 0.59799999 4294177011
-0.18590289 -0.13304389 0.59799999 4294308338
-0.18507421 -0.13326624 0.59899998 4294637047
-0.18393457 -0.13326606 0.59899998 4294177009
-0.18310013 -0.13348834 0.60000002 4294374644
-0.18226182 -0.13371056 0.60100001 4294045682
-0.18111834 -0.13371027 0.60100001 4294177011
-0.17997481 -0.13370994 0.60100001 4294176498
-0.17883129 -0.13370958 0.60100001 4294505206
-0.17768775 -0.13370918 0.60100001 4294374644
-0.17654416 -0.13370875 0.60100001 4294440438
-0.1754006 -0.13370828 0.60100001 4294177009
-0.17425698 -0.13370779 0.60100001 4294506231
-0.17311341 -0.13370726 0.60100001 4294440951
-0.1722559 -0.13392915 0.602 4294440951
-0.17111036 -0.13392857 0.602 4294177011
-0.17109416 -0.13481784 0.60600001 4294308597
-0.16994104 -0.13481717 0.60600001 4294242804
-0.16906638 -0.13503896 0.60699999 4294374390
-0.16791132 -0.13503823 0.60699999 4294046195
-0.16675627 -0.1350375 0.60699999 4294111988
-0.16587402 -0.1352592 0.60799998 4294044909
-0.16471703 -0.13525839 0.60799998 4294374131
-0.16356005 -0.13525756 0.60799998 4294176498
-0.16240314 -0.13525674 0.60799998 4294373877
-0.16151136 -0.1354783 0.60900003 4294177009
-0.16087912 -0.13592234 0.611 4294440438
-0.15971649 -0.13592142 0.611 4294242804
-0.15855382 -0.13592045 0.611 4294308597
-0.15790638 -0.1363644 0.61299998 4294177011
-0.15699567 -0.13658585 0.61400002 4294637562
-0.15608114 -0.13680731 0.61500001 4294308597
-0.15516283 -0.13702871 0.616 4294374390
-0.15399073 -0.13702765 0.616 4294374644
-0.15281864 -0.13702656 0.616 4294637560
-0.15164657 -0.13702546 0.616 4294374904
-0.15096305 -0.1374692 0.61799997 4294572539
-0.14978723 -0.13746808 0.61799997 4294440697
-0.14885192 -0.13768938 0.61900002 4294440697
-0.14791277 -0.13791063 0.62 4294506233
-0.14744321 -0.13857676 0.62300003 4294506233
-0.1464927 -0.13879798 0.62400001 4294373109
-0.14530556 -0.13879675 0.62400001 4294767867
-0.14411844 -0.13879551 0.62400001 4294505206
-0.1431604 -0.13901666 0.625 4294571256
-0.14492445 -0.14190692 0.63800001 4294308595
-0.14371078 -0.14190561 0.63800001 4294637560
-0.14249714 -0.14190428 0.63800001 4294374644
-0.14106207 -0.14168054 0.63700002 4294440438
-0.13985038 -0.1416792 0.63700002 4294177011
-0.13885635 -0.14190023 0.63800001 4294637562
-0.13764283 -0.14189887 0.63800001 4294177781
-0.13642934 -0.1418975 0.63800001 4294374904
-0.13521585 -0.1418961 0.63800001 4294243572
-0.13484257 -0.14278434 0.64200002 4294177779
-0.13362156 -0.14278293 0.64200002 4293980400
-0.13384421 -0.14433832 0.64899999 4294046193
-0.13260995 -0.14433686 0.64899999 4293848044
-0.13157816 -0.14455782 0.64999998 4293979887
-0.13094366 -0.14522354 0.653 4293848044
-0.26582336 -0.13732569 0.62300003 4292663538
-0.26464483 -0.13732953 0.62300003 4292859604
-0.26304322 -0.13711283 0.62199998 4292991191
-0.26144522 -0.13689606 0.62099999 4292400337
-0.2598508 -0.13667917 0.62 4292597715
-0.25825992 -0.13646217 0.61900002 4292270036
-0.25708801 -0.13646555 0.61900002 4292532952
-0.25591582 -0.13646881 0.61900002 4292467159
-0.25433198 -0.13625151 0.61799997 4292664538
-0.25316134 -0.13625462 0.61799997 4292532441
-0.25117511 -0.13581669 0.616 4292992992
-0.24960203 -0.13559912 0.61500001 4292794843
-0.24762863 -0.13516097 0.61299998 4292860636
-0.24526066 -0.13450225 0.61000001 4292728798
-0.24290384 -0.13384339 0.60699999 4293255142
-0.24175303 -0.13384594 0.60699999 4293058785
-0.24060211 -0.13384843 0.60699999 4293453542
-0.23945104 -0.13385084 0.60699999 4293058533
-0.23790726 -0.13363267 0.60600001 4293124326
-0.23675773 -0.1336349 0.60600001 4293255144
-0.23483054 -0.13319604 0.60399997 4293584109
-0.23329768 -0.1329776 0.60299999 4293387495
-0.23215349 -0.13297963 0.60299999 4293913839
-0.23062606 -0.13276105 0.602 4293387497
-0.2294835 -0.13276292 0.602 4293453291
-0.22834083 -0.13276474 0.602 4293387495
-0.22719803 -0.13276649 0.602 4293782253
-0.22605512 -0.13276815 0.602 4293716458
-0.22491208 -0.13276978 0.602 4293914093
-0.22376893 -0.13277131 0.602 4293585131
-0.2226257 -0.13277279 0.602 4293848046
-0.22111447 -0.13255367 0.60100001 4293847796
-0.21997288 -0.13255499 0.60100001 4293979383
-0.21883123 -0.13255627 0.60100001 4293716206
-0.21732727 -0.13233696 0.60000002 4293848048
-0.21618736 -0.13233812 0.60000002 4293585131
-0.21468887 -0.13211864 0.59899998 4293848046
-0.21319413 -0.13189913 0.59799999 4293848044
-0.21170315 -0.13167956 0.597 4293914093
-0.21056855 -0.13168047 0.597 4293782253
-0.20943387 -0.13168135 0.597 4293979633
-0.20829915 -0.13168217 0.597 4293913839
-0.2071643 -0.13168293 0.597 4294374390
-0.20637453 -0.13190421 0.59799999 4294177009
-0.20523767 -0.13190487 0.59799999 4294374644
-0.20410074 -0.13190547 0.59799999 4294045680
-0.20296375 -0.13190602 0.59799999 4294374644
-0.20182671 -0.13190654 0.59799999 4294374642
-0.20068961 -0.131907 0.59799999 4294374642
-0.19955243 -0.1319074 0.59799999 4294177009
-0.1984152 -0.13190775 0.59799999 4294374644
-0.19727793 -0.13190807 0.59799999 4294176498
-0.19614063 -0.13190836 0.59799999 4294242291
-0.19467714 -0.13168798 0.597 4293979635
-0.19354166 -0.13168815 0.597 4294308599
-0.19272836 -0.13190886 0.59799999 4293980148
-0.19159086 -0.13190895 0.59799999 4294243576
-0.19045329 -0.131909 0.59799999 4294177779
-0.18931572 -0.131909 0.59799999 4294177779
-0.18817809 -0.13190895 0.59799999 4293979635
-0.18704045 -0.13190886 0.59799999 4294440186
-0.18652453 -0.13234994 0.60000002 4294308595
-0.18538299 -0.13234977 0.60000002 4294506231
-0.18424144 -0.13234957 0.60000002 4294242802
-0.18309987 -0.13234934 0.60000002 4294637560
-0.18226153 -0.13256964 0.60100001 4294506231
-0.18111801 -0.13256936 0.60100001 4294637560
-0.17997445 -0.132569 0.60100001 4294111988
-0.17853335 -0.13234805 0.60000002 4294506746
-0.17739168 -0.13234761 0.60000002 4294440438
-0.17654371 -0.13256775 0.60100001 4294506231
-0.17540008 -0.13256726 0.60100001 4294177009
-0.17425647 -0.13256676 0.60100001 4294440438
-0.17311284 -0.13256621 0.60100001 4294506231
-0.17225532 -0.1327862 0.602 4294637560
-0.17110978 -0.13278562 0.602 4294374390
-0.17052884 -0.13322611 0.60399997 4294637562
-0.16994034 -0.13366657 0.60600001 4294308597
-0.16906567 -0.13388646 0.60699999 4294440184
-0.16791061 -0.13388574 0.60699999 4294242802
-0.1667555 -0.13388497 0.60699999 4294374644
-0.16587323 -0.13410476 0.60799998 4294177009
-0.16471624 -0.13410395 0.60799998 4294703353
-0.16355924 -0.13410312 0.60799998 4294440438
-0.16240226 -0.13410226 0.60799998 4294506231
-0.16151047 -0.13432193 0.60900003 4294440438
-0.1608782 -0.13476215 0.611 4294769146
-0.15971553 -0.13476123 0.611 4294506231
-0.15855286 -0.13476025 0.611 4294506231
-0.1576478 -0.13497984 0.61199999 4294242806
-0.15699466 -0.13541993 0.61400002 4294769150
-0.1560801 -0.13563946 0.61500001 4294505979
-0.15516174 -0.13585897 0.616 4294505979
-0.15398964 -0.1358579 0.616 4294374390
-0.15331368 -0.1362979 0.61799997 4294769148
-0.15213782 -0.13629679 0.61799997 4294506231
-0.15120623 -0.13651621 0.61900002 4294835195
-0.15002847 -0.13651507 0.61900002 4294506231
-0.14885074 -0.13651389 0.61900002 4294506231
-0.14791159 -0.13673325 0.62 4294506233
-0.14767867 -0.13761422 0.62400001 4294506233
-0.14649148 -0.13761298 0.62400001 4294308599
-0.14530432 -0.13761176 0.62400001 4294703357
-0.14434816 -0.13783105 0.625 4294374390
-0.14315915 -0.13782977 0.625 4294440184
-0.14197016 -0.13782848 0.625 4294374644
-0.14370945 -0.14069399 0.63800001 4294703353
-0.14227244 -0.14047214 0.63700002 4294506231
-0.14106072 -0.14047082 0.63700002 4294637560
-0.13984902 -0.14046948 0.63700002 4294440438
-0.13885501 -0.14068863 0.63800001 4294900989
-0.13764146 -0.14068726 0.63800001 4294638330
-0.13642797 -0.14068587 0.63800001 4294506744
-0.13457866 -0.14002295 0.63499999 4294374644
-0.13337092 -0.14002155 0.63499999 4294374644
-0.13403641 -0.14200468 0.64399999 4294177009
-0.13384275 -0.14310578 0.64899999 4294308595
-0.13260852 -0.14310434 0.64899999 4294045680
-0.13157669 -0.14332336 0.64999998 4294242802
-0.1309422 -0.14398341 0.653 4294045680
-0.12970044 -0.14398193 0.653 4294045680
-0.26582721 -0.13614544 0.62300003 4290036565
-0.26464865 -0.13614923 0.62300003 4292922318
-0.26346982 -0.13615291 0.62300003 4293448662
-0.2614488 -0.1357194 0.62099999 4292005842
-0.25985423 -0.13550435 0.62 4292203478
-0.25868049 -0.13550775 0.62 4292203478
-0.25709131 -0.13529252 0.61900002 4292532187
-0.25591904 -0.13529573 0.61900002 4292400598
-0.25433511 -0.13508028 0.61799997 4292466647
-0.25316438 -0.13508332 0.61799997 4292137683
-0.251178 -0.13464911 0.616 4292664027
-0.2496049 -0.13443342 0.61500001 4292597209
-0.24803542 -0.1342176 0.61400002 4292729052
-0.24526329 -0.1333459 0.61000001 4292662745
-0.24290639 -0.13269269 0.60699999 4293123296
-0.24175555 -0.1326952 0.60699999 4292794843
-0.24060455 -0.13269764 0.60699999 4293189601
-0.23945336 -0.1327 0.60699999 4292926946
-0.23790948 -0.13248366 0.60600001 4292992740
-0.23675993 -0.13248587 0.60600001 4293057762
-0.23483263 -0.13205074 0.60399997 4293321191
-0.23368661 -0.13205279 0.60399997 4292992740
-0.23215546 -0.13183616 0.60299999 4293387497
-0.23062795 -0.13161941 0.602 4293124326
-0.22948532 -0.13162127 0.602 4293387497
-0.22834258 -0.13162301 0.602 4293321191
-0.22719972 -0.13162474 0.602 4293584107
-0.22605674 -0.13162637 0.602 4293386982
-0.22491364 -0.13162795 0.602 4293715947
-0.22377042 -0.13162945 0.602 4293255907
-0.22262713 -0.1316309 0.602 4293716458
-0.2211158 -0.13141361 0.60100001 4293519086
-0.21997419 -0.13141493 0.60100001 4293716208
-0.21883248 -0.13141617 0.60100001 4293519084
-0.21732846 -0.13119872 0.60000002 4293716206
-0.21582812 -0.13098116 0.59899998 4293716458
-0.21433149 -0.13076356 0.59799999 4293848044
-0.21319515 -0.13076457 0.59799999 4293519336
-0.21205869 -0.13076554 0.59799999 4293519336
-0.21056944 -0.13054776 0.597 4293584105
-0.20943469 -0.1305486 0.597 4293781740
-0.20829992 -0.13054937 0.597 4293453289
-0.20716503 -0.13055012 0.597 4293848046
-0.20637518 -0.13076946 0.59799999 4293716206
-0.2052383 -0.1307701 0.59799999 4293979635
-0.20410132 -0.13077068 0.59799999 4293782253
-0.20296428 -0.13077122 0.59799999 4294177011
-0.20182721 -0.13077171 0.59799999 4293979887
-0.20069002 -0.13077213 0.59799999 4294045680
-0.19955279 -0.13077252 0.59799999 4293978862
-0.19841552 -0.13077283 0.59799999 4294242291
-0.19694832 -0.13055445 0.597 4294044655
-0.19581284 -0.13055468 0.597 4294176498
-0.19500339 -0.13077356 0.59799999 4293979633
-0.19386597 -0.13077371 0.59799999 4294177011
-0.19272846 -0.13077383 0.59799999 4293848048
-0.19159091 -0.1307739 0.59799999 4293979635
-0.19045331 -0.13077392 0.59799999 4293979887
-0.18931569 -0.13077389 0.59799999 4294242802
-0.18817803 -0.13077384 0.59799999 4293980146
-0.1873531 -0.13099241 0.59899998 4294111988
-0.18652436 -0.13121097 0.60000002 4293914093
-0.18507385 -0.1309921 0.59899998 4294045680
-0.18393415 -0.13099189 0.59899998 4293782251
-0.1830996 -0.13121033 0.60000002 4294374644
-0.18195799 -0.13121004 0.60000002 4294440951
-0.18081629 -0.13120972 0.60000002 4294243572
-0.17967463 -0.13120936 0.60000002 4293914607
-0.17853296 -0.13120897 0.60000002 4294375158
-0.1773912 -0.13120852 0.60000002 4294308595
-0.1762495 -0.13120806 0.60000002 4294374644
-0.17539957 -0.13142624 0.60100001 4294242289
-0.17425595 -0.13142572 0.60100001 4294308338
-0.17311226 -0.13142517 0.60100001 4294176496
-0.17225471 -0.13164324 0.602 4294571254
-0.17110914 -0.13164262 0.602 4294242289
-0.1705282 -0.13207932 0.60399997 4294505460
-0.16993967 -0.132516 0.60600001 4294110705
-0.16906494 -0.13273394 0.60699999 4294242291
-0.16790985 -0.13273321 0.60699999 4294176496
-0.16702944 -0.13295111 0.60799998 4294110703
-0.16587242 -0.13295034 0.60799998 4293781738
-0.16471539 -0.1329495 0.60799998 4294242289
-0.16355836 -0.13294865 0.60799998 4294176244
-0.16240138 -0.13294779 0.60799998 4294373879
-0.16177475 -0.13338421 0.61000001 4294177011
-0.16087729 -0.13360196 0.611 4294506233
-0.15971456 -0.13360101 0.611 4294111734
-0.15881141 -0.1338187 0.61199999 4294243576
-0.15764681 -0.1338177 0.61199999 4293979635
-0.15699363 -0.13425402 0.61400002 4294440186
-0.15607905 -0.13447164 0.61500001 4294440186
-0.1551607 -0.13468923 0.616 4294505979
-0.15398857 -0.13468815 0.616 4294111986
-0.15331259 -0.13512436 0.61799997 4294440951
-0.15238288 -0.13534188 0.61900002 4294111986
-0.15120509 -0.13534075 0.61900002 4294375158
-0.15002732 -0.13533959 0.61900002 4294374644
-0.14884958 -0.13533844 0.61900002 4294440438
-0.14791039 -0.13555586 0.62 4294374644
-0.1472041 -0.13599193 0.62199998 4294506231
-0.14625549 -0.13620937 0.62300003 4294308597
-0.14530309 -0.13642678 0.62400001 4294440184
-0.14434689 -0.13664414 0.625 4294242804
-0.14315787 -0.13664287 0.625 4294440184
-0.14196888 -0.13664158 0.625 4294308595
-0.14370812 -0.13948239 0.63800001 4294506231
-0.14249445 -0.13948107 0.63800001 4294308595
-0.14105938 -0.13926113 0.63700002 4294374644
-0.13984768 -0.13925976 0.63700002 4294242293
-0.13863599 -0.1392584 0.63700002 4294373879
-0.13764009 -0.13947561 0.63800001 4294177781
-0.13621274 -0.13925564 0.63700002 4294374904
-0.13457726 -0.13881701 0.63499999 4294111986
-0.1331595 -0.13859703 0.634 4294111986
-0.1319537 -0.13859564 0.634 4294045680
-0.13404755 -0.14209186 0.64999998 4294242802
-0.13281137 -0.14209041 0.64999998 4294045680
-0.13218252 -0.14274475 0.653 4294308595
-0.13094074 -0.14274329 0.653 4294044909
-0.12969898 -0.1427418 0.653 4294044909
-0.26465231 -0.13496883 0.62300003 4291543243
-0.26347342 -0.13497247 0.62300003 4292990689
-0.26145232 -0.13454269 0.62099999 4292400085
-0.25985765 -0.13432948 0.62 4292268499
-0.2582666 -0.13411616 0.61900002 4292203478
-0.2570945 -0.13411941 0.61900002 4292597980
-0.25592223 -0.1341226 0.61900002 4292400598
-0.25433815 -0.13390897 0.61799997 4292598234
-0.25316733 -0.13391195 0.61799997 4292334555
-0.25118092 -0.13348152 0.616 4292860899
-0.2496077 -0.13326764 0.61500001 4292860636
-0.24803813 -0.13305368 0.61400002 4293123808
-0.24526592 -0.1321895 0.61000001 4292926683
-0.2433091 -0.13175863 0.60799998 4293255648
-0.24175797 -0.1315444 0.60699999 4292926685
-0.24060687 -0.13154677 0.60699999 4293189601
-0.2394557 -0.13154911 0.60699999 4292926433
-0.23791172 -0.13133462 0.60600001 4293255142
-0.23676206 -0.13133676 0.60600001 4293124578
-0.2348347 -0.13090539 0.60399997 4293519336
-0.2333017 -0.13069068 0.60299999 4293125093
-0.23215738 -0.13069262 0.60299999 4293256679
-0.23101291 -0.13069448 0.60299999 4293321702
-0.22948711 -0.13047954 0.602 4293585131
-0.22834431 -0.13048127 0.602 4293321704
-0.22720134 -0.13048293 0.602 4293453291
-0.22605832 -0.13048454 0.602 4293386984
-0.22491515 -0.13048609 0.602 4293715693
-0.2237719 -0.13048755 0.602 4293387747
-0.22225869 -0.13027218 0.60100001 4293782505
-0.22111715 -0.13027354 0.60100001 4293519084
-0.21960942 -0.13005805 0.60000002 4293519084
-0.21846955 -0.13005926 0.60000002 4293453291
-0.21732959 -0.13006042 0.60000002 4293716206
-0.21582922 -0.12984475 0.59899998 4293782253
-0.21433257 -0.12962902 0.59799999 4294045682
-0.21319614 -0.12963 0.59799999 4293716712
-0.21205959 -0.12963091 0.59799999 4293782505
-0.21057029 -0.12941501 0.597 4293716460
-0.20943552 -0.12941583 0.597 4294045682
-0.20830067 -0.12941657 0.597 4293584877
-0.2071657 -0.12941727 0.597 4294045428
-0.20603074 -0.12941794 0.597 4293913842
-0.20523886 -0.12963532 0.59799999 4294176757
-0.20410185 -0.12963586 0.59799999 4293979633
-0.20296475 -0.12963638 0.59799999 4294308597
-0.20182762 -0.12963682 0.59799999 4294045680
-0.20035483 -0.12942044 0.597 4294177009
-0.19921947 -0.12942082 0.597 4293913842
-0.19808404 -0.12942111 0.597 4294308599
-0.19694856 -0.12942137 0.597 4294176498
-0.19581307 -0.12942159 0.597 4294505206
-0.19467752 -0.12942179 0.597 4294242802
-0.19386607 -0.12963867 0.59799999 4294374644
-0.19272853 -0.12963876 0.59799999 4294045428
-0.19159092 -0.12963881 0.59799999 4294176757
-0.19045331 -0.12963882 0.59799999 4294046193
-0.18931566 -0.12963878 0.59799999 4294375158
-0.18817793 -0.12963872 0.59799999 4294177779
-0.18766578 -0.13007216 0.60000002 4294243572
-0.18652418 -0.130072 0.60000002 4294045680
-0.18507363 -0.12985501 0.59899998 4294242802
-0.1839339 -0.12985477 0.59899998 4293848044
-0.1830993 -0.1300713 0.60000002 4294374644
-0.18195765 -0.130071 0.60000002 4294243826
-0.18081598 -0.13007067 0.60000002 4294243826
-0.17967427 -0.13007028 0.60000002 4294111986
-0.17853251 -0.13006987 0.60000002 4294638330
-0.17739074 -0.13006942 0.60000002 4294506231
-0.176249 -0.13006894 0.60000002 4294506231
-0.17539908 -0.13028523 0.60100001 4294374131
-0.1742554 -0.13028468 0.60100001 4294637047
-0.17311168 -0.1302841 0.60100001 4294505460
-0.1722541 -0.13050029 0.602 4294768633
-0.17139271 -0.13071641 0.60299999 4294374131
-0.17052752 -0.13093251 0.60399997 4294637047
-0.16993894 -0.13136539 0.60600001 4294176496
-0.16878574 -0.13136467 0.60600001 4294308338
-0.16790909 -0.13158068 0.60699999 4294176498
-0.16675392 -0.13157992 0.60699999 4294308084
-0.16587162 -0.13179587 0.60799998 4293978862
-0.16471455 -0.13179503 0.60799998 4294308084
-0.1635575 -0.13179417 0.60799998 4294242041
-0.16240051 -0.13179331 0.60799998 4294636799
-0.16177388 -0.13222593 0.61000001 4294308597
-0.16113965 -0.13265853 0.61199999 4294703355
-0.15997502 -0.13265757 0.61199999 4294637562
-0.15881041 -0.13265659 0.61199999 4294637562
-0.15790337 -0.13287236 0.61299998 4293979637
-0.15699263 -0.13308808 0.61400002 4294374139
-0.15607801 -0.13330382 0.61500001 4294374390
-0.15515965 -0.13351952 0.616 4294769148
-0.15398745 -0.1335184 0.616 4294703353
-0.15331148 -0.1339508 0.61799997 4294900989
-0.15238175 -0.13416645 0.61900002 4294374644
-0.15120393 -0.13416529 0.61900002 4294506231
-0.15002614 -0.13416414 0.61900002 4294506231
-0.14908884 -0.1343797 0.62 4294637560
-0.14790919 -0.13437851 0.62 4294440438
-0.14720289 -0.13481076 0.62199998 4294637560
-0.14625426 -0.13502629 0.62300003 4294308599
-0.14530183 -0.13524178 0.62400001 4294374392
-0.14411467 -0.13524051 0.62400001 4294308597
-0.1431566 -0.13545598 0.625 4294637562
-0.14196759 -0.13545468 0.625 4294374644
-0.1437068 -0.13827081 0.63800001 4294440438
-0.14249313 -0.1382695 0.63800001 4294308597
-0.14105804 -0.13805142 0.63700002 4294506233
-0.13984632 -0.13805006 0.63700002 4294242806
-0.13863464 -0.13804869 0.63700002 4294242806
-0.1376387 -0.13826403 0.63800001 4294242804
-0.13621135 -0.13804594 0.63700002 4294440184
-0.13457587 -0.13761111 0.63499999 4294242802
-0.1331581 -0.13739301 0.634 4294308595
-0.1319523 -0.13739161 0.634 4294176498
-0.13404611 -0.14085746 0.64999998 4294308084
-0.13280994 -0.14085601 0.64999998 4294045680
-0.13197863 -0.14128794 0.65200001 4294177009
-0.13073875 -0.14128649 0.65200001 4293979116
-0.12969749 -0.14150169 0.653 4293979116
-0.26465598 -0.13378839 0.62300003 4291806664
-0.263477 -0.13379195 0.62300003 4292925146
-0.26145574 -0.13336591 0.62099999 4292268501
-0.25986099 -0.13315453 0.62 4292334294
-0.25826991 -0.13294306 0.61900002 4292137683
-0.25709769 -0.13294625 0.61900002 4292334805
-0.25551182 -0.13273458 0.61799997 4292071890
-0.25351807 -0.13230804 0.616 4292400598
-0.25235096 -0.13231099 0.616 4292268501
-0.25077599 -0.13209903 0.61500001 4292663259
-0.24920459 -0.13188699 0.61400002 4292465880
-0.2480408 -0.13188969 0.61400002 4292794845
-0.24526851 -0.13103305 0.61000001 4292663257
-0.24331158 -0.13060592 0.60799998 4292860636
-0.24215868 -0.13060835 0.60799998 4292794843
-0.24060924 -0.13039587 0.60699999 4292926685
-0.23945791 -0.13039814 0.60699999 4292729050
-0.23830649 -0.13040034 0.60699999 4293058014
-0.23676419 -0.13018765 0.60600001 4292795358
-0.23483676 -0.12976001 0.60399997 4293058531
-0.2333037 -0.12954715 0.60299999 4292993253
-0.23215924 -0.12954904 0.60299999 4293190632
-0.2310147 -0.12955086 0.60299999 4293124326
-0.22948885 -0.12933779 0.602 4293453291
-0.22834598 -0.12933946 0.602 4293058533
-0.22720295 -0.12934108 0.602 4293124326
-0.22605987 -0.12934266 0.602 4293189603
-0.22454305 -0.12912931 0.60100001 4293386982
-0.22340164 -0.12913075 0.60100001 4293124578
-0.22189026 -0.12891723 0.60000002 4293585129
-0.2207505 -0.12891854 0.60000002 4293321704
-0.21961066 -0.12891978 0.60000002 4293453291
-0.21847074 -0.12892096 0.60000002 4293453289
-0.21696846 -0.12870722 0.59899998 4293716460
-0.21583027 -0.12870829 0.59899998 4293519849
-0.21433355 -0.12849443 0.59799999 4293717228
