# .PCD v0.7 - Point Cloud Data file format
VERSION 0.7
FIELDS x y z rgba
SIZE 4 4 4 4
TYPE F F F U
COUNT 1 1 1 1
WIDTH 1067
HEIGHT 1
VIEWPOINT 0 0 0 1 0 0 0
POINTS 1067
DATA ascii
0.20072708 -0.10563912 0.70300001 4294374131
0.11742314 -0.10750597 0.72500002 4294965753
0.11879993 -0.10750704 0.72500002 4294768369
0.11984525 -0.10721152 0.72299999 4294965748
0.12121834 -0.10721257 0.72299999 4294768885
0.12259147 -0.10721365 0.72299999 4294768885
0.12396465 -0.10721471 0.72299999 4294966261
0.12360433 -0.10573288 0.713 4294966261
0.12495862 -0.10573393 0.713 4294834932
0.12631296 -0.105735 0.713 4294966519
0.12730925 -0.10543948 0.71100003 4294966521
0.12811704 -0.10499567 0.708 4294966263
0.12946202 -0.10499672 0.708 4294965750
0.1298833 -0.10425628 0.70300001 4294965750
0.1312189 -0.10425735 0.70300001 4294966267
0.13217744 -0.10396179 0.70099998 4294966780
0.13350934 -0.10396285 0.70099998 4294966780
0.13484128 -0.1039639 0.70099998 4294966780
0.13617328 -0.10396498 0.70099998 4294967037
0.13750532 -0.10396604 0.70099998 4294967295
0.13883741 -0.10396709 0.70099998 4294967294
0.1395697 -0.10352322 0.69800001 4294967295
0.14069432 -0.10337597 0.69700003 4294967294
0.14201897 -0.10337701 0.69700003 4294967294
0.14334364 -0.10337806 0.69700003 4294967294
0.14466836 -0.10337909 0.69700003 4294966780
0.14599311 -0.10338013 0.69700003 4294966780
0.14731792 -0.10338119 0.69700003 4294966267
0.1484295 -0.10323388 0.69599998 4294834680
0.1497525 -0.1032349 0.69599998 4294966780
0.15107554 -0.10323592 0.69599998 4294966526
0.15239866 -0.10323695 0.69599998 4294966269
0.15372178 -0.10323796 0.69599998 4294768633
0.15504494 -0.10323896 0.69599998 4294702840
0.15636815 -0.10323998 0.69599998 4294768633
0.1576914 -0.10324097 0.69599998 4294702840
0.15924318 -0.10339031 0.69700003 4294768887
0.16033803 -0.10324293 0.69599998 4294834680
0.16166142 -0.10324392 0.69599998 4294768633
0.1625165 -0.10294821 0.69400001 4294966526
0.16360006 -0.10280082 0.69300002 4294834682
0.16491784 -0.10280176 0.69300002 4294834682
0.16623564 -0.1028027 0.69300002 4294966011
0.16706994 -0.10250694 0.69099998 4294966783
0.16838402 -0.10250784 0.69099998 4294966780
0.17018929 -0.10280544 0.69300002 4294900987
0.17101227 -0.10250963 0.69099998 4294966780
0.17232643 -0.1025105 0.69099998 4294967295
0.17364064 -0.10251137 0.69099998 4294966780
0.17546128 -0.10280894 0.69300002 4294900987
0.17626914 -0.10251308 0.69099998 4294966782
0.17758346 -0.10251392 0.69099998 4294966782
0.17941555 -0.10281144 0.69300002 4294900989
0.18021208 -0.10251551 0.69099998 4294967039
0.18152641 -0.10251629 0.69099998 4294967039
0.18337004 -0.1028138 0.69300002 4294967295
0.18468823 -0.10281453 0.69300002 4294835709
0.18600646 -0.10281529 0.69300002 4294704123
0.18759505 -0.10296439 0.69400001 4294769146
0.18973181 -0.10341018 0.69700003 4294967039
0.19105773 -0.10341087 0.69700003 4294769146
0.19265963 -0.10355992 0.69800001 4294900989
0.19398749 -0.10356057 0.69800001 4294769146
0.19587493 -0.10385794 0.69999999 4294703353
0.19748829 -0.10400692 0.70099998 4294637562
0.19882186 -0.10400753 0.70099998 4294637562
0.20015542 -0.10400811 0.70099998 4294637560
0.20148896 -0.10400867 0.70099998 4294637560
0.11376084 -0.10656671 0.72799999 4294373611
0.11514317 -0.10656775 0.72799999 4294966263
0.11636548 -0.10642239 0.727 4294637301
0.11742207 -0.10613066 0.72500002 4294637301
0.11847114 -0.10583894 0.72299999 4294637297
0.11918114 -0.10525443 0.71899998 4294703090
0.12054662 -0.10525546 0.71899998 4294571506
0.12089483 -0.10437816 0.713 4294834678
0.12190611 -0.10408644 0.71100003 4294966263
0.12273647 -0.10364827 0.708 4294966263
0.12408129 -0.10364933 0.708 4294703092
0.12524897 -0.10350397 0.70700002 4294966521
0.12641293 -0.10335863 0.70599997 4294966778
0.12775405 -0.10335967 0.70599997 4294966263
0.1285467 -0.10292152 0.70300001 4294637301
0.12951274 -0.10262977 0.70099998 4294966009
0.13084453 -0.10263079 0.70099998 4294966267
0.13198783 -0.10248546 0.69999999 4294966780
0.13331783 -0.10248648 0.69999999 4294967293
0.13464788 -0.10248754 0.69999999 4294966780
0.13597795 -0.10248858 0.69999999 4294966009
0.13730811 -0.10248963 0.69999999 4294967294
0.1382422 -0.10219786 0.69800001 4294967294
0.13956864 -0.1021989 0.69800001 4294967294
0.14069326 -0.10205352 0.69700003 4294768885
0.1420179 -0.10205456 0.69700003 4294967035
0.14313692 -0.10190917 0.69599998 4294967037
0.14445975 -0.1019102 0.69599998 4294966780
0.14578262 -0.10191122 0.69599998 4294966780
0.14710553 -0.10191226 0.69599998 4294966780
0.1484285 -0.10191327 0.69599998 4294966267
0.14975148 -0.10191428 0.69599998 4294966780
0.15107454 -0.10191528 0.69599998 4294966780
0.15239765 -0.10191633 0.69599998 4294966009
0.15327905 -0.10162445 0.69400001 4294703605
0.15459843 -0.10162544 0.69400001 4294637812
0.15591784 -0.10162643 0.69400001 4294637560
0.15769042 -0.10192028 0.69599998 4294703353
0.1592422 -0.10206769 0.69700003 4294834678
0.16033708 -0.10192223 0.69599998 4294834678
0.16166043 -0.10192319 0.69599998 4294768885
0.16251552 -0.10163125 0.69400001 4294966521
0.1635991 -0.10148577 0.69300002 4294834680
0.1649169 -0.10148671 0.69300002 4294966009
0.16575496 -0.10119473 0.69099998 4294966267
0.167069 -0.10119564 0.69099998 4294967037
0.16838311 -0.10119654 0.69099998 4294967293
0.16969723 -0.10119744 0.69099998 4294966780
0.17101137 -0.10119831 0.69099998 4294966782
0.17232558 -0.10119918 0.69099998 4294967295
0.17363976 -0.10120004 0.69099998 4294900987
0.17495404 -0.10120089 0.69099998 4294967293
0.17626828 -0.10120172 0.69099998 4294967295
0.17758259 -0.10120253 0.69099998 4294967295
0.17941475 -0.10149627 0.69300002 4294900989
0.18021129 -0.10120413 0.69099998 4294900989
0.18152565 -0.10120489 0.69099998 4294835709
0.18336929 -0.1014986 0.69300002 4294967295
0.18468753 -0.10149935 0.69300002 4294835709
0.18600574 -0.10150009 0.69300002 4294835709
0.187324 -0.10150079 0.69300002 4294769146
0.18945892 -0.10194089 0.69599998 4294835195
0.1907829 -0.10194158 0.69599998 4294769146
0.19210692 -0.10194224 0.69599998 4294900989
0.19343098 -0.1019429 0.69599998 4294704123
0.19531465 -0.10223647 0.69800001 4294572537
0.19720596 -0.10253002 0.69999999 4294637560
0.19853763 -0.10253061 0.69999999 4294637560
0.19986935 -0.10253119 0.69999999 4294703353
0.20120104 -0.10253175 0.69999999 4294637560
0.20253271 -0.10253228 0.69999999 4294308595
0.20415562 -0.10267925 0.70099998 4294374644
0.1113003 -0.10547274 0.73000002 4294043350
0.11237757 -0.10518477 0.72799999 4294965993
0.11360356 -0.10504132 0.727 4294834162
0.11466765 -0.10475335 0.72500002 4294570990
0.11604432 -0.10475438 0.72500002 4294308334
0.11709712 -0.10446642 0.72299999 4294571506
0.1184701 -0.10446744 0.72299999 4294637297
0.11918011 -0.10389052 0.71899998 4294703090
0.1197073 -0.10316908 0.71399999 4294703092
0.12089378 -0.10302562 0.713 4294967292
0.12190507 -0.10273764 0.71100003 4294966261
0.12273543 -0.10230519 0.708 4294769139
0.12390497 -0.10216171 0.70700002 4294768887
0.12524794 -0.10216276 0.70700002 4294966009
0.12641186 -0.10201928 0.70599997 4294966521
0.12721014 -0.1015868 0.70300001 4294966521
0.12817995 -0.10129883 0.70099998 4294834680
0.1295117 -0.10129986 0.70099998 4294967295
0.13065684 -0.10115639 0.69999999 4294967037
0.13160968 -0.1008684 0.69800001 4294966780
0.13293588 -0.10086945 0.69800001 4294966780
0.13426213 -0.10087047 0.69800001 4294967294
0.13539419 -0.10072701 0.69700003 4294966267
0.1367186 -0.10072801 0.69700003 4294967037
0.13824116 -0.10087356 0.69800001 4294967037
0.13936764 -0.10073008 0.69700003 4294967037
0.14069223 -0.1007311 0.69700003 4294967037
0.14201689 -0.10073214 0.69700003 4294967294
0.14313588 -0.1005886 0.69599998 4294966526
0.14445873 -0.10058965 0.69599998 4294966526
0.14578159 -0.10059065 0.69599998 4294966780
0.14710452 -0.10059167 0.69599998 4294966780
0.14842749 -0.10059269 0.69599998 4294966778
0.14975049 -0.10059369 0.69599998 4294966521
0.15063943 -0.10030563 0.69400001 4294899705
0.15195872 -0.10030662 0.69400001 4294833912
0.15305719 -0.10016307 0.69300002 4294703090
0.15437469 -0.10016405 0.69300002 4294834932
0.15524288 -0.099875949 0.69099998 4294703353
0.15655662 -0.099876918 0.69099998 4294835195
0.15787044 -0.099877864 0.69099998 4294966521
0.15918428 -0.099878825 0.69099998 4294967035
0.16049814 -0.099879764 0.69099998 4294966521
0.16181205 -0.099880695 0.69099998 4294967035
0.16288994 -0.099737078 0.69 4294966267
0.16420203 -0.099737994 0.69 4294966780
0.16551419 -0.099738918 0.69 4294966780
0.16682635 -0.099739812 0.69 4294967295
0.16813855 -0.099740699 0.69 4294967294
0.16945076 -0.099741586 0.69 4294967293
0.17101052 -0.099887021 0.69099998 4294967295
0.17207532 -0.099743299 0.69 4294967295
0.17338765 -0.099744163 0.69 4294966267
0.17495321 -0.099889547 0.69099998 4294966780
0.17626746 -0.099890366 0.69099998 4294966526
0.1775818 -0.099891178 0.69099998 4294966526
0.17889611 -0.099891976 0.69099998 4294966782
0.1799497 -0.099748202 0.69 4294967295
0.1812622 -0.099748954 0.69 4294967295
0.1825747 -0.099749729 0.69 4294967295
0.18415377 -0.099895023 0.69099998 4294967293
0.1854682 -0.099895746 0.69099998 4294967293
0.18732332 -0.1001856 0.69300002 4294966782
0.18891381 -0.10033085 0.69400001 4294769146
0.19023404 -0.10033152 0.69400001 4294834941
0.19210628 -0.10062131 0.69599998 4294967295
0.19343035 -0.10062197 0.69599998 4294835195
0.19531403 -0.10091173 0.69800001 4294703353
0.19720541 -0.10120149 0.69999999 4294703353
0.19853704 -0.10120206 0.69999999 4294900989
0.19986878 -0.10120264 0.69999999 4294637560
0.20062561 -0.10091405 0.69800001 4294637560
0.20195358 -0.10091457 0.69800001 4294177779
0.20328145 -0.10091507 0.69800001 4294440951
0.20460936 -0.10091554 0.69800001 4294243572
0.11129929 -0.10408808 0.73000002 4294110955
0.11222219 -0.10366131 0.727 4294637299
0.11329003 -0.10337714 0.72500002 4294439404
0.11466664 -0.10337815 0.72500002 4294439404
0.11556313 -0.10295138 0.722 4294176746
0.11693414 -0.10295239 0.722 4294571504
0.1168305 -0.10167005 0.713 4294768369
0.11818455 -0.10167106 0.713 4294899955
0.11953863 -0.10167207 0.713 4294769139
0.12055365 -0.10138788 0.71100003 4294966261
0.12121822 -0.10081851 0.70700002 4294899955
0.12256106 -0.10081952 0.70700002 4294899955
0.12372869 -0.10067792 0.70599997 4294833908
0.12453829 -0.10025115 0.70300001 4294965750
0.1255156 -0.099966943 0.70099998 4294703092
0.12684721 -0.099967942 0.70099998 4294966263
0.12817891 -0.09996897 0.70099998 4294834678
0.12951069 -0.099970005 0.70099998 4294967293
0.13065581 -0.09982843 0.69999999 4294967293
0.13160866 -0.099544205 0.69800001 4294966778
0.13293485 -0.099545226 0.69800001 4294768885
0.13426109 -0.099546246 0.69800001 4294966778
0.13539314 -0.099404655 0.69700003 4294966778
0.1367176 -0.099405676 0.69700003 4294967035
0.13804209 -0.099406682 0.69700003 4294966783
0.13916665 -0.099265069 0.69599998 4294967039
0.14048934 -0.099266075 0.69599998 4294967294
0.14181209 -0.09926708 0.69599998 4294967294
0.14313488 -0.099268101 0.69599998 4294966780
0.1444577 -0.099269107 0.69599998 4294966780
0.14578058 -0.099270113 0.69599998 4294966267
0.14710352 -0.099271119 0.69599998 4294966780
0.14799996 -0.098986849 0.69400001 4294966780
0.14931919 -0.098987833 0.69400001 4294966009
0.15063845 -0.098988824 0.69400001 4294637301
0.15195772 -0.0989898 0.69400001 4294703094
0.15305622 -0.098848149 0.69300002 4294768115
0.15437371 -0.098849118 0.69300002 4294833908
0.15524191 -0.098564781 0.69099998 4294637047
0.15655567 -0.09856575 0.69099998 4294966011
0.1583264 -0.098851986 0.69300002 4294967034
0.15895297 -0.098424986 0.69 4294967291
0.16026494 -0.098425917 0.69 4294900987
0.16157697 -0.098426841 0.69 4294966780
0.16288902 -0.098427758 0.69 4294966780
0.16372518 -0.098143354 0.68800002 4294966780
0.16503353 -0.098144263 0.68800002 4294966780
0.1663419 -0.09814515 0.68800002 4294967293
0.1676503 -0.098146021 0.68800002 4294967293
0.16895874 -0.098146901 0.68800002 4294967293
0.17076217 -0.098433048 0.69 4294967295
0.17207447 -0.098433904 0.69 4294967295
0.1733868 -0.098434746 0.69 4294966780
0.1749524 -0.098578237 0.69099998 4294966780
0.17626666 -0.098579027 0.69099998 4294966782
0.17758098 -0.098579824 0.69099998 4294966782
0.17863646 -0.098437972 0.69 4294966782
0.17994894 -0.098438732 0.69 4294967039
0.18126144 -0.098439485 0.69 4294967295
0.18257396 -0.098440245 0.69 4294967295
0.18415302 -0.098583624 0.69099998 4294967295
0.1854675 -0.098584354 0.69099998 4294967295
0.18678199 -0.098585047 0.69099998 4294967039
0.18809646 -0.098585725 0.69099998 4294900989
0.18941101 -0.09858638 0.69099998 4294703355
0.19127758 -0.098872371 0.69300002 4294966783
0.19342971 -0.099301025 0.69599998 4294835195
0.19503362 -0.099444322 0.69700003 4294769146
0.19664136 -0.099587604 0.69800001 4294703353
0.19796921 -0.099588193 0.69800001 4294703353
0.19929716 -0.099588744 0.69800001 4294506231
0.20033769 -0.099446617 0.69700003 4294506231
0.2016637 -0.099447116 0.69700003 4294111986
0.20328097 -0.099590294 0.69800001 4294440951
0.20460889 -0.099590756 0.69800001 4294440951
0.11084089 -0.10228137 0.727 4294505197
0.11222119 -0.10228237 0.727 4294505197
0.11328904 -0.10200198 0.72500002 4294242795
0.11466566 -0.10200298 0.72500002 4294571504
0.11508193 -0.10115978 0.71899998 4294505710
0.11563747 -0.10045729 0.71399999 4294571504
0.11682951 -0.10031761 0.713 4294637297
0.11785203 -0.1000372 0.71100003 4294703090
0.11869936 -0.099616095 0.708 4294768115
0.11987442 -0.099476375 0.70700002 4294899701
0.12121722 -0.099477373 0.70700002 4294833908
0.12238669 -0.099337675 0.70599997 4294965750
0.12337719 -0.099057265 0.704 4294834678
0.12453727 -0.098917559 0.70300001 4294966778
0.12551457 -0.098637149 0.70099998 4294966007
0.12684621 -0.098638155 0.70099998 4294966522
0.12799506 -0.098498456 0.69999999 4294966261
0.12932491 -0.098499455 0.69999999 4294967290
0.13028149 -0.09821903 0.69800001 4294967291
0.13141911 -0.098079316 0.69700003 4294967290
0.13274339 -0.098080322 0.69700003 4294966269
0.13387537 -0.097940609 0.69599998 4294967039
0.13519788 -0.097941615 0.69599998 4294967294
0.13652043 -0.097942606 0.69599998 4294967295
0.13784301 -0.097943611 0.69599998 4294967295
0.13916567 -0.097944617 0.69599998 4294967295
0.14048836 -0.097945616 0.69599998 4294967037
0.1414036 -0.097665161 0.69400001 4294967037
0.14272259 -0.097666152 0.69400001 4294966267
0.14445671 -0.097948603 0.69599998 4294966009
0.14536068 -0.097668126 0.69400001 4294966263
0.14667982 -0.09766911 0.69400001 4294966263
0.147999 -0.097670101 0.69400001 4294966521
0.14867273 -0.09724886 0.69099998 4294834678
0.14998627 -0.097249821 0.69099998 4294834680
0.15173782 -0.09753228 0.69300002 4294967037
0.15261352 -0.097251743 0.69099998 4294834680
0.15392722 -0.097252704 0.69099998 4294768887
0.15501629 -0.097112909 0.69 4294834680
0.15632817 -0.097113855 0.69 4294966009
0.15764007 -0.097114779 0.69 4294966521
0.15849131 -0.096834235 0.68800002 4294967294
0.1597995 -0.096835129 0.68800002 4294966780
0.16110772 -0.096836038 0.68800002 4294966267
0.16288812 -0.097118437 0.69 4294966778
0.16348632 -0.096697092 0.68699998 4294966778
0.16479275 -0.096697956 0.68699998 4294966780
0.16609927 -0.096698843 0.68699998 4294967037
0.16740575 -0.096699715 0.68699998 4294967293
0.16871229 -0.096700542 0.68699998 4294967293
0.17026639 -0.09684217 0.68800002 4294967039
0.17207365 -0.097124517 0.69 4294966782
0.17338598 -0.097125351 0.69 4294966526
0.17469837 -0.097126149 0.69 4294966269
0.17626587 -0.097267717 0.69099998 4294966782
0.17732324 -0.097127743 0.69 4294967295
0.17863569 -0.097128533 0.69 4294900989
0.17994818 -0.097129285 0.69 4294967295
0.1812607 -0.097130038 0.69 4294967294
0.1825732 -0.097130761 0.69 4294967294
0.18388581 -0.097131483 0.69 4294967039
0.18519837 -0.097132184 0.69 4294967039
0.18651101 -0.097132877 0.69 4294967039
0.18782362 -0.097133555 0.69 4294967039
0.18913628 -0.097134203 0.69 4294967039
0.19127694 -0.097557165 0.69300002 4294967295
0.19287325 -0.097698562 0.69400001 4294900989
0.1947532 -0.09798073 0.69599998 4294900989
0.19635902 -0.09812209 0.69700003 4294704123
0.19768503 -0.098122656 0.69700003 4294638330
0.19901112 -0.098123215 0.69700003 4294572537
0.20033716 -0.098123759 0.69700003 4294638330
0.20166321 -0.098124258 0.69700003 4294375158
0.20298925 -0.098124743 0.69700003 4294572537
0.20431532 -0.098125234 0.69700003 4294375158
0.2053463 -0.09798488 0.69599998 4294243572
0.20667048 -0.097985305 0.69599998 4294308849
0.10915857 -0.10062395 0.72500002 4294178033
0.11053503 -0.10062492 0.72500002 4294307818
0.11160278 -0.10034827 0.72299999 4294373611
0.11297552 -0.10034925 0.72299999 4294110953
0.11434835 -0.10035024 0.72299999 4294571504
0.11476085 -0.099518411 0.71700001 4294637301
0.11515065 -0.098686598 0.71100003 4294571252
0.11650082 -0.098687574 0.71100003 4294570992
0.11768529 -0.098549753 0.70999998 4294833908
0.11853071 -0.098134324 0.70700002 4294833908
0.11970388 -0.097996503 0.70599997 4294833908
0.12104477 -0.097997472 0.70599997 4294571506
0.12203901 -0.097720854 0.704 4294834678
0.12320095 -0.097583026 0.70300001 4294834678
0.12418199 -0.097306408 0.70099998 4294966521
0.12533452 -0.097168572 0.69999999 4294834678
0.12666427 -0.097169563 0.69999999 4294966521
0.12799406 -0.097170554 0.69999999 4294834932
0.1293239 -0.097171552 0.69999999 4294967033
0.13009387 -0.096756093 0.69700003 4294967035
0.13141811 -0.096757084 0.69700003 4294967035
0.13255195 -0.096619241 0.69599998 4294966269
0.13387439 -0.096620239 0.69599998 4294966783
0.13480839 -0.096343577 0.69400001 4294967294
0.13612713 -0.096344553 0.69400001 4294967295
0.13744593 -0.096345551 0.69400001 4294967295
0.13876477 -0.096346535 0.69400001 4294967295
0.14008367 -0.096347518 0.69400001 4294967293
0.14119887 -0.096209683 0.69300002 4294967293
0.14251596 -0.096210644 0.69300002 4294966267
0.14383309 -0.096211627 0.69300002 4294966009
0.14515026 -0.096212596 0.69300002 4294966263
0.14646751 -0.096213564 0.69300002 4294834678
0.14735824 -0.095936835 0.69099998 4294966263
0.14867175 -0.095937803 0.69099998 4294966263
0.14998534 -0.095938779 0.69099998 4294768887
0.15129893 -0.095939718 0.69099998 4294966267
0.15239173 -0.095801823 0.69 4294703607
0.15370353 -0.095802762 0.69 4294769400
0.15434137 -0.095387146 0.68699998 4294966009
0.15564755 -0.095388077 0.68699998 4294966009
0.15718223 -0.09552785 0.68800002 4294833908
0.15849039 -0.095528752 0.68800002 4294966779
0.15979858 -0.095529668 0.68800002 4294966267
0.16110684 -0.09553057 0.68800002 4294966780
0.16217904 -0.0953926 0.68699998 4294966778
0.16348544 -0.095393471 0.68699998 4294966778
0.16479188 -0.095394328 0.68699998 4294967035
0.16609839 -0.0953952 0.68699998 4294967292
0.16716123 -0.095257193 0.68599999 4294967037
0.1684659 -0.095258042 0.68599999 4294967037
0.17001806 -0.095397726 0.68699998 4294967293
0.17157407 -0.095537424 0.68800002 4294967293
0.17288262 -0.095538236 0.68800002 4294967293
0.17469756 -0.095816761 0.69 4294967293
0.17626506 -0.095956422 0.69099998 4294967039
0.17732245 -0.095818326 0.69 4294966782
0.17863493 -0.095819086 0.69 4294703353
0.17994744 -0.095819846 0.69 4294967039
0.18125995 -0.095820591 0.69 4294967295
0.1825725 -0.095821299 0.69 4294967295
0.18335213 -0.095544286 0.68800002 4294966782
0.1846609 -0.095544972 0.68800002 4294967295
0.18596971 -0.095545642 0.68800002 4294967295
0.18727855 -0.095546313 0.68800002 4294967295
0.18913564 -0.095824704 0.69 4294967295
0.19072431 -0.095964201 0.69099998 4294967295
0.19259472 -0.096242569 0.69300002 4294966782
0.19419298 -0.096382052 0.69400001 4294966782
0.19635846 -0.096799269 0.69700003 4294835709
0.1976845 -0.096799843 0.69700003 4294835709
0.1990106 -0.096800402 0.69700003 4294572537
0.20033661 -0.096800908 0.69700003 4294572537
0.2016627 -0.096801423 0.69700003 4294177779
0.20298879 -0.096801899 0.69700003 4294375158
0.20431487 -0.096802354 0.69700003 4294243572
0.20534591 -0.096663907 0.69599998 4294243572
0.20667006 -0.096664324 0.69599998 4294046193
0.10611135 -0.098973244 0.72299999 4294636536
0.10748389 -0.098974168 0.72299999 4294636788
0.10885649 -0.098975129 0.72299999 4294373359
0.11022913 -0.098976068 0.72299999 4294110953
0.11144747 -0.098840103 0.722 4294308588
0.11234953 -0.098430365 0.71899998 4294439404
0.11324029 -0.098020636 0.71600002 4294636784
0.11427971 -0.097747765 0.71399999 4294702840
0.11498771 -0.097201116 0.70999998 4294966011
0.11584444 -0.096791372 0.70700002 4294899955
0.11718706 -0.096792333 0.70700002 4294966776
0.11836208 -0.09665639 0.70599997 4294833908
0.11970291 -0.096657343 0.70599997 4294768115
0.1207009 -0.09638451 0.704 4294703092
0.12203801 -0.096385472 0.704 4294834678
0.12319997 -0.096249551 0.70300001 4294834678
0.12400385 -0.095839754 0.69999999 4294966778
0.12497544 -0.095566921 0.69800001 4294966263
0.12630139 -0.09556789 0.69800001 4294966778
0.12762739 -0.095568858 0.69800001 4294966521
0.12895343 -0.095569834 0.69800001 4294967035
0.13009287 -0.095433891 0.69700003 4294967035
0.13122857 -0.095297962 0.69599998 4294967292
0.13217005 -0.09502507 0.69400001 4294966269
0.13348871 -0.095026039 0.69400001 4294966783
0.13461317 -0.094890103 0.69300002 4294967037
0.13593 -0.094891071 0.69300002 4294967294
0.13724691 -0.09489204 0.69300002 4294967035
0.13856386 -0.094893001 0.69300002 4294966778
0.13947715 -0.094620116 0.69099998 4294966778
0.14079039 -0.094621062 0.69099998 4294967292
0.14210369 -0.094622038 0.69099998 4294966267
0.14341702 -0.094622999 0.69099998 4294966009
0.14473039 -0.094623946 0.69099998 4294835193
0.14604384 -0.094624899 0.69099998 4294769400
0.14714405 -0.094488911 0.69 4294835191
0.14845566 -0.094489843 0.69 4294835191
0.14976734 -0.094490789 0.69 4294834680
0.15064114 -0.094217852 0.68800002 4294966009
0.15172821 -0.094081812 0.68699998 4294703607
0.15303431 -0.094082735 0.68699998 4294769400
0.15411581 -0.09394671 0.68599999 4294835191
0.15542006 -0.093947619 0.68599999 4294967034
0.15695286 -0.09408547 0.68699998 4294834682
0.15825912 -0.094086364 0.68699998 4294966526
0.15956542 -0.094087258 0.68699998 4294966267
0.16087176 -0.094088137 0.68699998 4294967037
0.16217814 -0.094089031 0.68699998 4294966778
0.16348457 -0.094089888 0.68699998 4294966778
0.16455117 -0.093953781 0.68599999 4294966778
0.16585578 -0.093954653 0.68599999 4294966778
0.16716039 -0.09395548 0.68599999 4294966780
0.16846505 -0.093956299 0.68599999 4294966780
0.16976973 -0.093957111 0.68599999 4294966780
0.17132388 -0.094094902 0.68699998 4294967293
0.17263053 -0.094095707 0.68699998 4294967293
0.17419043 -0.094233468 0.68800002 4294967293
0.17600922 -0.094508179 0.69 4294967039
0.17732169 -0.094508946 0.69 4294966782
0.17863417 -0.094509691 0.69 4294900989
0.17994669 -0.094510421 0.69 4294966782
0.18125924 -0.094511151 0.69 4294966782
0.1825718 -0.094511867 0.69 4294966782
0.18335141 -0.094238624 0.68800002 4294966782
0.1846602 -0.094239302 0.68800002 4294967295
0.18596907 -0.094239973 0.68800002 4294967295
0.1872779 -0.094240628 0.68800002 4294967295
0.18858677 -0.094241269 0.68800002 4294966782
0.19044766 -0.094515838 0.69 4294966782
0.1920383 -0.094653413 0.69099998 4294966782
0.19391258 -0.094927974 0.69300002 4294900989
0.19551274 -0.095065527 0.69400001 4294835709
0.19683307 -0.095066071 0.69400001 4294901502
0.19872449 -0.095340572 0.69599998 4294703353
0.20004867 -0.095341094 0.69599998 4294637560
0.20137289 -0.095341593 0.69599998 4294243572
0.20269704 -0.095342055 0.69599998 4294243572
0.20431443 -0.095479518 0.69700003 4294374644
0.20534545 -0.095342949 0.69599998 4294374644
0.20666967 -0.095343366 0.69599998 4294308595
0.20859158 -0.095617741 0.69800001 4294242802
0.21082179 -0.096029051 0.70099998 4294045680
0.21215552 -0.096029401 0.70099998 4294177009
0.1050277 -0.097871132 0.72500002 4292664027
0.10611042 -0.09760204 0.72299999 4294440438
0.10748297 -0.097602963 0.72299999 4294570220
0.10885556 -0.097603895 0.72299999 4294307305
0.11007572 -0.097469822 0.722 4294176233
0.11113781 -0.097200751 0.72000003 4294570990
0.11234859 -0.097066686 0.71899998 4294570990
0.11323933 -0.096662633 0.71600002 4294636784
0.11379861 -0.095988534 0.71100003 4294571506
0.11466287 -0.09558446 0.708 4294637299
0.11584347 -0.095450386 0.70700002 4294570990
0.11718611 -0.09545134 0.70700002 4294834162
0.11836112 -0.095317282 0.70599997 4294703092
0.11970196 -0.095318228 0.70599997 4294834678
0.12069994 -0.095049173 0.704 4294834932
0.12203706 -0.095050126 0.704 4294834932
0.12284849 -0.094646022 0.70099998 4294834678
0.1236486 -0.094241947 0.69800001 4294834678
0.12479544 -0.094107896 0.69700003 4294637299
0.12611948 -0.094108835 0.69700003 4294966263
0.1272607 -0.093974762 0.69599998 4294966521
0.12858295 -0.093975738 0.69599998 4294967035
0.12990525 -0.093976676 0.69599998 4294966521
0.13085051 -0.093707606 0.69400001 4294966521
0.1321691 -0.09370856 0.69400001 4294768885
0.13329542 -0.093574502 0.69300002 4294966521
0.13422371 -0.093305379 0.69099998 4294966778
0.13553673 -0.093306325 0.69099998 4294967035
0.13684985 -0.093307301 0.69099998 4294966263
0.13796303 -0.093173206 0.69 4294966778
0.13927433 -0.093174152 0.69 4294966778
0.14058569 -0.093175113 0.69 4294967035
0.14189707 -0.093176045 0.69 4294967034
0.14320852 -0.093177013 0.69 4294901241
0.14451998 -0.093177937 0.69 4294704377
0.14583154 -0.093178876 0.69 4294638584
0.14671662 -0.092909738 0.68800002 4294835193
0.14802441 -0.092910662 0.68800002 4294966780
0.14933228 -0.092911586 0.68800002 4294966267
0.15042123 -0.092777453 0.68699998 4294834680
0.15172729 -0.092778355 0.68699998 4294703607
0.15303341 -0.092779271 0.68699998 4294835193
0.15411489 -0.092645116 0.68599999 4294900987
0.15541917 -0.092646018 0.68599999 4294900987
0.1567235 -0.092646912 0.68599999 4294769400
0.15825823 -0.092782855 0.68699998 4294900987
0.15956452 -0.092783719 0.68699998 4294769400
0.16087088 -0.092784591 0.68699998 4294835193
0.16194122 -0.092650391 0.68599999 4294835191
0.16324574 -0.092651248 0.68599999 4294769398
0.16455032 -0.092652105 0.68599999 4294637301
0.1653714 -0.092382811 0.68400002 4294834680
0.16667224 -0.092383638 0.68400002 4294966011
0.1679731 -0.092384443 0.68400002 4294966011
0.16927399 -0.092385262 0.68400002 4294768887
0.17057492 -0.092386052 0.68400002 4294966780
0.17237847 -0.09265697 0.68599999 4294900987
0.17393647 -0.092792816 0.68699998 4294966780
0.17600842 -0.093198784 0.69 4294966782
0.17757791 -0.093334623 0.69099998 4294966782
0.17863342 -0.093200289 0.69 4294966780
0.17994593 -0.093201019 0.69 4294966780
0.18125851 -0.093201734 0.69 4294966782
0.18257108 -0.093202427 0.69 4294967039
0.18308422 -0.092797883 0.68699998 4294967295
0.18439113 -0.092798568 0.68699998 4294967295
0.18569808 -0.092799217 0.68699998 4294967295
0.18700506 -0.092799865 0.68699998 4294967295
0.18858616 -0.09293557 0.68800002 4294967295
0.19044706 -0.093206339 0.69 4294901502
0.19175982 -0.093206942 0.69 4294901502
0.19335234 -0.093342595 0.69099998 4294901502
0.19523048 -0.093613341 0.69300002 4294638330
0.19654894 -0.09361387 0.69300002 4294638330
0.19815296 -0.093749478 0.69400001 4294506744
0.20004818 -0.094020166 0.69599998 4294506744
0.20137239 -0.09402065 0.69599998 4294243572
0.20269661 -0.094021119 0.69599998 4294243572
0.2040208 -0.094021544 0.69599998 4294045680
0.20564009 -0.094157085 0.69700003 4294374644
0.20696624 -0.094157487 0.69700003 4294374644
0.20859119 -0.094292961 0.69800001 4294374644
0.21082143 -0.094698593 0.70099998 4293980400
0.21215518 -0.094698928 0.70099998 4293980400
0.21440254 -0.095104508 0.704 4294046193
0.10365056 -0.096495278 0.72500002 4293846783
0.10502679 -0.096496187 0.72500002 4294768369
0.10610953 -0.096230879 0.72299999 4294570990
0.10748205 -0.096231788 0.72299999 4294373096
0.10870409 -0.0960996 0.722 4294438889
0.1100748 -0.096100502 0.722 4294373611
0.11098252 -0.095702127 0.71899998 4294570990
0.11203516 -0.095436841 0.71700001 4294570990
0.11323838 -0.095304638 0.71600002 4294768369
0.11379768 -0.094640046 0.71100003 4294768369
0.11466192 -0.094241641 0.708 4294834162
0.11600637 -0.094242543 0.708 4294834162
0.11718518 -0.094110399 0.70700002 4294834162
0.11836018 -0.093978189 0.70599997 4294833908
0.11970099 -0.093979128 0.70599997 4294966779
0.12069897 -0.093713857 0.704 4294966261
0.12151605 -0.093315437 0.70099998 4294834932
0.12267229 -0.093183249 0.69999999 4294966263
0.12364765 -0.092917971 0.69800001 4294966778
0.12461545 -0.092652656 0.69599998 4294966263
0.12593758 -0.092653602 0.69599998 4294834678
0.12725976 -0.092654549 0.69599998 4294966007
0.12858202 -0.092655502 0.69599998 4294966265
0.1299043 -0.092656434 0.69599998 4294966265
0.13084954 -0.092391126 0.69400001 4294966007
0.13197771 -0.092258938 0.69300002 4294769139
0.13290977 -0.091993622 0.69099998 4294966261
0.13422276 -0.091994554 0.69099998 4294966521
0.13553581 -0.091995493 0.69099998 4294967294
0.13684891 -0.091996439 0.69099998 4294967292
0.1379621 -0.091864236 0.69 4294967292
0.13866785 -0.091465749 0.68699998 4294967290
0.13997351 -0.091466688 0.68699998 4294967294
0.14148484 -0.091600761 0.68800002 4294967292
0.14279249 -0.091601692 0.68800002 4294967292
0.14410019 -0.091602609 0.68800002 4294835193
0.1454079 -0.09160354 0.68800002 4294703607
0.1467157 -0.091604456 0.68800002 4294966009
0.14780836 -0.091472223 0.68699998 4294966267
0.14911431 -0.091473125 0.68699998 4294966009
0.15042034 -0.091474026 0.68699998 4294966267
0.15150554 -0.091341786 0.68599999 4294769400
0.15280975 -0.091342665 0.68599999 4294900987
0.15411401 -0.091343567 0.68599999 4294966009
0.15541829 -0.091344446 0.68599999 4294834680
0.15672261 -0.09134531 0.68599999 4294834680
0.15825737 -0.091479346 0.68699998 4294834680
0.15956368 -0.09148021 0.68699998 4294703353
0.16087003 -0.091481067 0.68699998 4294703353
0.16194037 -0.091348745 0.68599999 4294703607
0.1632449 -0.091349587 0.68599999 4294703607
0.16406974 -0.0910841 0.68400002 4294703353
0.16537055 -0.091084912 0.68400002 4294835195
0.16667141 -0.091085739 0.68400002 4294900735
0.16797228 -0.091086537 0.68400002 4294967039
0.1692732 -0.091087326 0.68400002 4294966780
0.17057414 -0.091088101 0.68400002 4294967293
0.17187512 -0.091088891 0.68400002 4294900989
0.17317614 -0.091089644 0.68400002 4294967039
0.17626275 -0.092022598 0.69099998 4294967291
0.17757717 -0.092023335 0.69099998 4294967293
0.17863268 -0.091890894 0.69 4294966780
0.17994523 -0.091891624 0.69 4294967293
0.18125778 -0.091892309 0.69 4294967293
0.18257041 -0.09189301 0.69 4294967294
0.18281706 -0.091360971 0.68599999 4294967295
0.1841221 -0.091361649 0.68599999 4294967295
0.18542714 -0.091362283 0.68599999 4294967295
0.18700442 -0.091496095 0.68699998 4294901502
0.18831143 -0.091496699 0.68699998 4294967293
0.18961844 -0.091497302 0.68699998 4294967293
0.19092546 -0.091497876 0.68699998 4294966780
0.19251235 -0.091631643 0.68800002 4294967293
0.19438475 -0.091898561 0.69 4294769146
0.19598114 -0.092032276 0.69099998 4294637560
0.19815244 -0.092432365 0.69400001 4294637560
0.2000477 -0.092699245 0.69599998 4294637560
0.20137194 -0.092699714 0.69599998 4294375158
0.20269616 -0.092700168 0.69599998 4294243572
0.2040204 -0.092700616 0.69599998 4294177009
0.20563968 -0.092834219 0.69700003 4294308595
0.20696583 -0.092834629 0.69700003 4294308849
0.20859084 -0.092968196 0.69800001 4294374642
0.21082109 -0.093368113 0.70099998 4294177009
0.21276015 -0.093634836 0.70300001 4294177009
0.21440224 -0.093768358 0.704 4293980400
0.10269672 -0.09551312 0.72799999 4291150788
0.10364968 -0.095120393 0.72500002 4294242802
0.1050259 -0.095121264 0.72500002 4294768117
0.10610864 -0.094859742 0.72299999 4294439152
0.10748116 -0.094860636 0.72299999 4294307303
0.10840206 -0.09446793 0.72000003 4294438889
0.10961653 -0.094337597 0.71899998 4294373611
0.11067291 -0.094076104 0.71700001 4294570990
0.11187799 -0.093945786 0.71600002 4294505197
0.112763 -0.093553066 0.713 4294768369
0.11363669 -0.093160331 0.70999998 4294834162
0.11466101 -0.092898831 0.708 4294899955
0.11584163 -0.092768535 0.70700002 4294769139
0.11701848 -0.092638232 0.70599997 4294769139
0.11802395 -0.092376716 0.704 4294768885
0.11936098 -0.092377648 0.704 4294967035
0.12052661 -0.092247345 0.70300001 4294966519
0.12151513 -0.091985829 0.70099998 4294966261
0.12267139 -0.091855541 0.69999999 4294966521
0.12346958 -0.091462806 0.69700003 4294966778
0.12461452 -0.091332495 0.69599998 4294966521
0.12593663 -0.091333412 0.69599998 4294834678
0.12725882 -0.091334343 0.69599998 4294834678
0.12858108 -0.091335289 0.69599998 4294966263
0.12990338 -0.091336213 0.69599998 4294834678
0.13084863 -0.091074698 0.69400001 4294966263
0.1319768 -0.09094438 0.69300002 4294966261
0.13290884 -0.090682842 0.69099998 4294966261
0.13402759 -0.090552524 0.69 4294966007
0.13533874 -0.090553448 0.69 4294966265
0.13664994 -0.090554371 0.69 4294966267
0.13796119 -0.09055531 0.69 4294967037
0.13866691 -0.090162478 0.68699998 4294966778
0.13997258 -0.09016341 0.68699998 4294966778
0.14127827 -0.090164311 0.68699998 4294966267
0.14279158 -0.090296492 0.68800002 4294966780
0.14409927 -0.090297386 0.68800002 4294834680
0.14540699 -0.090298295 0.68800002 4294966009
0.14628828 -0.090036698 0.68599999 4294966009
0.14759231 -0.090037599 0.68599999 4294966009
0.14889637 -0.090038486 0.68599999 4294702840
0.1502005 -0.090039387 0.68599999 4294966011
0.15150467 -0.090040267 0.68599999 4294768887
0.15236337 -0.089778639 0.68400002 4294966009
0.15366383 -0.089779504 0.68400002 4294966267
0.15496431 -0.089780368 0.68400002 4294966267
0.15626484 -0.089781225 0.68400002 4294769398
0.15802614 -0.09004461 0.68599999 4294703605
0.15933056 -0.090045437 0.68599999 4294703607
0.16063504 -0.090046294 0.68599999 4294703607
0.16193953 -0.090047121 0.68599999 4294506229
0.16276816 -0.089785434 0.68400002 4294637814
0.16406894 -0.089786239 0.68400002 4294835193
0.16512796 -0.089655772 0.68300003 4294835193
0.16642694 -0.089656577 0.68300003 4294835195
0.16772592 -0.089657366 0.68300003 4294966782
0.16902496 -0.089658149 0.68300003 4294967293
0.17032403 -0.089658923 0.68300003 4294900987
0.1713718 -0.089528389 0.68199998 4294703094
0.17266904 -0.089529149 0.68199998 4294966009
0.17396627 -0.089529872 0.68199998 4294966263
0.17629151 -0.090055697 0.68599999 4294966521
0.17759642 -0.090056419 0.68599999 4294769400
0.17890137 -0.090057135 0.68599999 4294900987
0.18020639 -0.090057813 0.68599999 4294900987
0.18151136 -0.090058491 0.68599999 4294966780
0.18281637 -0.090059146 0.68599999 4294901502
0.18412143 -0.090059802 0.68599999 4294835709
0.18542652 -0.090060435 0.68599999 4294704123
0.18673161 -0.090061054 0.68599999 4294704123
0.18803672 -0.09006165 0.68599999 4294637560
0.18961787 -0.090193525 0.68699998 4294703353
0.1909249 -0.090194091 0.68699998 4294703353
0.19223197 -0.09019465 0.68699998 4294703353
0.19353907 -0.090195194 0.68699998 4294637560
0.19484615 -0.090195708 0.68699998 4294703353
0.19615325 -0.090196207 0.68699998 4294637560
0.19947238 -0.09111575 0.69400001 4294637560
0.20137143 -0.091378771 0.69599998 4294440949
0.2026957 -0.09137924 0.69599998 4294506742
0.20401998 -0.091379665 0.69599998 4294242802
0.20534423 -0.091380067 0.69599998 4294308595
0.20666851 -0.091380462 0.69599998 4294308595
0.20829166 -0.091512136 0.69700003 4294374644
0.20991853 -0.091643773 0.69800001 4294308595
0.21185191 -0.091906674 0.69999999 4294308595
0.21501105 -0.092694759 0.70599997 4293980400
0.10117488 -0.094002418 0.727 4293255655
0.10255478 -0.094003275 0.727 4294570470
0.10364882 -0.09374553 0.72500002 4294899692
0.10502502 -0.093746401 0.72500002 4294570990
0.10610774 -0.093488649 0.72299999 4294505197
0.10748028 -0.093489535 0.72299999 4294505197
0.1082506 -0.092973165 0.71899998 4294636784
0.10931072 -0.092715442 0.71700001 4294636784
0.11051764 -0.092587017 0.71600002 4294768369
0.11156457 -0.092329271 0.71399999 4294505712
0.11244582 -0.091942243 0.71100003 4294637299
0.1133157 -0.091555178 0.708 4294703092
0.11449815 -0.09142676 0.70700002 4294703092
0.1158407 -0.091427639 0.70700002 4294899701
0.11701757 -0.091299221 0.70599997 4294899701
0.11802305 -0.091041505 0.704 4294965750
0.11919052 -0.090913087 0.70300001 4294966779
0.12018278 -0.090655342 0.70099998 4294966261
0.12134089 -0.090526946 0.69999999 4294834932
0.12231997 -0.090269193 0.69800001 4294966267
0.12346866 -0.090140775 0.69700003 4294966267
0.12461359 -0.090012357 0.69599998 4294966261
0.12593573 -0.090013258 0.69599998 4294769139
0.1272579 -0.090014175 0.69599998 4294965750
0.12858015 -0.090015091 0.69599998 4294965750
0.12990242 -0.090016007 0.69599998 4294834678
0.13084771 -0.089758277 0.69400001 4294966263
0.13197586 -0.089629859 0.69300002 4294966263
0.13290791 -0.089372069 0.69099998 4294966521
0.13402668 -0.089243658 0.69 4294966263
0.13533783 -0.089244567 0.69 4294966263
0.136649 -0.089245461 0.69 4294966780
0.13756038 -0.088987693 0.68800002 4294967037
0.13846418 -0.088729903 0.68599999 4294966263
0.13976794 -0.088730812 0.68599999 4294966263
0.14107174 -0.088731699 0.68599999 4294966269
0.14258312 -0.088861935 0.68699998 4294966269
0.14388891 -0.088862829 0.68699998 4294834680
0.14519472 -0.08886373 0.68699998 4294834680
0.14628738 -0.08873526 0.68599999 4294966009
0.1475914 -0.088736139 0.68599999 4294966780
0.14889547 -0.088737018 0.68599999 4294966269
0.15019962 -0.088737898 0.68599999 4294967039
0.15150379 -0.088738762 0.68599999 4294834680
0.15236251 -0.08848092 0.68400002 4294834680
0.15366295 -0.088481776 0.68400002 4294966011
0.15496345 -0.088482633 0.68400002 4294966011
0.15626401 -0.088483468 0.68400002 4294703605
0.15756458 -0.088484302 0.68400002 4294703605
0.15886523 -0.088485152 0.68400002 4294769400
0.16016589 -0.088485964 0.68400002 4294769400
0.1614666 -0.088486783 0.68400002 4294703605
0.16276735 -0.088487595 0.68400002 4294703605
0.16382825 -0.088359021 0.68300003 4294769400
0.1651272 -0.088359818 0.68300003 4294835193
0.16642618 -0.088360615 0.68300003 4294769146
0.16772516 -0.088361375 0.68300003 4294769146
0.1690242 -0.088362157 0.68300003 4294900987
0.17007388 -0.088233531 0.68199998 4294900987
0.17137106 -0.088234261 0.68199998 4294834680
0.17266831 -0.088234998 0.68199998 4294966780
0.17396556 -0.088235714 0.68199998 4294835193
0.17526285 -0.088236414 0.68199998 4294966780
0.17707795 -0.088495903 0.68400002 4294901241
0.17837909 -0.088496573 0.68400002 4294967034
0.18020569 -0.088756017 0.68599999 4294966780
0.1815107 -0.088756695 0.68599999 4294966780
0.18281575 -0.088757329 0.68599999 4294900987
0.18412079 -0.088757969 0.68599999 4294835193
0.18542591 -0.088758603 0.68599999 4294835195
0.18673098 -0.088759191 0.68599999 4294900989
0.18803614 -0.088759795 0.68599999 4294703353
0.18934129 -0.088760361 0.68599999 4294506231
0.19064648 -0.088760927 0.68599999 4294637560
0.19195163 -0.088761471 0.68599999 4294703353
0.19325683 -0.088762 0.68599999 4294637560
0.19484566 -0.088891901 0.68699998 4294703353
0.19615276 -0.088892378 0.68699998 4294637814
0.19745991 -0.088892862 0.68699998 4294506229
0.19963503 -0.089281499 0.69 4294637814
0.2009479 -0.089281939 0.69 4294703607
0.20343332 -0.089799941 0.69400001 4294308595
0.20534384 -0.090059116 0.69599998 4294242802
0.20666814 -0.090059511 0.69599998 4294308595
0.20829129 -0.090189271 0.69700003 4294308595
0.20961745 -0.090189599 0.69700003 4294308849
0.21124634 -0.090319343 0.69800001 4294440436
0.21348801 -0.090707801 0.70099998 4294045680
0.21482183 -0.090708077 0.70099998 4293914093
0.21708064 -0.091096528 0.704 4293914091
0.10117405 -0.092623845 0.727 4294110191
0.10255394 -0.092624679 0.727 4294570738
0.10364795 -0.092370719 0.72500002 4294570738
0.10502416 -0.092371568 0.72500002 4294373611
0.10610688 -0.092117585 0.72299999 4294505197
0.10703344 -0.091736227 0.72000003 4294439404
0.10794863 -0.091354862 0.71700001 4294636784
0.10915739 -0.091228321 0.71600002 4294571504
0.11020806 -0.090974338 0.71399999 4294505710
0.11156368 -0.09097521 0.71399999 4294242795
0.11244493 -0.090593837 0.71100003 4294637297
0.11331481 -0.090212472 0.708 4294703090
0.11449727 -0.090085939 0.70700002 4294637297
0.11583981 -0.09008681 0.70700002 4294899701
0.1166852 -0.089705437 0.704 4294965750
0.11785451 -0.089578889 0.70300001 4294966521
0.11885054 -0.089324929 0.70099998 4294966263
0.1201819 -0.08932583 0.70099998 4294769139
0.12133998 -0.08919929 0.69999999 4294834932
0.12214382 -0.088817894 0.69700003 4294834678
0.12329061 -0.088691354 0.69599998 4294834678
0.12461267 -0.088692248 0.69599998 4294965748
0.12593481 -0.088693157 0.69599998 4294965748
0.12689131 -0.088439189 0.69400001 4294834932
0.12820975 -0.088440068 0.69400001 4294834932
0.12952825 -0.088440977 0.69400001 4294834678
0.13065827 -0.088314436 0.69300002 4294966521
0.13159406 -0.088060468 0.69099998 4294966519
0.13271467 -0.087933913 0.69 4294966519
0.13363729 -0.087679923 0.68800002 4294966263
0.13494463 -0.087680817 0.68800002 4294966778
0.13625206 -0.087681711 0.68800002 4294967294
0.13755947 -0.08768259 0.68800002 4294967037
0.13846329 -0.087428592 0.68599999 4294966265
0.13976705 -0.087429464 0.68599999 4294966265
0.14107083 -0.08743035 0.68599999 4294966267
0.14258224 -0.087558679 0.68699998 4294966267
0.14388801 -0.087559551 0.68699998 4294966009
0.14498253 -0.087432988 0.68599999 4294966009
0.14586003 -0.087178946 0.68400002 4294966263
0.14716026 -0.08717981 0.68400002 4294966778
0.14846055 -0.087180674 0.68400002 4294835193
0.14976084 -0.087181523 0.68400002 4294900987
0.15106124 -0.087182388 0.68400002 4294769400
0.15236165 -0.087183222 0.68400002 4294835193
0.15343747 -0.087056622 0.68300003 4294966267
0.15473607 -0.087057456 0.68300003 4294966009
0.15626317 -0.08718574 0.68400002 4294835193
0.15756378 -0.087186575 0.68400002 4294835193
0.15863213 -0.087059915 0.68300003 4294835195
0.1599309 -0.087060712 0.68300003 4294835195
0.16122973 -0.087061524 0.68300003 4294835193
0.16252857 -0.087062322 0.68300003 4294835193
0.16382749 -0.087063111 0.68300003 4294835193
0.16488464 -0.086936399 0.68199998 4294835193
0.16618171 -0.086937182 0.68199998 4294835195
0.16747881 -0.086937934 0.68199998 4294769146
0.16877596 -0.086938694 0.68199998 4294769400
0.17007312 -0.086939424 0.68199998 4294900987
0.1708678 -0.086685203 0.68000001 4294769400
0.17216125 -0.086685926 0.68000001 4294835193
0.17396483 -0.086941585 0.68199998 4294703607
0.17526217 -0.086942285 0.68199998 4294835193
0.17681837 -0.087070443 0.68300003 4294835191
0.17837845 -0.087198615 0.68400002 4294769398
0.18046768 -0.087581716 0.68699998 4294769398
0.18151002 -0.0874549 0.68599999 4294769398
0.1828151 -0.087455533 0.68599999 4294703607
0.18412016 -0.087456152 0.68599999 4294703607
0.18542528 -0.08745677 0.68599999 4294506231
0.1867304 -0.087457359 0.68599999 4294637560
0.18803556 -0.087457933 0.68599999 4294637560
0.18934074 -0.087458514 0.68599999 4294637560
0.1906459 -0.087459058 0.68599999 4294308595
0.19195108 -0.087459579 0.68599999 4294506231
0.19325635 -0.087460123 0.68599999 4294637301
0.19456154 -0.087460615 0.68599999 4294768887
0.19586681 -0.087461092 0.68599999 4294637047
0.19717205 -0.087461554 0.68599999 4294505460
0.19876663 -0.08758951 0.68699998 4294374131
0.20007379 -0.087589927 0.68699998 4294702840
0.2025535 -0.088100322 0.69099998 4294374644
0.20475337 -0.088483207 0.69400001 4294374644
0.20666777 -0.088738576 0.69599998 4294308595
0.20829093 -0.08886642 0.69700003 4294045680
0.20961714 -0.08886674 0.69700003 4294177009
0.211246 -0.088994563 0.69800001 4294045680
0.21348776 -0.089377351 0.70099998 4293979887
0.21482155 -0.089377597 0.70099998 4293979887
0.21677208 -0.089632854 0.70300001 4293848298
0.099793375 -0.091244452 0.727 4291873493
0.10117322 -0.091245286 0.727 4294636799
0.1025531 -0.091246098 0.727 4294636788
0.10364713 -0.090995923 0.72500002 4294439152
0.10502331 -0.09099675 0.72500002 4294373357
0.10610604 -0.090746582 0.72299999 4294636786
0.10688391 -0.090245344 0.71899998 4294374127
0.10779721 -0.089869648 0.71600002 4294571506
0.10885161 -0.08961945 0.71399999 4294571506
0.11020719 -0.089620322 0.71399999 4294505712
0.11140656 -0.089495659 0.713 4294505712
0.11244407 -0.089245491 0.71100003 4294768885
0.11331396 -0.088869788 0.708 4294637297
0.1144964 -0.088745132 0.70700002 4294637297
0.11583894 -0.088745989 0.70700002 4294899955
0.1166843 -0.088370278 0.704 4294966005
0.11751834 -0.087994576 0.70099998 4294966009
0.11884966 -0.087995455 0.70099998 4294834680
0.12000956 -0.087870792 0.69999999 4294899955
0.12099241 -0.087620609 0.69800001 4294899955
0.12214293 -0.087495945 0.69700003 4294768885
0.12328971 -0.08737129 0.69599998 4294768885
0.12461179 -0.087372169 0.69599998 4294965748
0.12557206 -0.087121993 0.69400001 4294967290
0.12689045 -0.087122858 0.69400001 4294965748
0.12820888 -0.087123752 0.69400001 4294965748
0.12934072 -0.086999081 0.69300002 4294966261
0.13065737 -0.086999968 0.69300002 4294967033
0.13159318 -0.086749777 0.69099998 4294966776
0.13271379 -0.086625114 0.69 4294966261
0.13344218 -0.086249359 0.68699998 4294966263
0.13455147 -0.086124673 0.68599999 4294966521
0.13585505 -0.086125545 0.68599999 4294966521
0.13715871 -0.086126409 0.68599999 4294966521
0.13805875 -0.085876197 0.68400002 4294966521
0.1393587 -0.085877068 0.68400002 4294966521
0.14065868 -0.085877918 0.68400002 4294966521
0.14195873 -0.085878782 0.68400002 4294966263
0.14325884 -0.085879639 0.68400002 4294966263
0.14455897 -0.085880496 0.68400002 4294966263
0.14585915 -0.085881338 0.68400002 4294966263
0.1471594 -0.085882187 0.68400002 4294967035
0.14824265 -0.085757487 0.68300003 4294834678
0.14954107 -0.085758321 0.68300003 4294768885
0.15083955 -0.085759163 0.68300003 4294834678
0.15213805 -0.08575999 0.68300003 4294966778
0.15343663 -0.085760824 0.68300003 4294835193
0.15473524 -0.085761636 0.68300003 4294835193
0.1560339 -0.085762449 0.68300003 4294835193
0.15733258 -0.085763253 0.68300003 4294900987
0.15839906 -0.085638486 0.68199998 4294900989
0.15969595 -0.085639283 0.68199998 4294769146
0.16099288 -0.085640065 0.68199998 4294769400
0.16228981 -0.085640848 0.68199998 4294900987
0.16358683 -0.085641615 0.68199998 4294835193
0.16488387 -0.085642383 0.68199998 4294769400
0.16618095 -0.085643128 0.68199998 4294769146
0.16747808 -0.085643888 0.68199998 4294769146
0.16877523 -0.085644618 0.68199998 4294769146
0.17007238 -0.085645333 0.68199998 4294769146
0.17086704 -0.085394897 0.68000001 4294703607
0.17216052 -0.085395597 0.68000001 4294703607
0.17396416 -0.085647456 0.68199998 4294703353
0.1752615 -0.085648134 0.68199998 4294835195
0.17655881 -0.08564882 0.68199998 4294769400
0.17811701 -0.08577507 0.68300003 4294769400
0.17967899 -0.085901298 0.68400002 4294769398
0.18150939 -0.08615312 0.68599999 4294703605
0.18281452 -0.086153746 0.68599999 4294703353
0.18411957 -0.086154357 0.68599999 4294835195
0.18542467 -0.086154953 0.68599999 4294506231
0.18672982 -0.086155534 0.68599999 4294506231
0.18748677 -0.085904919 0.68400002 4294637560
0.18878818 -0.085905477 0.68400002 4294637560
0.19008957 -0.085906006 0.68400002 4294506231
0.19139095 -0.085906535 0.68400002 4294637560
0.1926924 -0.085907027 0.68400002 4294637299
0.19399384 -0.085907526 0.68400002 4294703092
0.19529527 -0.085907973 0.68400002 4294571254
0.19659676 -0.085908443 0.68400002 4294374131
0.19789822 -0.08590886 0.68400002 4294505460
0.20007336 -0.086286075 0.68699998 4294702840
0.20138058 -0.086286478 0.68699998 4294308849
0.20386791 -0.086789258 0.69099998 4294308849
0.20666739 -0.087417603 0.69599998 4294176757
0.20799173 -0.08741796 0.69599998 4294045428
0.20961682 -0.087543882 0.69700003 4294044655
0.21124569 -0.087669797 0.69800001 4294110705
0.21348746 -0.088046871 0.70099998 4294110703
0.21482131 -0.088047132 0.70099998 4294110703
0.21677186 -0.088298582 0.70300001 4293914091
0.21810947 -0.08829879 0.70300001 4293782505
0.22038352 -0.088675782 0.70599997 4293847785
0.098412812 -0.089865163 0.727 4292271066
0.09979257 -0.089865945 0.727 4293125604
0.1011724 -0.08986675 0.727 4294244086
0.10255227 -0.08986757 0.727 4294439152
0.10364629 -0.089621149 0.72500002 4294373359
0.10473275 -0.089374743 0.72299999 4294439150
0.10595844 -0.089251943 0.722 4294570992
0.10658576 -0.088634685 0.71700001 4294242541
