# .PCD v0.7 - Point Cloud Data file format
VERSION 0.7
FIELDS x y z rgba
SIZE 4 4 4 4
TYPE F F F U
COUNT 1 1 1 1
WIDTH 1049
HEIGHT 1
VIEWPOINT 0 0 0 1 0 0 0
POINTS 1049
DATA ascii
0.039632663 -0.083717473 0.68800002 4291739311
0.040877383 -0.083596103 0.68699998 4291805104
0.04217973 -0.083596438 0.68699998 4291608495
0.046489429 -0.084327623 0.69300002 4291542702
0.047803249 -0.084328011 0.69300002 4291476907
0.049117107 -0.084328413 0.69300002 4291542700
0.050430983 -0.084328823 0.69300002 4291345320
0.051744893 -0.084329247 0.69300002 4291082149
0.053058837 -0.08432968 0.69300002 4291081899
0.054215878 -0.084086739 0.69099998 4291081899
0.055526104 -0.084087215 0.69099998 4291081899
0.056836344 -0.08408767 0.69099998 4291081899
0.058146618 -0.084088162 0.69099998 4291016104
0.059456926 -0.084088646 0.69099998 4291016104
0.060767271 -0.08408916 0.69099998 4290950565
0.062077638 -0.084089667 0.69099998 4291082151
0.06338805 -0.084090188 0.69099998 4291082149
0.064885765 -0.08433412 0.69300002 4291016356
0.066008992 -0.084091283 0.69099998 4291016358
0.067319505 -0.08409182 0.69099998 4290950565
0.068530761 -0.083970703 0.69 4290818213
0.069839455 -0.083971277 0.69 4290818213
0.071457542 -0.084336959 0.69300002 4290818211
0.072772026 -0.08433757 0.69300002 4290884004
0.074086532 -0.084338181 0.69300002 4290621600
0.075509891 -0.084460489 0.69400001 4290423964
0.07704778 -0.084704518 0.69599998 4290424218
0.07836812 -0.084705167 0.69599998 4290424218
0.079688489 -0.084705815 0.69599998 4290227607
0.081590869 -0.085315004 0.70099998 4290096021
0.082920812 -0.085315667 0.70099998 4289898904
0.08425083 -0.08531636 0.70099998 4289833111
0.085947111 -0.085682169 0.704 4289636504
0.087282889 -0.085682869 0.704 4289570454
0.088618703 -0.085683577 0.704 4289636250
0.089954592 -0.085684307 0.704 4289702043
0.091290519 -0.08568503 0.704 4289833113
0.093021214 -0.086050905 0.70700002 4289833113
0.094362922 -0.08605165 0.70700002 4289833111
0.095704675 -0.08605241 0.70700002 4289833111
0.013866933 -0.084326342 0.704 4292069046
0.015201178 -0.084326394 0.704 4292069046
0.016535429 -0.084326461 0.704 4292069048
0.017869687 -0.084326535 0.704 4292069048
0.019203952 -0.084326632 0.704 4292003514
0.020538224 -0.084326737 0.704 4291937721
0.021779304 -0.083967507 0.70099998 4291806651
0.023107914 -0.083967648 0.70099998 4291872700
0.024436535 -0.083967797 0.70099998 4291806392
0.02572841 -0.083848178 0.69999999 4291806392
0.027055163 -0.08384835 0.69999999 4291871413
0.028381931 -0.083848543 0.69999999 4291937206
0.029623831 -0.083609194 0.69800001 4291805621
0.030946838 -0.083609402 0.69800001 4291739572
0.032269862 -0.083609633 0.69800001 4291805106
0.03340039 -0.083130725 0.69400001 4291805106
0.034715865 -0.083130978 0.69400001 4291739313
0.035979446 -0.083011463 0.69300002 4291739313
0.037293069 -0.083011746 0.69300002 4291542963
0.038606707 -0.083012037 0.69300002 4291477170
0.039920378 -0.08301235 0.69300002 4291541932
0.041234057 -0.083012648 0.69300002 4291607725
0.042547774 -0.083012991 0.69300002 4291411116
0.043861508 -0.083013326 0.69300002 4291345066
0.046489052 -0.083014049 0.69300002 4291345066
0.047802869 -0.083014436 0.69300002 4291280044
0.049187586 -0.083134614 0.69400001 4291148457
0.050503347 -0.083135009 0.69400001 4290951078
0.051744469 -0.083015628 0.69300002 4290951078
0.053058393 -0.083016068 0.69300002 4291016619
0.054215431 -0.082776912 0.69099998 4291016619
0.055525642 -0.082777366 0.69099998 4291082153
0.056835864 -0.082777821 0.69099998 4291016104
0.058314424 -0.083017886 0.69300002 4291016358
0.05962852 -0.083018385 0.69300002 4291016358
0.060942642 -0.083018877 0.69300002 4290950565
0.062256798 -0.083019368 0.69300002 4290950565
0.063570984 -0.083019882 0.69300002 4290950563
0.064885221 -0.083020419 0.69300002 4291016356
0.066199496 -0.083020963 0.69300002 4291016358
0.067513801 -0.083021507 0.69300002 4290687393
0.068828151 -0.083022073 0.69300002 4290686623
0.070243746 -0.08314243 0.69400001 4290752416
0.071456946 -0.083023205 0.69300002 4290752416
0.072771423 -0.083023809 0.69300002 4290489500
0.074085928 -0.083024405 0.69300002 4290488476
0.075726867 -0.083384424 0.69599998 4290225561
0.077047147 -0.083385035 0.69599998 4290225561
0.078367472 -0.083385661 0.69599998 4290225561
0.079687841 -0.083386309 0.69599998 4289898391
0.081008255 -0.083386958 0.69599998 4289898391
0.083156742 -0.084226288 0.70300001 4289833113
0.084490515 -0.084226966 0.70300001 4289767320
0.086190581 -0.084587075 0.70599997 4289373845
0.087530144 -0.084587753 0.70599997 4289373845
0.08886975 -0.084588453 0.70599997 4289438870
0.090209432 -0.084589168 0.70599997 4289570456
0.091678828 -0.084709696 0.70700002 4289767066
0.093415171 -0.085069872 0.70999998 4289635736
0.094762556 -0.085070603 0.70999998 4289570454
0.01520112 -0.082992107 0.704 4292003001
0.016535355 -0.082992166 0.704 4291937723
0.017869599 -0.082992248 0.704 4291937723
0.019203851 -0.082992338 0.704 4291740347
0.020538112 -0.082992442 0.704 4291674553
0.021841314 -0.082874671 0.70300001 4291740345
0.023173699 -0.082874805 0.70300001 4291740345
0.024436381 -0.082639188 0.70099998 4291674551
0.025764998 -0.082639337 0.70099998 4291674551
0.027054986 -0.082521625 0.69999999 4291805621
0.028381739 -0.082521811 0.69999999 4291805621
0.029623624 -0.082286231 0.69800001 4291739826
0.030946616 -0.082286447 0.69800001 4291739826
0.032269623 -0.082286671 0.69800001 4291805104
0.033544529 -0.082169019 0.69700003 4291739311
0.034715608 -0.081815593 0.69400001 4291542450
0.036031093 -0.081815861 0.69400001 4291542450
0.037346598 -0.081816137 0.69400001 4291476657
0.039977673 -0.081816718 0.69400001 4291344816
0.0452401 -0.081818037 0.69400001 4291082666
0.046555769 -0.081818409 0.69400001 4291082666
0.047871459 -0.081818774 0.69400001 4291016617
0.049187187 -0.081819154 0.69400001 4290950824
0.050502937 -0.081819557 0.69400001 4290950824
0.052117389 -0.082291551 0.69800001 4290819495
0.053440783 -0.082291968 0.69800001 4290819495
0.054764219 -0.082292408 0.69800001 4290819495
0.055766255 -0.081821255 0.69400001 4290819493
0.057082161 -0.081821702 0.69400001 4290819493
0.058398101 -0.081822179 0.69400001 4290951076
0.059628028 -0.081704751 0.69300002 4290951076
0.060942147 -0.081705235 0.69300002 4290884004
0.062346123 -0.081823625 0.69400001 4290752418
0.063662209 -0.081824146 0.69400001 4290687395
0.064978324 -0.08182466 0.69400001 4290884517
0.066294484 -0.081825182 0.69400001 4290884256
0.067610681 -0.081825726 0.69400001 4290620828
0.069125541 -0.082062081 0.69599998 4290686623
0.070546813 -0.082180545 0.69700003 4290752416
0.071559481 -0.081827402 0.69400001 4290686875
0.072875828 -0.081827976 0.69400001 4290292117
0.074192226 -0.081828564 0.69400001 4290225820
0.076814279 -0.08324407 0.70599997 4290160027
0.078153521 -0.083244689 0.70599997 4289897370
0.079492815 -0.083245322 0.70599997 4289897370
0.081061117 -0.083481774 0.708 4289766552
0.082404293 -0.083482429 0.708 4289766552
0.083747506 -0.083483078 0.708 4289635988
0.084850393 -0.083247915 0.70599997 4289570195
0.086189903 -0.083248578 0.70599997 4289570454
0.087653443 -0.083367184 0.70700002 4289636504
0.088994943 -0.083367869 0.70700002 4289438870
0.090336494 -0.083368562 0.70700002 4289504663
0.09180776 -0.083487175 0.708 4289569943
0.093546025 -0.083841659 0.71100003 4289569943
0.094895318 -0.083842382 0.71100003 4289504411
0.012639442 -0.082353719 0.70999998 4291806138
0.013985025 -0.082353756 0.70999998 4291937719
0.015287431 -0.082121834 0.708 4291937719
0.016605748 -0.082005896 0.70700002 4291806392
0.017945664 -0.082005978 0.70700002 4291740599
0.019285589 -0.082006067 0.70700002 4291674549
0.020538 -0.081658185 0.704 4291740599
0.02187226 -0.081658304 0.704 4291674551
0.023173565 -0.081542455 0.70300001 4291542965
0.024505949 -0.081542596 0.70300001 4291608497
0.025764836 -0.081310764 0.70099998 4291608497
0.027093457 -0.081310928 0.70099998 4291609010
0.028381547 -0.081195123 0.69999999 4291477168
0.029708304 -0.081195317 0.69999999 4291542704
0.030946398 -0.08096353 0.69800001 4291542704
0.0322694 -0.080963768 0.69800001 4291542704
0.03359241 -0.080963992 0.69800001 4291542704
0.034815397 -0.080732234 0.69599998 4291541678
0.036134664 -0.080732502 0.69599998 4291410348
0.037453946 -0.080732778 0.69599998 4291345066
0.038773254 -0.080733061 0.69599998 4291345066
0.045826431 -0.081546627 0.70300001 4291016617
0.046823733 -0.080966987 0.69800001 4290950824
0.048147008 -0.080967374 0.69800001 4290951078
0.049470294 -0.080967739 0.69800001 4290951078
0.050793625 -0.080968134 0.69800001 4290819495
0.052116975 -0.080968536 0.69800001 4290819495
0.053440362 -0.080968954 0.69800001 4290753701
0.054763772 -0.080969371 0.69800001 4290753701
0.056087233 -0.080969818 0.69800001 4290884515
0.057246212 -0.080738254 0.69599998 4290884515
0.058565926 -0.080738708 0.69599998 4290884515
0.059713598 -0.080507159 0.69400001 4290818722
0.061029602 -0.080507651 0.69400001 4290687393
0.062345631 -0.080508135 0.69400001 4290621600
0.063661695 -0.080508627 0.69400001 4290621602
0.064977802 -0.080509134 0.69400001 4290687395
0.06648501 -0.080741666 0.69599998 4290622113
0.067804977 -0.080742203 0.69599998 4290358942
0.069522269 -0.081206784 0.69999999 4290489246
0.070849903 -0.081207328 0.69999999 4290489246
0.072177581 -0.081207886 0.69999999 4290226842
0.073505312 -0.081208467 0.69999999 4290226842
0.074833073 -0.081209049 0.69999999 4290029724
0.076813675 -0.081905708 0.70599997 4289898395
0.078152902 -0.081906319 0.70599997 4289766552
0.079492182 -0.081906937 0.70599997 4289700759
0.081060484 -0.082139589 0.708 4289569941
0.082403652 -0.08214023 0.708 4289635990
0.083746865 -0.082140878 0.708 4289504915
0.084969923 -0.082025506 0.70700002 4289504915
0.086311325 -0.082026161 0.70700002 4289570454
0.087652765 -0.082026824 0.70700002 4289570454
0.088994257 -0.082027495 0.70700002 4289438870
0.091102451 -0.082724325 0.713 4289504663
0.092455417 -0.082725011 0.713 4289569691
0.093808442 -0.082725711 0.713 4289438105
0.09516152 -0.082726412 0.713 4289438868
0.097732924 -0.083771378 0.722 4290096798
0.012639413 -0.081008129 0.70999998 4291674551
0.013984982 -0.081008166 0.70999998 4291674803
0.015287375 -0.080780029 0.708 4291740597
0.016629163 -0.080780081 0.708 4291871413
0.017970962 -0.080780163 0.708 4291608497
0.019312771 -0.080780268 0.708 4291609010
0.020596238 -0.080552168 0.70599997 4291740597
0.021872137 -0.080324091 0.704 4291609010
0.023206396 -0.080324218 0.704 4291477168
0.024540661 -0.080324359 0.704 4291477170
0.025838183 -0.080210403 0.70300001 4291542963
0.027093286 -0.079982378 0.70099998 4291345587
0.028421907 -0.079982564 0.70099998 4291279794
0.029708102 -0.079868652 0.69999999 4291476655
0.031034859 -0.079868853 0.69999999 4291476655
0.032361634 -0.079869069 0.69999999 4291476909
0.033592179 -0.079641111 0.69800001 4291411116
0.034915198 -0.079641342 0.69800001 4291345066
0.036186323 -0.079527497 0.69700003 4291279273
0.037507482 -0.079527758 0.69700003 4291345066
0.040322695 -0.079870626 0.69999999 4291279527
0.041649617 -0.079870932 0.69999999 4291147942
0.042976558 -0.079871245 0.69999999 4291016871
0.044493403 -0.080213882 0.70300001 4290951078
0.045826085 -0.080214217 0.70300001 4290819495
0.047225866 -0.080328658 0.704 4290753701
0.048284583 -0.079872616 0.69999999 4290884515
0.049611662 -0.079872981 0.69999999 4290884515
0.050938763 -0.079873376 0.69999999 4290818724
0.052116569 -0.079645552 0.69800001 4290687395
0.053439952 -0.079645969 0.69800001 4290884769
0.054920264 -0.07987459 0.69999999 4290884769
0.05608679 -0.079646803 0.69800001 4290818976
0.057245757 -0.079419024 0.69599998 4290687391
0.058565468 -0.079419471 0.69599998 4290687393
0.059885204 -0.079419918 0.69599998 4290621600
0.061204989 -0.079420395 0.69599998 4290489760
0.06252481 -0.079420879 0.69599998 4290423966
0.063844658 -0.079421364 0.69599998 4290423966
0.06525819 -0.079535991 0.69700003 4290423966
0.066675521 -0.079650588 0.69800001 4290226590
0.067999288 -0.079651125 0.69800001 4290160797
0.069521725 -0.07987988 0.69999999 4290226590
0.070849352 -0.079880424 0.69999999 4290226590
0.072177023 -0.079880975 0.69999999 4290227096
0.073504739 -0.079881534 0.69999999 4290029461
0.074832484 -0.0798821 0.69999999 4290029463
0.076813087 -0.08056739 0.70599997 4289963413
0.078152306 -0.080567978 0.70599997 4289570195
0.079491571 -0.080568582 0.70599997 4289504402
0.081059873 -0.080797434 0.708 4289438866
0.082403012 -0.080798052 0.708 4289438866
0.08374621 -0.080798678 0.708 4289569423
0.085329816 -0.08102756 0.70999998 4289635216
0.086432748 -0.080799975 0.708 4289504148
0.08777608 -0.080800615 0.708 4289504148
0.09025234 -0.081828415 0.71700001 4289438105
0.091229536 -0.081486702 0.71399999 4289372312
0.092584394 -0.081487387 0.71399999 4289043862
0.094728731 -0.082172848 0.72000003 4288320140
0.096095085 -0.082173556 0.72000003 4289304218
0.097732194 -0.08240252 0.722 4292725454
0.099788748 -0.082973897 0.727 4290626206
0.10130773 -0.083088756 0.72799999 4278717952
0.012657185 -0.07977479 0.71100003 4291608758
0.014004637 -0.079774827 0.71100003 4291609269
0.015352097 -0.079774879 0.71100003 4291675063
0.016629096 -0.079438336 0.708 4291937721
0.01797088 -0.079438411 0.708 4291542963
0.019367231 -0.079662889 0.70999998 4291477170
0.020625306 -0.079326399 0.70700002 4291542963
0.021934157 -0.079214297 0.70599997 4291477168
0.023272185 -0.079214416 0.70599997 4291477168
0.024540514 -0.078990154 0.704 4291346352
0.02587478 -0.07899031 0.704 4291346352
0.027170416 -0.078878269 0.70300001 4291148459
0.028421724 -0.078654043 0.70099998 4291345839
0.029750349 -0.078654215 0.70099998 4291280559
0.031078985 -0.078654423 0.70099998 4291214766
0.032361414 -0.078542426 0.69999999 4291411116
0.033688195 -0.07854265 0.69999999 4291411116
0.035014994 -0.078542896 0.69999999 4291214250
0.036186069 -0.078206539 0.69700003 4291148457
0.037507214 -0.078206785 0.69700003 4291082151
0.038828395 -0.078207061 0.69700003 4291082151
0.040322404 -0.078543954 0.69999999 4291082151
0.041649308 -0.078544252 0.69999999 4291082151
0.042976238 -0.07854455 0.69999999 4291082153
0.044493068 -0.078881495 0.70300001 4291016104
0.045825738 -0.07888183 0.70300001 4290884517
0.04722552 -0.078994386 0.704 4290884517
0.048560139 -0.078994744 0.704 4290884515
0.049682159 -0.078658476 0.70099998 4290884515
0.051011153 -0.078658849 0.70099998 4290687395
0.052340169 -0.078659236 0.70099998 4290621602
0.053669222 -0.078659639 0.70099998 4290621600
0.054919839 -0.078547835 0.69999999 4290621600
0.056247067 -0.078548253 0.69999999 4290490273
0.057574317 -0.078548685 0.69999999 4290490273
0.058901593 -0.078549117 0.69999999 4290555807
0.060228921 -0.078549571 0.69999999 4290490014
0.06129247 -0.078213394 0.69700003 4290293148
0.062614165 -0.078213863 0.69700003 4290293148
0.063935913 -0.078214347 0.69700003 4290227357
0.065351315 -0.078327045 0.69800001 4290095515
0.066675015 -0.078327544 0.69800001 4290226844
0.0681936 -0.078552492 0.69999999 4290161051
0.069819137 -0.078889661 0.70300001 4290095517
0.071152449 -0.078890212 0.70300001 4289832346
0.072485805 -0.078890748 0.70300001 4289897622
0.073924199 -0.07900352 0.704 4289897622
0.075259529 -0.079004072 0.704 4289766806
0.076812498 -0.079229079 0.70599997 4289701013
0.078262426 -0.079341896 0.70700002 4289438866
0.079716168 -0.079454705 0.708 4289438866
0.081059262 -0.079455309 0.708 4289308050
0.082402401 -0.079455912 0.708 4289308050
0.083745584 -0.079456523 0.708 4289438607
0.084968641 -0.079344928 0.70700002 4289504400
0.086310022 -0.079345562 0.70700002 4289504148
0.087651454 -0.079346195 0.70700002 4289438355
0.090251669 -0.080469139 0.71700001 4289240460
0.091612175 -0.080469795 0.71700001 4289174667
0.093232073 -0.080694936 0.71899998 4288714384
0.09472803 -0.080807857 0.72000003 4289043349
0.096094392 -0.080808543 0.72000003 4290816678
0.097731501 -0.081033692 0.722 4293711570
0.099788047 -0.081595577 0.727 4291679460
0.10130699 -0.081708528 0.72799999 4278190353
0.016676005 -0.078317225 0.70999998 4291477942
0.018021565 -0.078317285 0.70999998 4291346100
0.01936714 -0.078317389 0.70999998 4291477172
0.020625202 -0.077986576 0.70700002 4291477172
0.021934038 -0.077876367 0.70599997 4291346352
0.023272058 -0.077876493 0.70599997 4291280559
0.024610089 -0.077876627 0.70599997 4291477422
0.025948133 -0.077876769 0.70599997 4291477422
0.027208893 -0.077656314 0.704 4291214252
0.028502636 -0.077546187 0.70300001 4291345839
0.029750155 -0.077325739 0.70099998 4291411114
0.031078782 -0.077325933 0.70099998 4291345320
0.032361198 -0.077215835 0.69999999 4291345066
0.033687972 -0.077216059 0.69999999 4291279273
0.03501476 -0.07721629 0.69999999 4291279527
0.036237735 -0.076995909 0.69800001 4291279527
0.037560768 -0.076996163 0.69800001 4291147944
0.038883824 -0.076996423 0.69800001 4291082151
0.040322118 -0.077217333 0.69999999 4290950313
0.041649014 -0.077217609 0.69999999 4290950313
0.042975929 -0.077217907 0.69999999 4290818472
0.044492751 -0.077549167 0.70300001 4290818472
0.045825407 -0.077549487 0.70300001 4290884517
0.04722517 -0.077660128 0.704 4290818724
0.048559781 -0.077660486 0.704 4290884002
0.049681794 -0.077329896 0.70099998 4290884002
0.051010769 -0.077330261 0.70099998 4290621348
0.052339777 -0.077330641 0.70099998 4290555555
0.053668827 -0.077331036 0.70099998 4290621602
0.054997887 -0.077331424 0.70099998 4290555553
0.056326989 -0.077331841 0.70099998 4290358944
0.057656139 -0.077332266 0.70099998 4290358944
0.058985304 -0.077332698 0.70099998 4290293150
0.06031451 -0.07733313 0.70099998 4290293150
0.06155581 -0.077223271 0.69999999 4290423964
0.062883206 -0.077223733 0.69999999 4290423964
0.064210609 -0.077224202 0.69999999 4290358425
0.065631695 -0.077335007 0.70099998 4290161047
0.067152128 -0.077556148 0.70300001 4290095769
0.068582773 -0.077666968 0.704 4290029976
0.069917932 -0.077667482 0.704 4289898393
0.071253136 -0.077668004 0.704 4289634964
0.072588362 -0.077668525 0.704 4289634966
0.073923655 -0.077669077 0.704 4289634966
0.075472772 -0.077890277 0.70599997 4289438355
0.07692074 -0.078001156 0.70700002 4289438355
0.078261837 -0.07800173 0.70700002 4289307789
0.079940759 -0.078333288 0.70999998 4289439118
0.081058666 -0.078113221 0.708 4289307791
0.08240179 -0.078113802 0.708 4289307791
0.083981536 -0.078335062 0.70999998 4289635218
0.084968016 -0.078004688 0.70700002 4289569425
0.086309411 -0.078005314 0.70700002 4289372310
0.087650821 -0.078005932 0.70700002 4289109394
0.090880379 -0.079661585 0.722 4288780413
0.092250377 -0.079662226 0.722 4289438344
0.093620412 -0.079662889 0.722 4290294447
0.094990492 -0.079663567 0.722 4293912806
0.096494086 -0.079774566 0.72299999 4294965755
0.098136894 -0.079995923 0.72500002 4294967295
0.099512823 -0.079996623 0.72500002 4294967295
0.016699428 -0.077080168 0.71100003 4291280307
0.018046875 -0.077080242 0.71100003 4291346100
0.019394329 -0.077080317 0.71100003 4291346354
0.020654269 -0.076755181 0.708 4291280561
0.021964993 -0.076646879 0.70700002 4291346354
0.023304895 -0.076646999 0.70700002 4291280561
0.024609949 -0.076538712 0.70599997 4291280557
0.025947984 -0.076538853 0.70599997 4291346606
0.027286027 -0.076539002 0.70599997 4291214764
0.028543005 -0.076322347 0.704 4291148970
0.029877288 -0.076322541 0.704 4291082149
0.03121159 -0.076322719 0.704 4291147942
0.032545913 -0.076322936 0.704 4291344553
0.033687748 -0.075889491 0.69999999 4291278760
0.035014521 -0.075889707 0.69999999 4291212967
0.036341321 -0.075889938 0.69999999 4291212967
0.037668135 -0.075890198 0.69999999 4291082151
0.038994975 -0.075890459 0.69999999 4291016358
0.040321838 -0.075890727 0.69999999 4290950565
0.041648723 -0.07589101 0.69999999 4290950565
0.042975627 -0.075891294 0.69999999 4290884517
0.044492431 -0.076216854 0.70300001 4290818724
0.045825079 -0.076217175 0.70300001 4290818722
0.047224835 -0.076325916 0.704 4290621600
0.048559435 -0.076326266 0.704 4290752418
0.049823184 -0.076218188 0.70300001 4290752418
0.051010411 -0.076001719 0.70099998 4290489762
0.052339397 -0.076002076 0.70099998 4290489762
0.053821549 -0.076219298 0.70300001 4290489760
0.055154406 -0.076219693 0.70300001 4290489760
0.0564873 -0.076220103 0.70300001 4290292897
0.057902463 -0.076328926 0.704 4290292897
0.059237309 -0.076329358 0.704 4290227357
0.060744274 -0.076546632 0.70599997 4290095515
0.06208298 -0.076547086 0.70599997 4290161051
0.063511565 -0.076655962 0.70700002 4290095002
0.064760514 -0.076547995 0.70599997 4290029722
0.065818474 -0.076223202 0.70300001 4289898393
0.067151643 -0.076223679 0.70300001 4289766552
0.068582274 -0.076332599 0.704 4289766552
0.069917426 -0.076333098 0.704 4289766806
0.071252607 -0.076333605 0.704 4289634964
0.07279405 -0.076550975 0.70599997 4289438357
0.07413312 -0.076551512 0.70599997 4289438357
0.075472228 -0.076552041 0.70599997 4289438355
0.077028975 -0.076769456 0.708 4289504148
0.078371964 -0.076770008 0.708 4289504400
0.079940178 -0.076987438 0.70999998 4289504400
0.081287056 -0.076988019 0.70999998 4289438866
0.082633972 -0.0769886 0.70999998 4289438866
0.083980948 -0.076989196 0.70999998 4289701011
0.084967427 -0.076664485 0.70700002 4289569425
0.086308792 -0.076665089 0.70700002 4289174154
0.087650195 -0.076665685 0.70700002 4289108361
0.091886729 -0.079160407 0.73000002 4288911496
0.092377499 -0.078401968 0.72299999 4290029976
0.093749419 -0.078402609 0.72299999 4292265165
0.095121391 -0.078403272 0.72299999 4294965247
0.09676034 -0.078620806 0.72500002 4294967295
0.098136231 -0.078621484 0.72500002 4294967295
0.018046798 -0.075732902 0.71100003 4291215284
0.019394239 -0.075732984 0.71100003 4291280561
0.020712515 -0.075626552 0.70999998 4291280561
0.021964882 -0.075307108 0.70700002 4291149741
0.02330477 -0.07530722 0.70700002 4291083948
0.024644673 -0.075307347 0.70700002 4291346093
0.025947832 -0.075200967 0.70599997 4291543215
0.027285872 -0.075201124 0.70599997 4291345320
0.028542832 -0.074988253 0.704 4291147942
0.029877108 -0.074988432 0.704 4291147426
0.031300064 -0.075201653 0.70599997 4291213219
0.032684397 -0.075308383 0.70700002 4291212967
0.034024402 -0.075308584 0.70700002 4291212967
0.035514504 -0.075628363 0.70999998 4291082149
0.036860235 -0.075628586 0.70999998 4291016356
0.038205996 -0.075628839 0.70999998 4291016610
0.038994711 -0.074563891 0.69999999 4290950561
0.040321562 -0.074564159 0.69999999 4290884769
0.04164844 -0.074564442 0.69999999 4290884769
0.043220907 -0.074990809 0.704 4290884769
0.044555411 -0.074991114 0.704 4290818976
0.046020314 -0.075204454 0.70599997 4290818976
0.047425743 -0.075311303 0.70700002 4290621598
0.048766017 -0.075311638 0.70700002 4290555553
0.050035447 -0.075205453 0.70599997 4290555553
0.051228348 -0.074992761 0.704 4290489760
0.05256303 -0.074993134 0.704 4290358173
0.054050848 -0.075206555 0.70599997 4290227103
0.055389374 -0.075206935 0.70599997 4290227103
0.056727942 -0.075207315 0.70599997 4290161310
0.058066547 -0.075207733 0.70599997 4290161310
0.05940517 -0.07520815 0.70599997 4290095517
0.060743835 -0.075208567 0.70599997 4290029724
0.062258415 -0.075422063 0.708 4289898141
0.063600935 -0.075422503 0.708 4289898141
0.064943507 -0.075422965 0.708 4289832346
0.066286117 -0.075423434 0.708 4289832346
0.067628756 -0.075423896 0.708 4289635736
0.068971448 -0.075424388 0.708 4289569943
0.070214868 -0.075318344 0.70700002 4289569945
0.071555726 -0.075318851 0.70700002 4289569945
0.072896652 -0.075319357 0.70700002 4289438870
0.0742376 -0.075319871 0.70700002 4289307285
0.075578593 -0.075320393 0.70700002 4289438870
0.077028424 -0.075427465 0.708 4289504663
0.078371413 -0.075428009 0.708 4289504148
0.080052219 -0.075748183 0.71100003 4289504148
0.081400968 -0.075748734 0.71100003 4289438357
0.082749791 -0.075749308 0.71100003 4289306515
0.0843352 -0.075962961 0.713 4289174415
0.085687898 -0.075963549 0.713 4288845450
0.089238025 -0.077881888 0.73100001 4288648071
0.090624973 -0.077882513 0.73100001 4291213998
0.091886073 -0.077776581 0.73000002 4292860358
0.092632405 -0.07724449 0.72500002 4294967277
0.09400811 -0.077245131 0.72500002 4294967295
0.095383875 -0.077245764 0.72500002 4294967295
0.096759699 -0.07724642 0.72500002 4294967295
0.098135561 -0.077247061 0.72500002 4294901502
0.01953054 -0.074908778 0.71600002 4291149491
0.020887453 -0.074908867 0.71600002 4291149491
0.022057971 -0.074281238 0.70999998 4291149491
0.023403538 -0.074281357 0.70999998 4291083698
0.024679398 -0.074072242 0.708 4291214250
0.026021197 -0.074072368 0.708 4291214250
0.027324367 -0.073967896 0.70700002 4291279273
0.028623754 -0.073863432 0.70599997 4291279273
0.029961808 -0.073863611 0.70599997 4291147942
0.031344213 -0.073968418 0.70700002 4291147942
0.032684192 -0.073968612 0.70700002 4291082151
0.034168568 -0.074282683 0.70999998 4291082151
0.035514273 -0.074282892 0.70999998 4291082151
0.036860004 -0.074283123 0.70999998 4291016358
0.03820575 -0.074283369 0.70999998 4290819745
0.039551526 -0.074283615 0.70999998 4290819745
0.040897314 -0.074283883 0.70999998 4290884769
0.042124137 -0.074074894 0.708 4290818976
0.043466188 -0.074075185 0.708 4290818722
0.044744976 -0.073970847 0.70700002 4290818722
0.046085183 -0.073971145 0.70700002 4290621600
0.047425423 -0.073971465 0.70700002 4290490014
0.048765685 -0.073971793 0.70700002 4290489762
0.050105974 -0.073972128 0.70700002 4290555555
0.051373534 -0.07386785 0.70599997 4290293150
0.052711979 -0.0738682 0.70599997 4290293150
0.054050468 -0.073868565 0.70599997 4290096539
0.055388987 -0.073868938 0.70599997 4290096539
0.056727555 -0.073869333 0.70599997 4290161310
0.058148384 -0.073974356 0.70700002 4290095517
0.0594889 -0.073974766 0.70700002 4290095004
0.060829453 -0.073975168 0.70700002 4290160797
0.062257975 -0.074080221 0.708 4289898141
0.063600495 -0.074080668 0.708 4289832348
0.065126501 -0.074290372 0.70999998 4289635738
0.066472895 -0.074290834 0.70999998 4289767068
0.067819335 -0.074291289 0.70999998 4289570454
0.069165803 -0.074291766 0.70999998 4289504661
0.070313692 -0.074082986 0.708 4289569945
0.071656451 -0.07408347 0.708 4289569945
0.072999246 -0.074083962 0.708 4289504663
0.074552082 -0.074293733 0.70999998 4289307285
0.076219462 -0.074608177 0.713 4289504663
0.077027902 -0.074085504 0.708 4289504663
0.078370869 -0.074086033 0.708 4289635218
0.080051661 -0.074400499 0.71100003 4289569425
0.081400417 -0.074401043 0.71100003 4289305994
0.082749218 -0.07440161 0.71100003 4289239945
0.086345427 -0.076390415 0.73000002 4288714634
0.087730356 -0.076390989 0.73000002 4289043599
0.089115351 -0.076391593 0.73000002 4289439136
0.090500385 -0.076392181 0.73000002 4291807685
0.091885477 -0.0763928 0.73000002 4294043113
0.09263178 -0.075870164 0.72500002 4294967295
0.094007485 -0.07587079 0.72500002 4294967295
0.095383249 -0.075871401 0.72500002 4294967295
0.019530457 -0.073552027 0.71600002 4291017137
0.020887358 -0.073552117 0.71600002 4291148467
0.024783848 -0.073038824 0.71100003 4291017391
0.026094565 -0.072936229 0.70999998 4291017391
0.027440155 -0.072936364 0.70999998 4291148459
0.031521358 -0.073039599 0.71100003 4291082664
0.032868911 -0.073039785 0.71100003 4291082664
0.034168359 -0.072937258 0.70999998 4290819493
0.035514053 -0.072937466 0.70999998 4290819495
0.036859769 -0.07293769 0.70999998 4290819495
0.03825932 -0.073040664 0.71100003 4290884508
0.039551262 -0.072938159 0.70999998 4290884508
0.040897049 -0.072938427 0.70999998 4290818722
0.042242855 -0.072938681 0.70999998 4290818722
0.043465905 -0.072733507 0.708 4290621602
0.044744682 -0.072631061 0.70700002 4290621602
0.046084881 -0.072631352 0.70700002 4290620578
0.047425102 -0.072631657 0.70700002 4290489249
0.048834331 -0.072734706 0.708 4290423969
0.050176512 -0.072735041 0.708 4290423969
0.051373184 -0.072529897 0.70599997 4290293150
0.052711628 -0.072530255 0.70599997 4290227357
0.05405011 -0.072530612 0.70599997 4290161814
0.055388618 -0.072530977 0.70599997 4290161814
0.056727163 -0.07253135 0.70599997 4290030492
0.058230225 -0.072737209 0.708 4289898906
0.059572641 -0.072737612 0.708 4289898141
0.061173189 -0.07304623 0.71100003 4289898141
0.062521361 -0.073046647 0.71100003 4289832350
0.063869558 -0.073047072 0.71100003 4289766556
0.065217793 -0.073047504 0.71100003 4289635738
0.06656608 -0.073047951 0.71100003 4289569945
0.067914389 -0.073048398 0.71100003 4289504400
0.069262743 -0.073048852 0.71100003 4289438607
0.070611149 -0.073049329 0.71100003 4289634966
0.071959592 -0.073049806 0.71100003 4289634966
0.073308066 -0.073050298 0.71100003 4289503898
0.074971594 -0.07335902 0.71399999 4289438105
0.076325856 -0.073359527 0.71399999 4289503898
0.07789775 -0.073565535 0.71600002 4289569691
0.079255894 -0.073566057 0.71600002 4289306255
0.08061406 -0.073566578 0.71600002 4288911498
0.083575115 -0.075005583 0.73000002 4288779396
0.084959939 -0.075006142 0.73000002 4290029463
0.086344838 -0.075006701 0.73000002 4291148972
0.087729774 -0.075007275 0.73000002 4293714900
0.089114755 -0.075007856 0.73000002 4294966259
0.090499796 -0.075008444 0.73000002 4294967295
0.034168158 -0.071591876 0.70999998 4290885801
0.035513841 -0.071592085 0.70999998 4290688167
0.036911462 -0.07169313 0.71100003 4290753961
0.038259085 -0.071693353 0.71100003 4290884769
0.039606724 -0.071693599 0.71100003 4290884769
0.0409544 -0.071693853 0.71100003 4290884515
0.042242587 -0.07159327 0.70999998 4290818722
0.043465622 -0.071391858 0.708 4290489760
0.04480768 -0.071392134 0.708 4290555553
0.046149764 -0.071392424 0.708 4290620576
0.047491878 -0.07139273 0.708 4290620576
0.048834018 -0.071393043 0.708 4290490275
0.050176185 -0.071393363 0.708 4290358946
0.051518373 -0.071393691 0.708 4290227870
0.052860603 -0.071394026 0.708 4290030492
0.054432541 -0.071696892 0.71100003 4289964953
0.055780523 -0.071697257 0.71100003 4289964953
0.057128537 -0.071697623 0.71100003 4289964701
0.058394335 -0.071597159 0.70999998 4289832859
0.059740528 -0.071597546 0.70999998 4289832346
0.061344862 -0.071900472 0.713 4289898395
0.06296061 -0.072203405 0.71600002 4289767068
0.064138614 -0.072002135 0.71399999 4289569945
0.065492541 -0.07200256 0.71399999 4289438870
0.066846497 -0.072002992 0.71399999 4289570456
0.068104975 -0.071902595 0.713 4289766804
0.069457114 -0.071903035 0.713 4289635218
0.070809305 -0.071903504 0.713 4289634705
0.071959123 -0.071702279 0.71100003 4289700498
0.073307581 -0.071702741 0.71100003 4289634451
0.07497111 -0.072005779 0.71399999 4289568658
0.07632535 -0.072006263 0.71399999 4289438094
0.077897243 -0.072208472 0.71600002 4289306507
0.079255365 -0.072208971 0.71600002 4289108359
0.034216084 -0.070345454 0.71100003 4291082666
0.035563651 -0.070345655 0.71100003 4290819245
0.037015073 -0.070543744 0.713 4290819245
0.03836647 -0.070543967 0.713 4290819495
0.039717898 -0.070544206 0.713 4290819495
0.041069351 -0.070544444 0.713 4290753701
0.042301826 -0.07034681 0.71100003 4290753701
0.043588139 -0.070248134 0.70999998 4290687908
0.044933975 -0.070248403 0.70999998 4290556066
0.046279844 -0.070248686 0.70999998 4290556066
0.047625728 -0.070248976 0.70999998 4290490273
0.04904063 -0.070348226 0.71100003 4290358946
0.0503176 -0.070249595 0.70999998 4290292897
0.051663578 -0.070249908 0.70999998 4290227103
0.053009585 -0.070250235 0.70999998 4290227103
0.055121209 -0.07124003 0.72000003 4290161310
0.056486245 -0.071240388 0.72000003 4290095517
0.057128176 -0.070350245 0.71100003 4289832863
0.058393963 -0.070251659 0.70999998 4289832863
0.059740134 -0.070252024 0.70999998 4289635988
0.061344463 -0.070549257 0.713 4289767317
0.062960207 -0.070846505 0.71600002 4289767068
0.06431786 -0.070846908 0.71600002 4289635738
0.065492108 -0.070649415 0.71399999 4289766554
0.066846065 -0.070649847 0.71399999 4289766554
0.0683911 -0.070848182 0.71600002 4289766554
0.069554076 -0.070650704 0.71399999 4289700761
0.070908159 -0.070651159 0.71399999 4289635218
0.072262265 -0.070651613 0.71399999 4289569425
0.073616415 -0.070652075 0.71399999 4289372047
0.075180627 -0.070850462 0.71600002 4289306253
0.07653866 -0.070850946 0.71600002 4289304970
0.077896744 -0.07085143 0.71600002 4290423451
0.079254866 -0.070851922 0.71600002 4291477420
0.036113657 -0.070065923 0.722 4290950826
0.037482083 -0.070066124 0.722 4290950826
0.038527679 -0.069484077 0.71600002 4290950574
0.039773367 -0.069290206 0.71399999 4290950574
0.041126698 -0.069290437 0.71399999 4290819495
0.042420562 -0.069193646 0.713 4290819495
0.043772053 -0.069193907 0.713 4290754215
0.04512357 -0.069194175 0.713 4290688421
0.046475105 -0.069194451 0.713 4290294436
0.047826678 -0.069194727 0.713 4290294436
0.049178272 -0.069195025 0.713 4290162594
0.050529897 -0.06919533 0.713 4290096801
0.051881555 -0.069195636 0.713 4290227619
0.05412918 -0.070360556 0.72500002 4290096289
0.055120867 -0.069875643 0.72000003 4290227103
0.056485891 -0.069875993 0.72000003 4290161310
0.057850953 -0.069876343 0.72000003 4289702045
0.059216041 -0.069876701 0.72000003 4289702045
0.060328741 -0.069585912 0.71700001 4289833113
0.061688226 -0.069586299 0.71700001 4289833113
0.063047737 -0.069586687 0.71700001 4289832861
0.064407282 -0.069587074 0.71700001 4289767068
0.065766878 -0.069587484 0.71700001 4289832348
0.067126513 -0.069587894 0.71700001 4289766554
0.068486176 -0.069588318 0.71700001 4289635218
0.069845885 -0.069588743 0.71700001 4289372047
0.071205646 -0.069589183 0.71700001 4289306244
0.072565436 -0.069589622 0.71700001 4289437573
0.073925272 -0.069590069 0.71700001 4289239945
0.075285152 -0.069590539 0.71700001 4289634703
0.076645084 -0.069591008 0.71700001 4290160797
0.078005038 -0.069591478 0.71700001 4291608243
0.03488943 -0.068983138 0.72500002 4290951846
0.036113456 -0.068697877 0.722 4291016617
0.037481878 -0.068698078 0.722 4291016617
0.038742699 -0.068507984 0.72000003 4290885553
0.040107366 -0.068508215 0.72000003 4290819504
0.041472066 -0.068508446 0.72000003 4290819497
0.042658303 -0.068223223 0.71700001 4290819497
0.044017356 -0.068223469 0.71700001 4290688421
0.045503017 -0.06841404 0.71899998 4290688421
0.046931107 -0.068509467 0.72000003 4290425252
0.048228856 -0.068414584 0.71899998 4290491045
0.049591821 -0.068414874 0.71899998 4290425252
0.050954804 -0.06841518 0.71899998 4290227617
0.052317832 -0.068415478 0.71899998 4290227107
0.054128844 -0.068986721 0.72500002 4290292901
0.055503309 -0.068987049 0.72500002 4290161312
0.056485545 -0.068511605 0.72000003 4290227105
0.057850596 -0.068511955 0.72000003 4289964449
0.059215683 -0.068512306 0.72000003 4289898656
0.060580805 -0.068512663 0.72000003 4289832861
0.061859917 -0.068417877 0.71899998 4289832861
0.06322322 -0.068418257 0.71899998 4289832861
0.064586557 -0.068418637 0.71899998 4289898654
0.065949924 -0.068419024 0.71899998 4290029724
0.067126095 -0.068229124 0.71700001 4289700759
0.068485752 -0.068229526 0.71700001 4289502867
0.069845453 -0.068229936 0.71700001 4289502867
0.071205206 -0.068230361 0.71700001 4290028177
0.072868615 -0.068516284 0.72000003 4291936174
0.074234143 -0.068516724 0.72000003 4293254067
0.0755997 -0.068517178 0.72000003 4294175169
0.076965302 -0.068517625 0.72000003 4294967284
0.034889244 -0.067609444 0.72500002 4291214504
0.036263321 -0.067609631 0.72500002 4291082664
0.037533581 -0.067423314 0.72299999 4291082664
0.038903907 -0.067423522 0.72299999 4291016619
0.040274259 -0.067423739 0.72299999 4291016619
0.041587029 -0.067330703 0.722 4290950824
0.042836547 -0.067144431 0.72000003 4290950824
0.044201281 -0.06714467 0.72000003 4290688938
0.045692615 -0.067331441 0.722 4290623145
0.046930842 -0.067145184 0.72000003 4290491558
0.048228573 -0.067052193 0.71899998 4290491558
0.049591526 -0.067052469 0.71899998 4290556838
0.051167116 -0.067332536 0.722 4290359459
0.05289964 -0.067799129 0.727 4290227105
0.054277856 -0.067799442 0.727 4290292899
0.055502985 -0.067613244 0.72500002 4290030496
0.056642119 -0.06733378 0.722 4290096289
0.058010951 -0.067334123 0.722 4290227621
0.059215333 -0.067147948 0.72000003 4290096035
0.06058044 -0.067148283 0.72000003 4290030496
0.061945587 -0.067148648 0.72000003 4290030496
0.063310765 -0.067149006 0.72000003 4290227103
0.064675994 -0.067149386 0.72000003 4290095517
0.066041268 -0.067149773 0.72000003 4289767068
0.067312934 -0.067056887 0.71899998 4289767068
0.06867639 -0.067057289 0.71899998 4290291365
0.070039868 -0.067057699 0.71899998 4291080625
0.071502723 -0.067151383 0.72000003 4291804604
0.072868183 -0.0671518 0.72000003 4292528327
0.074439898 -0.067338757 0.722 4293910750
0.075809255 -0.067339197 0.722 4294964723
0.077178635 -0.067339629 0.722 4294967295
0.034889068 -0.066235788 0.72500002 4291082149
0.036263134 -0.066235974 0.72500002 4291147942
0.037637215 -0.066236153 0.72500002 4291279527
0.038903702 -0.066053629 0.72299999 4291148457
0.040274039 -0.066053845 0.72299999 4291214250
0.041586809 -0.065962702 0.722 4291214252
0.042836312 -0.0657802 0.72000003 4291214252
0.044201035 -0.065780446 0.72000003 4291148718
0.045692369 -0.06596341 0.722 4291148718
0.047060937 -0.065963663 0.722 4290820010
0.04829539 -0.065781206 0.72000003 4290820010
0.049660228 -0.065781474 0.72000003 4290885803
0.051025093 -0.06578175 0.72000003 4290753961
0.052899342 -0.066421591 0.727 4290819497
0.054277539 -0.066421889 0.727 4290950826
0.055349559 -0.066056743 0.72299999 4290819495
0.056641787 -0.06596569 0.722 4290950824
0.058010615 -0.065966003 0.722 4290950826
0.059379485 -0.065966345 0.722 4290950826
0.060748369 -0.065966681 0.722 4290358442
0.062117301 -0.065967031 0.722 4290161062
0.063486271 -0.065967388 0.722 4290358173
0.06485527 -0.065967746 0.722 4290029209
0.066224337 -0.065968126 0.722 4289503898
0.06740617 -0.065785758 0.72000003 4292793548
0.068771511 -0.065786146 0.72000003 4294636515
0.070136882 -0.065786541 0.72000003 4294967282
0.071502313 -0.065786943 0.72000003 4294967295
0.073070176 -0.065970086 0.722 4294967295
0.074439473 -0.065970495 0.722 4294967295
0.035111103 -0.070855968 0.792 4290686371
0.036612093 -0.070856132 0.792 4290489750
0.038016863 -0.070677385 0.79000002 4290423957
0.036162917 -0.064683408 0.72299999 4290620314
0.037533198 -0.064683579 0.72299999 4290949279
0.038903501 -0.064683773 0.72299999 4290818722
0.040273834 -0.064683981 0.72299999 4290950565
0.04164419 -0.064684182 0.72299999 4291082151
0.043014567 -0.064684406 0.72299999 4291082151
0.04886644 -0.071215726 0.796 4290950311
0.04569212 -0.064595401 0.722 4291016104
0.047060683 -0.064595647 0.722 4290819497
0.048295122 -0.064416975 0.72000003 4290819497
0.049659953 -0.064417236 0.72000003 4290950572
0.051024813 -0.064417504 0.72000003 4290819243
0.052389707 -0.064417787 0.72000003 4290819243
0.053978603 -0.06468647 0.72299999 4290687656
0.055349246 -0.064686768 0.72299999 4290490275
0.056641478 -0.064597607 0.722 4290358946
0.058010295 -0.064597912 0.722 4290227619
0.059379153 -0.06459824 0.722 4290096289
0.060748033 -0.064598568 0.722 4289832863
0.062116958 -0.064598903 0.722 4289898656
0.063573845 -0.064688712 0.72299999 4290160797
0.064944744 -0.06468907 0.72299999 4289502867
0.066315688 -0.064689435 0.72299999 4289175187
0.067593031 -0.064600319 0.722 4294043613
0.068962149 -0.064600699 0.722 4294638078
0.07033132 -0.064601079 0.722 4294967295
0.032190122 -0.069530271 0.79400003 4291411656
0.033609979 -0.069355279 0.792 4290622647
0.035110943 -0.069355443 0.792 4290096047
0.036611922 -0.0693556 0.792 4290161803
0.038016677 -0.06918063 0.79000002 4289635459
0.036162738 -0.063313589 0.72299999 4289699980
0.037533008 -0.063313752 0.72299999 4289371015
0.038903311 -0.063313946 0.72299999 4289371017
0.040273633 -0.06331414 0.72299999 4289436810
0.041643973 -0.063314341 0.72299999 4289438094
0.046940967 -0.0690943 0.78899997 4289701009
0.048743408 -0.069532402 0.79400003 4289634703
0.045691885 -0.063227423 0.722 4289568910
0.047060438 -0.063227668 0.722 4289437073
0.048294872 -0.063052766 0.72000003 4289173902
0.049659695 -0.063053019 0.72000003 4289108109
0.051024549 -0.06305328 0.72000003 4289108109
0.05741008 -0.069096185 0.78899997 4288779144
0.054127634 -0.063491702 0.72500002 4288515971
0.055502061 -0.063491985 0.72500002 4288449915
0.05671962 -0.063317128 0.72299999 4288449915
0.058090325 -0.06331744 0.72299999 4288647297
0.059461065 -0.063317746 0.72299999 4288910212
0.060831841 -0.063318066 0.72299999 4289172618
0.070513628 -0.068748914 0.78500003 4289239447
0.07200212 -0.068749301 0.78500003 4289109655
0.03076257 -0.068197213 0.796 4292595663
0.03218998 -0.068025991 0.79400003 4291740610
0.03360983 -0.067854792 0.792 4291608258
0.035110779 -0.067854926 0.792 4290621107
0.036611754 -0.06785509 0.792 4290686625
0.038016509 -0.067683905 0.79000002 4290028696
0.039463714 -0.067598403 0.78899997 4290158478
0.040855244 -0.06742724 0.787 4289763976
0.042346835 -0.067427441 0.787 4289238664
0.043838441 -0.067427643 0.787 4289304457
0.045445282 -0.067599207 0.78899997 4288977289
0.046940736 -0.067599423 0.78899997 4289108874
0.048743173 -0.068028055 0.79400003 4289172870
0.050248161 -0.068028294 0.79400003 4289238664
0.047060199 -0.061859701 0.722 4289107596
0.048428774 -0.061859943 0.722 4289041802
0.054418463 -0.067600675 0.78899997 4288647297
0.055914111 -0.067600958 0.78899997 4288647297
0.057409778 -0.067601234 0.78899997 4288251766
0.05875618 -0.067430168 0.787 4288185973
0.060248133 -0.067430459 0.787 4288119917
0.061583217 -0.067259416 0.78500003 4288646261
0.063071474 -0.067259736 0.78500003 4288777597
0.064395256 -0.067088693 0.78299999 4289369478
0.065879785 -0.067089029 0.78299999 4289632138
0.030762451 -0.066689178 0.796 4292530642
0.032189853 -0.066521749 0.79400003 4292135884
0.033694565 -0.066521876 0.79400003 4291608786
0.035199296 -0.066522017 0.79400003 4291542993
0.036611594 -0.066354617 0.792 4291543999
0.038016342 -0.06618721 0.79000002 4291149241
0.039463535 -0.066103593 0.78899997 4291213219
0.040855054 -0.065936208 0.787 4290752668
0.042239022 -0.065768845 0.78500003 4290752155
0.043726828 -0.065769032 0.78500003 4290291604
0.045214675 -0.06576924 0.78500003 4289963154
0.046583556 -0.065601893 0.78299999 4289831568
0.048067652 -0.065602101 0.78299999 4289370261
0.049425218 -0.065434776 0.78100002 4289370261
0.050905596 -0.065435007 0.78100002 4289501583
0.052654307 -0.065770395 0.78500003 4289304205
0.054142319 -0.065770648 0.78500003 4289304970
0.055630364 -0.065770909 0.78500003 4289370763
0.057118457 -0.065771185 0.78500003 4289567363
0.058755882 -0.065939032 0.787 4289633156
0.060247838 -0.06593933 0.787 4289633923
0.061582927 -0.065772049 0.78500003 4289765510
0.063071162 -0.065772355 0.78500003 4289896076
0.064394943 -0.065605089 0.78299999 4290093455
0.065879449 -0.065605409 0.78299999 4290225561
0.067364015 -0.065605737 0.78299999 4290488476
0.070512898 -0.065773986 0.78500003 4290161049
0.029253868 -0.065181077 0.796 4292991708
0.030762335 -0.065181188 0.796 4293122263
0.032270804 -0.0651813 0.796 4292332747
0.033694431 -0.065017655 0.79400003 4291872205
0.035110489 -0.064854011 0.792 4291609290
0.036611445 -0.064854167 0.792 4291609542
0.038016181 -0.064690545 0.79000002 4291543493
0.039463371 -0.064608827 0.78899997 4291345589
0.040854879 -0.064445227 0.787 4291082160
0.042238835 -0.06428162 0.78500003 4291014568
0.043726638 -0.064281814 0.78500003 4290751653
0.045214474 -0.064282008 0.78500003 4290553760
0.046583336 -0.06411843 0.78299999 4290487711
0.048067432 -0.064118646 0.78299999 4290291100
0.049424998 -0.063955098 0.78100002 4290027927
0.050905362 -0.063955322 0.78100002 4290093459
0.052654058 -0.064283125 0.78500003 4289895824
0.054142069 -0.064283364 0.78500003 4289698701
0.055630103 -0.064283609 0.78500003 4289830031
0.057118181 -0.064283885 0.78500003 4289896078
0.05875561 -0.064447924 0.787 4289896078
0.060247548 -0.064448208 0.787 4289961871
0.061582621 -0.064284712 0.78500003 4290159250
0.063070856 -0.064285003 0.78500003 4290027412
0.06439463 -0.064121515 0.78299999 4290093205
0.065879136 -0.064121827 0.78299999 4290159775
0.067535758 -0.064285927 0.78500003 4290488997
0.069024138 -0.064286247 0.78500003 4290096289
0.070512563 -0.064286575 0.78500003 4290030496
0.072826535 -0.065023974 0.79400003 4290359484
0.029253768 -0.063673086 0.796 4293582560
0.030762224 -0.063673206 0.796 4293056986
0.032270689 -0.063673317 0.796 4292596435
0.033694305 -0.063513458 0.79400003 4292266963
0.035110351 -0.063353598 0.792 4292069841
0.036518842 -0.063193753 0.79000002 4291675335
0.037967902 -0.063113913 0.78899997 4291675335
0.039463207 -0.063114062 0.78899997 4291675587
0.040854707 -0.062954247 0.787 4291543745
0.042346269 -0.062954418 0.787 4291542713
0.043837857 -0.062954597 0.787 4291147955
0.045329463 -0.062954783 0.787 4291081397
0.046583131 -0.062635005 0.78299999 4290949811
0.04806722 -0.062635213 0.78299999 4291016108
0.049551349 -0.062635429 0.78299999 4291016108
0.051035486 -0.062635638 0.78299999 4290752418
0.052653819 -0.062795863 0.78500003 4290884004
0.054141823 -0.062796101 0.78500003 4290817700
0.055629857 -0.062796339 0.78500003 4290685858
0.057117924 -0.062796593 0.78500003 4290620580
0.058755342 -0.062956847 0.787 4290686373
0.060247265 -0.062957108 0.787 4290752166
0.061739236 -0.062957384 0.787 4290817959
0.063070558 -0.062797666 0.78500003 4290751662
0.064558811 -0.062797956 0.78500003 4290620076
0.066047117 -0.062798254 0.78500003 4290357421
0.067535445 -0.06279856 0.78500003 4290949559
0.069023825 -0.062798865 0.78500003 4290426034
0.071320668 -0.063519172 0.79400003 4290557363
0.026368681 -0.062477361 0.80000001 4292530903
0.027884668 -0.062477447 0.80000001 4293319644
0.030762114 -0.062165249 0.796 4292728535
0.032270573 -0.062165353 0.796 4292465362
0.033694178 -0.062009286 0.79400003 4292727253
0.03511022 -0.061853215 0.792 4292595667
0.036518704 -0.061697155 0.79000002 4291675333
0.037967749 -0.061619189 0.78899997 4291609540
0.039463047 -0.061619338 0.78899997 4291740356
0.04085454 -0.061463296 0.787 4291740356
0.042346094 -0.061463464 0.787 4291346113
0.043837674 -0.061463635 0.787 4291082942
0.04532928 -0.061463811 0.787 4290885047
0.046701927 -0.06130781 0.78500003 4290885047
0.048189793 -0.061308008 0.78500003 4290622643
0.049551129 -0.061152011 0.78299999 4290622643
0.05103527 -0.06115222 0.78299999 4290489773
0.052653596 -0.061308641 0.78500003 4290687152
0.054141589 -0.061308868 0.78500003 4290686893
0.055487871 -0.06115289 0.78299999 4290621100
0.056972146 -0.061153129 0.78299999 4290359207
0.058605775 -0.061309591 0.78500003 4290425000
0.060093902 -0.061309844 0.78500003 4290555564
0.061738972 -0.06146631 0.787 4290489771
0.063230976 -0.061466567 0.787 4290555053
0.064723015 -0.06146685 0.787 4290423467
0.066215083 -0.06146713 0.787 4290160295
0.067879274 -0.061623629 0.78899997 4290949811
0.069375217 -0.061623923 0.78899997 4290557363
0.071320347 -0.062014755 0.79400003 4290623156
0.072825871 -0.062015068 0.79400003 4291148998
0.029327076 -0.060809627 0.79799998 4293649890
0.030839304 -0.06080972 0.79799998 4292925913
0.032270465 -0.06065743 0.796 4292728535
0.033694059 -0.060505133 0.79400003 4292596183
0.035110094 -0.060352843 0.792 4292464597
0.03651857 -0.060200557 0.79000002 4291938251
0.037967615 -0.06012449 0.78899997 4292004044
0.039462898 -0.060124639 0.78899997 4291872711
0.040854387 -0.059972387 0.787 4291675333
0.04234593 -0.059972525 0.787 4291411906
0.043837503 -0.059972696 0.787 4291346113
0.045329094 -0.059972867 0.787 4291148989
0.046820723 -0.059973046 0.787 4290885560
0.048189603 -0.059820823 0.78500003 4290753209
0.049677499 -0.059821013 0.78500003 4290819002
0.051165421 -0.059821218 0.78500003 4290818491
0.05265338 -0.059821434 0.78500003 4290752698
0.054141361 -0.059821647 0.78500003 4290620594
0.055487659 -0.059669461 0.78299999 4290554801
0.056971904 -0.059669681 0.78299999 4290620846
0.058605529 -0.059822336 0.78500003 4290818224
0.060093652 -0.059822582 0.78500003 4290817709
0.061738703 -0.05997524 0.787 4290751916
0.063230701 -0.059975494 0.787 4290883502
0.064887218 -0.060128182 0.78899997 4290883502
0.066383071 -0.060128447 0.78899997 4290883764
0.068137072 -0.060357358 0.792 4291344315
0.069638707 -0.060357641 0.792 4290754996
0.071140394 -0.060357936 0.792 4291083961
0.07245867 -0.060205806 0.79000002 4291215560
