# .PCD v0.7 - Point Cloud Data file format
VERSION 0.7
FIELDS x y z rgba
SIZE 4 4 4 4
TYPE F F F U
COUNT 1 1 1 1
WIDTH 1082
HEIGHT 1
VIEWPOINT 0 0 0 1 0 0 0
POINTS 1082
DATA ascii
0.15883717 0.039635353 0.70099998 4294375156
0.16017061 0.039636847 0.70099998 4294375158
0.16150407 0.039638337 0.70099998 4294440951
0.16283764 0.039639842 0.70099998 4294243572
0.16417123 0.039641351 0.70099998 4294177779
0.16550486 0.039642863 0.70099998 4294112240
0.16683856 0.039644387 0.70099998 4294112240
0.16817228 0.03964591 0.70099998 4294243572
0.16950609 0.039647445 0.70099998 4294440951
0.17083994 0.039648984 0.70099998 4294375158
0.1721738 0.039650522 0.70099998 4294375158
0.17350775 0.039652068 0.70099998 4294375156
0.17484173 0.039653625 0.70099998 4294440949
0.17617573 0.039655179 0.70099998 4294440949
0.17801628 0.039769888 0.70300001 4294440949
0.17935416 0.03977146 0.70300001 4294375158
0.18017809 0.03965988 0.70099998 4294375158
0.18151227 0.039661452 0.70099998 4294375158
0.18336818 0.039776187 0.70300001 4294440951
0.1847063 0.039777774 0.70300001 4294375674
0.18551511 0.039666191 0.70099998 4294309881
0.18684943 0.039667774 0.70099998 4294046195
0.18818386 0.039669372 0.70099998 4294046195
0.1895183 0.039670967 0.70099998 4294111986
0.19085273 0.039672561 0.70099998 4294243572
0.19218723 0.039674163 0.70099998 4294177779
0.19352178 0.039675765 0.70099998 4294177779
0.1948563 0.039677367 0.70099998 4294111986
0.19619086 0.039678968 0.70099998 4294111986
0.1975255 0.039680574 0.70099998 4294111986
0.19886011 0.039682183 0.70099998 4293980400
0.20019478 0.039683793 0.70099998 4293914605
0.20152947 0.039685406 0.70099998 4293914605
0.20286416 0.039687011 0.70099998 4294046193
0.20565537 0.039971709 0.70599997 4294177779
0.20729288 0.040029958 0.70700002 4294111986
0.20893411 0.040088203 0.708 4294111986
0.21028227 0.040089831 0.708 4293980400
0.21163039 0.040091466 0.708 4293914607
0.21358013 0.04020635 0.70999998 4293914607
0.21493208 0.040207986 0.70999998 4293914607
0.21628402 0.040209617 0.70999998 4293783535
0.21763602 0.040211249 0.70999998 4293717741
0.22022171 0.040439431 0.71399999 4293586155
0.222202 0.040554352 0.71600002 4293454826
0.22294089 0.040442705 0.71399999 4293453804
0.22430046 0.040444337 0.71399999 4293322475
0.22566007 0.040445976 0.71399999 4293322473
0.22701964 0.0404476 0.71399999 4293256679
0.22901893 0.040562529 0.71600002 4293125606
0.10566583 0.043707889 0.74900001 4293651685
0.10708775 0.043709036 0.74900001 4293783527
0.10807515 0.043535132 0.74599999 4294111207
0.10919794 0.043419581 0.74400002 4294111207
0.11031324 0.043304037 0.74199998 4294045157
0.11127044 0.043130141 0.73900002 4293979364
0.11252121 0.043072976 0.73799998 4293782757
0.1136139 0.042957459 0.736 4293848550
0.11501156 0.042958673 0.736 4293848550
0.1159348 0.042784799 0.73299998 4293980137
0.11700676 0.042669293 0.73100001 4294045930
0.11823318 0.042612165 0.73000002 4294177259
0.11929197 0.042496674 0.72799999 4293848550
0.120509 0.042439561 0.727 4294243052
0.12155465 0.042324085 0.72500002 4294111986
0.12259273 0.042208608 0.72299999 4294111986
0.12379473 0.042151514 0.722 4294243056
0.12481967 0.042036053 0.72000003 4294243056
0.12601228 0.04197897 0.71899998 4294242802
0.12702402 0.041863512 0.71700001 4294308595
0.12838635 0.041864835 0.71700001 4294308847
0.12956777 0.041807774 0.71600002 4294374640
0.13092831 0.041809119 0.71600002 4294178029
0.13228893 0.041810472 0.71600002 4294112236
0.1330896 0.041636642 0.713 4293914603
0.13406752 0.041521218 0.71100003 4294243824
0.1354188 0.041522589 0.71100003 4294243824
0.13657777 0.041465562 0.70999998 4294441203
0.13753878 0.041350149 0.708 4294243824
0.13888453 0.041351542 0.708 4294441203
0.14062649 0.041469757 0.70999998 4294441203
0.14157625 0.041354358 0.708 4294441203
0.14292219 0.041355778 0.708 4294441203
0.14426821 0.041357212 0.708 4294506996
0.14540862 0.041300233 0.70700002 4294506742
0.14675282 0.041301675 0.70700002 4294243826
0.14809711 0.041303132 0.70700002 4294178033
0.14923006 0.041246168 0.70599997 4294506742
0.15057257 0.041247632 0.70599997 4294506996
0.15148476 0.041132256 0.704 4294441203
0.1526065 0.041075308 0.70300001 4294441203
0.15394348 0.041076798 0.70300001 4294441203
0.15528047 0.041078281 0.70300001 4294177779
0.15661755 0.041079786 0.70300001 4294375158
0.1575053 0.040964413 0.70099998 4294440949
0.15883869 0.040965918 0.70099998 4294440949
0.16017213 0.040967442 0.70099998 4294375156
0.16150559 0.040968955 0.70099998 4294243826
0.16283916 0.040970482 0.70099998 4294178546
0.16393855 0.040913574 0.69999999 4294178546
0.1652703 0.040915109 0.69999999 4294112240
0.16660209 0.040916651 0.69999999 4294178033
0.16793391 0.040918201 0.69999999 4294243826
0.16926582 0.040919758 0.69999999 4294375156
0.17059776 0.040921308 0.69999999 4294440949
0.17192975 0.040922873 0.69999999 4294375156
0.17326179 0.040924452 0.69999999 4294111986
0.17459387 0.040926021 0.69999999 4294440951
0.17617731 0.040986065 0.70099998 4294440949
0.17751141 0.040987656 0.70099998 4294440949
0.17884551 0.040989246 0.70099998 4294375158
0.18017969 0.040990837 0.70099998 4294375158
0.18151385 0.040992431 0.70099998 4294375158
0.1828481 0.040994037 0.70099998 4294375158
0.18418242 0.040995643 0.70099998 4294310135
0.18551672 0.040997252 0.70099998 4294244086
0.18658452 0.040940378 0.69999999 4294046193
0.18791699 0.040941987 0.69999999 4294111986
0.1895199 0.041002091 0.70099998 4294177779
0.19085434 0.041003715 0.70099998 4294243572
0.19218884 0.041005332 0.70099998 4294177779
0.19352338 0.041006964 0.70099998 4294177779
0.19485791 0.04100858 0.70099998 4294177779
0.1961925 0.041010212 0.70099998 4294177779
0.19752711 0.041011836 0.70099998 4294111986
0.19886173 0.041013472 0.70099998 4294046193
0.2001964 0.0410151 0.70099998 4293914607
0.20124361 0.040958222 0.69999999 4293980400
0.2025764 0.040959854 0.69999999 4294111986
0.20565699 0.041312583 0.70599997 4294111986
0.20700128 0.041314233 0.70599997 4293980400
0.20893577 0.041432921 0.708 4293980400
0.21028386 0.041434567 0.708 4293914607
0.21163206 0.041436225 0.708 4293980400
0.21358177 0.041554924 0.70999998 4293914607
0.21493372 0.041556578 0.70999998 4293914607
0.21628569 0.041558236 0.70999998 4293914607
0.21763767 0.041559894 0.70999998 4293914607
0.22022335 0.04179569 0.71399999 4293651435
0.22220367 0.041914433 0.71600002 4293454056
0.22294253 0.041799005 0.71399999 4293322473
0.22430214 0.041800655 0.71399999 4293322473
0.22629383 0.04191941 0.71600002 4293322473
0.22765718 0.041921057 0.71600002 4293256679
0.22902057 0.041922707 0.71600002 4293125604
0.10749683 0.044709086 0.74199998 4293979618
0.10890561 0.044710271 0.74199998 4294111205
0.11016576 0.044651214 0.741 4293979103
0.11112104 0.044471644 0.73799998 4293913310
0.11252241 0.044472866 0.73799998 4293848548
0.11361511 0.044353578 0.736 4293848548
0.11501279 0.044354811 0.736 4293979366
0.11593604 0.044175267 0.73299998 4293979366
0.11700804 0.044055991 0.73100001 4294045159
0.1179105 0.043876447 0.72799999 4294242795
0.11912937 0.043817453 0.727 4294177259
0.12017876 0.043698195 0.72500002 4294309101
0.12122059 0.043578938 0.72299999 4294177779
0.12208533 0.043399408 0.72000003 4294111986
0.12345312 0.04340072 0.72000003 4294243056
0.12464759 0.043341756 0.71899998 4294243056
0.12601361 0.043343082 0.71899998 4294177263
0.12702534 0.043223847 0.71700001 4294177263
0.12820864 0.043164916 0.71600002 4294178031
0.12956913 0.043166272 0.71600002 4294243824
0.13056394 0.043047052 0.71399999 4294178029
0.13173601 0.042988136 0.713 4294244078
0.13253099 0.042808633 0.70999998 4293980400
0.13388032 0.042810012 0.70999998 4294177779
0.13484879 0.042690814 0.708 4294244078
0.13619447 0.042692218 0.708 4294244078
0.13734591 0.042633325 0.70700002 4294243824
0.13868979 0.04263474 0.70700002 4294243824
0.14023179 0.042696469 0.708 4294375154
0.14157766 0.042697906 0.708 4294375154
0.14292362 0.042699352 0.708 4294441203
0.14426966 0.042700808 0.708 4294506996
0.14541006 0.04264196 0.70700002 4294506996
0.14675429 0.042643432 0.70700002 4294112238
0.14788911 0.042584587 0.70599997 4294177779
0.14923155 0.04258607 0.70599997 4294638330
0.15014748 0.042466916 0.704 4294441201
0.15148625 0.042468414 0.704 4294441201
0.15260801 0.042409595 0.70300001 4294441201
0.15394497 0.0424111 0.70300001 4294441201
0.15528199 0.042412616 0.70300001 4294177779
0.15617348 0.04229347 0.70099998 4294375158
0.15750682 0.042294994 0.70099998 4294375154
0.15884021 0.042296529 0.70099998 4294441203
0.16017365 0.042298071 0.70099998 4294243826
0.16150716 0.042299613 0.70099998 4294112240
0.1626084 0.042240821 0.69999999 4294178033
0.16394009 0.042242378 0.69999999 4294506742
0.16527183 0.042243939 0.69999999 4294375154
0.16612762 0.042124804 0.69800001 4294375154
0.16745567 0.042126376 0.69800001 4294243826
0.16926739 0.042248663 0.69999999 4294375156
0.17059936 0.042250246 0.69999999 4294244340
0.17144012 0.042131118 0.69800001 4294244340
0.17276835 0.042132705 0.69800001 4294243572
0.17409661 0.042134296 0.69800001 4294440951
0.1754249 0.042135891 0.69800001 4294441203
0.1767533 0.042137496 0.69800001 4294441203
0.17859195 0.04225985 0.69999999 4294440949
0.17992426 0.042261463 0.69999999 4294440949
0.18125652 0.042263083 0.69999999 4294440949
0.18258889 0.042264704 0.69999999 4294375156
0.18392128 0.042266332 0.69999999 4294375156
0.18525369 0.04226796 0.69999999 4294375156
0.18658614 0.042269595 0.69999999 4294046193
0.18791865 0.042271227 0.69999999 4294111986
0.18925115 0.042272862 0.69999999 4294178546
0.19085598 0.042334896 0.70099998 4294178546
0.19219048 0.042336538 0.70099998 4294178033
0.19352502 0.042338189 0.70099998 4294112240
0.1945816 0.042279441 0.69999999 4294112497
0.19591425 0.042281091 0.69999999 4294178546
0.19752876 0.04234314 0.70099998 4294111986
0.19886339 0.042344794 0.70099998 4294046193
0.20019805 0.042346444 0.70099998 4294112240
0.20124523 0.042287692 0.69999999 4294046191
0.20257804 0.042289343 0.69999999 4294046191
0.20478477 0.042472243 0.70300001 4294112240
0.20700295 0.042655159 0.70599997 4293914607
0.20834722 0.042656828 0.70599997 4293783021
0.20998855 0.042718917 0.70700002 4293914605
0.21163365 0.042781014 0.708 4294112240
0.21298178 0.042782679 0.708 4293914607
0.21432997 0.042784356 0.708 4293914607
0.2156781 0.042786025 0.708 4293783789
0.2176393 0.042908557 0.70999998 4293783789
0.22022502 0.043151982 0.71399999 4293651435
0.22220531 0.043274537 0.71600002 4293454056
0.22294417 0.043155331 0.71399999 4293322470
0.22430375 0.043157004 0.71399999 4293256677
0.22629547 0.04327957 0.71600002 4293190886
0.22765885 0.043281239 0.71600002 4293190886
0.22902223 0.043282911 0.71600002 4293125604
0.23038565 0.043284584 0.71600002 4292928482
0.10778778 0.046240833 0.74400002 4293782753
0.10890681 0.046117738 0.74199998 4293848546
0.11016699 0.046056807 0.741 4293584606
0.11112228 0.045871567 0.73799998 4293848035
0.11221872 0.045748491 0.736 4294045159
0.11361635 0.045749735 0.736 4293979366
0.11501405 0.045750998 0.736 4294044644
0.11562098 0.045441456 0.73100001 4294044644
0.1170093 0.045442738 0.73100001 4293979366
0.11791179 0.045257527 0.72799999 4294308588
0.11880293 0.045072317 0.72500002 4294177259
0.11984853 0.044949289 0.72299999 4294309101
0.12122189 0.044950597 0.72299999 4294046191
0.12208666 0.044765402 0.72000003 4294046191
0.12328298 0.044704553 0.71899998 4294243054
0.12464893 0.04470589 0.71899998 4294243054
0.12601495 0.044707242 0.71899998 4294243056
0.12702671 0.044584244 0.71700001 4294243056
0.12820999 0.044523429 0.71600002 4294178031
0.12920856 0.044400439 0.71399999 4294178031
0.13038246 0.044339634 0.713 4293980137
0.13136786 0.044216648 0.71100003 4294177259
0.13215905 0.044031471 0.708 4293783527
0.13350458 0.044032875 0.708 4294178029
0.13485022 0.044034291 0.708 4294243824
0.13619587 0.044035718 0.708 4294243824
0.13734733 0.043974947 0.70700002 4294243824
0.1386912 0.043976389 0.70700002 4294243824
0.14023323 0.044040043 0.708 4294112238
0.14157912 0.044041499 0.708 4294243824
0.14272322 0.043980766 0.70700002 4294243824
0.14406735 0.043982241 0.70700002 4294243824
0.14520584 0.043921508 0.70599997 4294243826
0.1465482 0.043923002 0.70599997 4294112240
0.1478906 0.043924503 0.70599997 4294046193
0.14923304 0.043926012 0.70599997 4294375158
0.150149 0.043803092 0.704 4294178031
0.15127261 0.043742392 0.70300001 4294375154
0.15260951 0.043743912 0.70300001 4294243824
0.15394649 0.043745443 0.70300001 4294178031
0.15528353 0.043746985 0.70300001 4294046191
0.15617505 0.043624073 0.70099998 4294112240
0.15750839 0.043625623 0.70099998 4294112238
0.15884177 0.04362718 0.70099998 4294178031
0.15994672 0.043566503 0.69999999 4294177779
0.16127831 0.043568071 0.69999999 4294111986
0.16260996 0.043569647 0.69999999 4294243056
0.16394168 0.04357123 0.69999999 4294440436
0.16480121 0.043448322 0.69800001 4294112240
0.1661292 0.043449905 0.69800001 4294112240
0.16745727 0.043451503 0.69800001 4294111986
0.16878535 0.043453097 0.69800001 4294243572
0.17011352 0.043454703 0.69800001 4294243826
0.17119609 0.043394048 0.69700003 4294178033
0.17252243 0.043395665 0.69700003 4294178033
0.17384882 0.043397278 0.69700003 4294243826
0.17517525 0.043398902 0.69700003 4294177263
0.17650168 0.043400522 0.69700003 4294177263
0.17808332 0.043464419 0.69800001 4294046193
0.1794118 0.043466054 0.69800001 4294243572
0.18074028 0.043467693 0.69800001 4294440951
0.18206884 0.043469336 0.69800001 4294243572
0.18339744 0.043470982 0.69800001 4293980400
0.184726 0.043472629 0.69800001 4294243572
0.18605469 0.043474287 0.69800001 4294046193
0.18738338 0.043475937 0.69800001 4294111986
0.18925281 0.043602165 0.69999999 4294243826
0.19058536 0.043603834 0.69999999 4294243826
0.19191799 0.043605495 0.69999999 4294111986
0.19325058 0.04360716 0.69999999 4294046193
0.1940273 0.043484237 0.69800001 4293914607
0.19535618 0.043485902 0.69800001 4293980400
0.19668506 0.043487571 0.69800001 4294046193
0.19801399 0.043489236 0.69800001 4294046193
0.19934298 0.043490913 0.69800001 4294177779
0.20067193 0.043492574 0.69800001 4294046193
0.20200095 0.043494247 0.69800001 4293783275
0.20332992 0.04349592 0.69800001 4293914605
0.20524535 0.043622218 0.69999999 4293914607
0.20687334 0.043686215 0.70099998 4293651435
0.20909917 0.043874856 0.704 4293716458
0.21043967 0.04387654 0.704 4293848044
0.21268265 0.044065204 0.70700002 4293717482
0.21433164 0.044129219 0.708 4293651689
0.21567973 0.04413091 0.708 4293651689
0.21702792 0.044132598 0.708 4293717482
0.21899295 0.044258952 0.70999998 4293519849
0.22034495 0.044260643 0.70999998 4293454056
0.22294585 0.044511691 0.71399999 4293257190
0.22430544 0.044513382 0.71399999 4293257190
0.22629714 0.04463977 0.71600002 4293191397
0.22766055 0.044641465 0.71600002 4293191397
0.22902393 0.044643153 0.71600002 4293125604
0.23038729 0.044644836 0.71600002 4292928482
0.23272164 0.044833578 0.71899998 4292862433
0.23506744 0.045022339 0.722 4292796640
0.24723017 0.046276394 0.74199998 4291546577
0.24864294 0.046278108 0.74199998 4290231745
0.25005564 0.04627981 0.74199998 4288652714
0.25146833 0.046281517 0.74199998 4288652194
0.10778899 0.04765211 0.74400002 4293848033
0.10890803 0.047525238 0.74199998 4294176998
0.11016823 0.047462434 0.741 4293848037
0.11112352 0.047271524 0.73799998 4293782244
0.11221997 0.047144674 0.736 4293979364
0.11330887 0.047017835 0.73400003 4293979364
0.1147028 0.047019113 0.73400003 4293979105
0.11546411 0.046764173 0.73000002 4294044898
0.11653038 0.046637334 0.72799999 4293979366
0.11742718 0.046446458 0.72500002 4294242795
0.11880425 0.046447773 0.72500002 4294046184
0.11984984 0.046320956 0.72299999 4294177513
0.12105557 0.046258222 0.722 4294045930
0.12208798 0.046131432 0.72000003 4293980137
0.12328431 0.046068709 0.71899998 4294045930
0.12465028 0.046070069 0.71899998 4294440688
0.12566581 0.045943294 0.71700001 4294243052
0.12685092 0.045880593 0.71600002 4294177259
0.12785324 0.045753822 0.71399999 4294177259
0.12902899 0.04569114 0.713 4294243052
0.13038388 0.045692541 0.713 4294112238
0.13136928 0.045565788 0.71100003 4294375154
0.13216045 0.045374945 0.708 4294112236
0.13350601 0.045376368 0.708 4294244078
0.13466115 0.045313712 0.70700002 4294178029
0.13600492 0.045315154 0.70700002 4294178029
0.13734877 0.045316614 0.70700002 4294178031
0.13869266 0.045318078 0.70700002 4294178031
0.14003663 0.045319553 0.70700002 4294178031
0.14138062 0.045321032 0.70700002 4294243824
0.14272471 0.045322523 0.70700002 4294112240
0.14406884 0.04532402 0.70700002 4294046191
0.14520736 0.045261428 0.70599997 4294111986
0.1465497 0.04526294 0.70599997 4294243572
0.1478921 0.045264464 0.70599997 4294112240
0.14923458 0.045265995 0.70599997 4294178033
0.15015052 0.045139302 0.704 4294178031
0.15127413 0.045076724 0.70300001 4294375154
0.15261105 0.045078278 0.70300001 4294112240
0.15394804 0.045079831 0.70300001 4294046191
0.15528508 0.045081396 0.70300001 4294046191
0.1561766 0.044954706 0.70099998 4294243826
0.15750992 0.044956278 0.70099998 4294112240
0.15861674 0.044893723 0.69999999 4294112240
0.15994829 0.044895306 0.69999999 4294177779
0.1612799 0.044896904 0.69999999 4294177779
0.16261154 0.044898506 0.69999999 4294112240
0.16347484 0.04477182 0.69800001 4294375156
0.1648028 0.04477343 0.69800001 4294046193
0.16613081 0.044775039 0.69800001 4294111986
0.16745888 0.044776659 0.69800001 4294111986
0.16854519 0.04471413 0.69700003 4294111986
0.16987142 0.044715751 0.69700003 4294111986
0.17119771 0.044717386 0.69700003 4294111986
0.17252405 0.044719014 0.69700003 4294177779
0.17385043 0.04472065 0.69700003 4294243572
0.17517684 0.044722296 0.69700003 4294111986
0.17650333 0.04472395 0.69700003 4294046193
0.17782985 0.044725604 0.69700003 4294046193
0.17915642 0.044727262 0.69700003 4294111986
0.180483 0.04472892 0.69700003 4294111986
0.18180963 0.044730581 0.69700003 4294046193
0.18313634 0.044732247 0.69700003 4293980400
0.18446304 0.044733915 0.69700003 4294375158
0.18605633 0.044799764 0.69800001 4294046445
0.18738502 0.044801444 0.69800001 4294046445
0.18871376 0.044803128 0.69800001 4293980400
0.19004253 0.044804804 0.69800001 4293914607
0.19191965 0.044934873 0.69999999 4294112240
0.19325224 0.044936556 0.69999999 4294046191
0.19402899 0.044809863 0.69800001 4293914607
0.19535783 0.044811547 0.69800001 4293914607
0.19668677 0.044813238 0.69800001 4293914607
0.19801565 0.044814929 0.69800001 4293914607
0.19934465 0.044816617 0.69800001 4293914607
0.20067358 0.044818304 0.69800001 4293914607
0.2020026 0.044819999 0.69800001 4293783275
0.2033316 0.044821694 0.69800001 4293783275
0.20524706 0.044951815 0.69999999 4293717482
0.20657989 0.04495351 0.69999999 4293519847
0.20880383 0.04514787 0.70300001 4293519849
0.21044137 0.045213792 0.704 4293585642
0.21178187 0.045215499 0.704 4293585642
0.21403059 0.045409892 0.70700002 4293651435
0.21568146 0.045475822 0.708 4293651689
0.21702962 0.045477528 0.708 4293717482
0.21899463 0.045607708 0.70999998 4293519849
0.22034661 0.045609411 0.70999998 4293454056
0.22201085 0.045675363 0.71100003 4293322470
0.22430716 0.04586979 0.71399999 4293256677
0.22629887 0.045999993 0.71600002 4293191651
0.22766227 0.04600171 0.71600002 4293125602
0.22902557 0.046003405 0.71600002 4292994275
0.23071074 0.046069361 0.71700001 4292994275
0.23272336 0.046199579 0.71899998 4292993505
0.23506913 0.046394046 0.722 4292993505
0.23644386 0.046395753 0.722 4292730333
0.24482524 0.047491644 0.73900002 4292664540
0.24623235 0.047493376 0.73900002 4292203989
0.24763934 0.047495089 0.73900002 4291283391
0.24904634 0.047496807 0.73900002 4288980636
0.10779021 0.04906344 0.74400002 4293782244
0.1087625 0.048866857 0.741 4294110953
0.10987213 0.048736226 0.73900002 4293716708
0.11112478 0.048671532 0.73799998 4293716708
0.11222125 0.048540916 0.736 4293978853
0.11331017 0.048410304 0.73400003 4293913060
0.11470409 0.048411611 0.73400003 4293913060
0.1154654 0.048149087 0.73000002 4294044646
0.1165317 0.048018493 0.72799999 4293979366
0.1174285 0.047821935 0.72500002 4294045159
0.11847783 0.047691341 0.72299999 4293848033
0.11968541 0.047626726 0.722 4293979618
0.12105691 0.047628079 0.722 4293848550
0.12208934 0.047497515 0.72000003 4293980137
0.12328569 0.047432914 0.71899998 4294110953
0.12430494 0.047302362 0.71700001 4294308588
0.12566717 0.047303747 0.71700001 4294177261
0.12685232 0.047239181 0.71600002 4294177261
0.12785463 0.047108624 0.71399999 4294177259
0.12903039 0.047044065 0.713 4294177259
0.13001955 0.046913538 0.71100003 4294112240
0.13118592 0.046848986 0.70999998 4294178033
0.1321619 0.046718456 0.708 4294244078
0.13331889 0.046653915 0.70700002 4294375408
0.13466261 0.046655376 0.70700002 4294178029
0.13600639 0.046656843 0.70700002 4294178029
0.13735025 0.046658326 0.70700002 4294178031
0.13869414 0.046659809 0.70700002 4294112238
0.1400381 0.046661306 0.70700002 4294112240
0.14138213 0.046662811 0.70700002 4294112240
0.14272621 0.046664324 0.70700002 4294308849
0.14386657 0.04659985 0.70599997 4294243056
0.14520887 0.046601374 0.70599997 4294112240
0.14655124 0.04660292 0.70599997 4294178033
0.14789362 0.046604462 0.70599997 4294178033
0.14923611 0.046606023 0.70599997 4294178033
0.15015209 0.046475559 0.704 4294178031
0.15127569 0.046411112 0.70300001 4294243824
0.15261263 0.046412677 0.70300001 4294178033
0.15394959 0.04641426 0.70300001 4294112240
0.15484487 0.046283793 0.70099998 4294178031
0.15617816 0.046285387 0.70099998 4294375154
0.15728682 0.046220958 0.69999999 4294178033
0.15861836 0.04622256 0.69999999 4294112240
0.15994988 0.046224166 0.69999999 4294111986
0.16082071 0.046093713 0.69800001 4294111986
0.16214855 0.04609533 0.69800001 4294112238
0.16347647 0.046096958 0.69800001 4294243824
0.16480444 0.046098579 0.69800001 4293914605
0.16613244 0.046100214 0.69800001 4294112240
0.16746052 0.046101861 0.69800001 4294177779
0.1685468 0.046037454 0.69700003 4294111986
0.16987306 0.046039104 0.69700003 4294111986
0.17119935 0.046040758 0.69700003 4294111986
0.17252569 0.046042413 0.69700003 4293980400
0.17385209 0.046044081 0.69700003 4294111986
0.17517853 0.046045747 0.69700003 4294046193
0.17650497 0.046047408 0.69700003 4294046193
0.17783152 0.046049088 0.69700003 4294046193
0.17915806 0.046050768 0.69700003 4294046193
0.18048467 0.046052452 0.69700003 4293914607
0.18181132 0.04605414 0.69700003 4293914607
0.18313803 0.046055827 0.69700003 4293914605
0.18446472 0.046057522 0.69700003 4294046191
0.18579146 0.046059217 0.69700003 4293914603
0.18711828 0.046060916 0.69700003 4293914603
0.18871544 0.046128701 0.69800001 4293717482
0.19004421 0.046130408 0.69800001 4293914605
0.19137301 0.046132106 0.69800001 4294177779
0.19270179 0.04613382 0.69800001 4293980400
0.19403067 0.046135522 0.69800001 4293717228
0.19535954 0.046137236 0.69800001 4293717228
0.19668844 0.046138942 0.69800001 4293717228
0.19801736 0.046140656 0.69800001 4293651435
0.19934633 0.04614237 0.69800001 4293651689
0.20067534 0.046144091 0.69800001 4293519847
0.20200433 0.046145797 0.69800001 4293519334
0.20333332 0.046147507 0.69800001 4293716712
0.20524874 0.046281449 0.69999999 4293519847
0.20658162 0.046283163 0.69999999 4293454054
0.20821151 0.046351001 0.70099998 4293585129
0.21014418 0.04648497 0.70300001 4293585129
0.21148276 0.046486687 0.70300001 4293519849
0.21372956 0.046686787 0.70599997 4293519849
0.21537852 0.046754647 0.70700002 4293585642
0.21703134 0.046822503 0.708 4293585642
0.21899638 0.046956491 0.70999998 4293322470
0.22034837 0.046958223 0.70999998 4293256677
0.22201252 0.047026083 0.71100003 4293059298
0.22336642 0.047027815 0.71100003 4293125091
0.22566843 0.047227956 0.71399999 4293191397
0.22766396 0.047361989 0.71600002 4293125604
0.22902733 0.047363713 0.71600002 4292796640
0.23071246 0.047431581 0.71700001 4292796640
0.23304874 0.047631759 0.72000003 4292664540
0.23507087 0.047765806 0.722 4292796126
0.23644559 0.047767516 0.722 4292796126
0.24177301 0.048563175 0.73400003 4292730333
0.24317053 0.048564915 0.73400003 4292598747
0.24623404 0.048897479 0.73900002 4292730333
0.2476411 0.048899222 0.73900002 4291677395
0.24904808 0.048900954 0.73900002 4289242798
0.10779148 0.050474826 0.74400002 4293519586
0.10876377 0.050272573 0.741 4293980137
0.10987339 0.050138157 0.73900002 4293716708
0.11112607 0.050071601 0.73799998 4293585379
0.11222253 0.049937207 0.736 4293716708
0.11331146 0.049802821 0.73400003 4293716708
0.11454913 0.049736287 0.73299998 4293782244
0.1154667 0.04953406 0.73000002 4293848037
0.11653303 0.049399685 0.72799999 4293848037
0.11742985 0.049197469 0.72500002 4293848037
0.11847918 0.049063098 0.72299999 4293716962
0.11968677 0.048996605 0.722 4293848548
0.12072295 0.048862252 0.72000003 4293914343
0.12192114 0.048795775 0.71899998 4294309101
0.12294414 0.048661437 0.71700001 4294045930
0.12430634 0.048662838 0.71700001 4294177259
0.12514277 0.048460636 0.71399999 4294046191
0.1264994 0.048462056 0.71399999 4294046191
0.12767699 0.048395611 0.713 4294177259
0.1286699 0.048261296 0.71100003 4294177259
0.13002099 0.048262749 0.71100003 4294111986
0.13118736 0.048196319 0.70999998 4293980400
0.13216336 0.048062023 0.708 4294046445
0.13332035 0.047995605 0.70700002 4294243824
0.13466409 0.047997084 0.70700002 4294244078
0.13600788 0.047998577 0.70700002 4294244078
0.13735174 0.048000079 0.70700002 4294112236
0.13869566 0.048001595 0.70700002 4294112236
0.14003962 0.048003111 0.70700002 4294112238
0.14138365 0.048004646 0.70700002 4294046445
0.14252585 0.047938272 0.70599997 4294046191
0.14346056 0.047804013 0.704 4294112240
0.14479907 0.047805563 0.704 4294112240
0.14613762 0.047807131 0.704 4294112240
0.14747626 0.047808699 0.704 4294178031
0.14881495 0.047810275 0.704 4294112238
0.14994037 0.047743935 0.70300001 4294178031
0.15127726 0.04774553 0.70300001 4294243824
0.15218 0.047611281 0.70099998 4294243572
0.15351321 0.047612883 0.70099998 4294177779
0.15484646 0.047614492 0.70099998 4294178031
0.15595697 0.047548182 0.69999999 4294243824
0.15728843 0.047549799 0.69999999 4294178031
0.15816675 0.047415569 0.69800001 4294112238
0.15949452 0.047417197 0.69800001 4294112240
0.16082232 0.047418825 0.69800001 4294112240
0.16215019 0.047420476 0.69800001 4294112236
0.1632439 0.047354192 0.69700003 4294244078
0.16456996 0.047355834 0.69700003 4294112240
0.16589609 0.047357492 0.69700003 4294243826
0.16722223 0.047359154 0.69700003 4294243572
0.16854846 0.047360815 0.69700003 4294111986
0.16987473 0.047362495 0.69700003 4294046193
0.17120104 0.047364172 0.69700003 4293980400
0.17252739 0.047365859 0.69700003 4293980400
0.17385377 0.047367543 0.69700003 4293980400
0.17518021 0.047369234 0.69700003 4293980400
0.17650668 0.047370926 0.69700003 4293980400
0.1778332 0.047372621 0.69700003 4293980398
0.17915978 0.047374323 0.69700003 4293980398
0.18048638 0.047376033 0.69700003 4293914607
0.18181305 0.04737775 0.69700003 4293914607
0.18313973 0.047379453 0.69700003 4293914607
0.18446642 0.047381166 0.69700003 4293980400
0.18579319 0.04738288 0.69700003 4293914605
0.18711998 0.047384605 0.69700003 4293914605
0.1884468 0.047386326 0.69700003 4293783021
0.18977365 0.047388043 0.69700003 4293914607
0.19110055 0.047389779 0.69700003 4293717228
0.19242747 0.0473915 0.69700003 4293717228
0.19403242 0.04746123 0.69800001 4293717228
0.19536124 0.047462959 0.69800001 4293651435
0.19669014 0.047464684 0.69800001 4293585642
0.1980191 0.047466416 0.69800001 4293651435
0.19934803 0.047468148 0.69800001 4293585642
0.20067702 0.047469884 0.69800001 4293519849
0.20200601 0.047471616 0.69800001 4293585642
0.20333506 0.04747336 0.69800001 4293585642
0.2052505 0.047611117 0.69999999 4293519336
0.20658334 0.047612853 0.69999999 4293453542
0.20821323 0.047682598 0.70099998 4293453542
0.20954801 0.047684338 0.70099998 4293519336
0.21148446 0.047822133 0.70300001 4293454056
0.21312584 0.047891904 0.704 4293256677
0.21538027 0.048097726 0.70700002 4293519847
0.21672651 0.048099466 0.70700002 4293519847
0.2183812 0.048169248 0.708 4293256677
0.22035009 0.048307057 0.70999998 4293256677
0.22170201 0.048308801 0.70999998 4293190884
0.22305396 0.048310541 0.70999998 4293125091
0.22440591 0.04831228 0.70999998 4292994275
0.22766572 0.048722301 0.71600002 4292994275
0.22902906 0.04872404 0.71600002 4292993505
0.2307142 0.048793826 0.71700001 4292927712
0.23305045 0.048999723 0.72000003 4292730333
0.23507257 0.049137574 0.722 4292796126
0.23644729 0.049139313 0.722 4292730333
0.24045718 0.049685545 0.73000002 4292335575
0.24217835 0.049755342 0.73100001 4292467161
0.24456978 0.049961288 0.73400003 4292730333
0.24764279 0.050303373 0.73900002 4292006106
0.10666612 0.052024454 0.74599999 4293584606
0.10779275 0.051886261 0.74400002 4293584608
0.10876504 0.051678322 0.741 4293716195
0.10987469 0.05154014 0.73900002 4293585379
0.11112737 0.051471706 0.73799998 4293716708
0.11222386 0.051333547 0.736 4293585892
0.11315841 0.051125631 0.73299998 4293651685
0.11423791 0.050987471 0.73100001 4293782757
0.1151517 0.050779562 0.72799999 4293782757
0.11653439 0.050780926 0.72799999 4293782757
0.11743121 0.050573036 0.72500002 4293782757
0.11848055 0.050434899 0.72299999 4293782757
0.11968815 0.050366532 0.722 4293914343
0.12072434 0.050228409 0.72000003 4293914343
0.12192254 0.050160043 0.71899998 4294177259
0.12294555 0.050021935 0.71700001 4294045930
0.12430776 0.050023366 0.71700001 4294045930
0.1251442 0.049815487 0.71399999 4294045932
0.12650083 0.049816933 0.71399999 4294045932
0.12767845 0.049748618 0.713 4294046443
0.12867133 0.049610525 0.71100003 4294046443
0.13002247 0.049611997 0.71100003 4293980398
0.13118884 0.049543694 0.70999998 4293980398
0.13216482 0.049405623 0.708 4293914857
0.13332184 0.049337331 0.70700002 4294178029
0.13466559 0.049338844 0.70700002 4294178029
0.1360094 0.04934036 0.70700002 4294046443
0.13735324 0.049341872 0.70700002 4293980139
0.13869716 0.049343403 0.70700002 4293980139
0.14004116 0.049344949 0.70700002 4294243056
0.14118521 0.049276706 0.70599997 4294177263
0.1425274 0.04927827 0.70599997 4293782505
0.14325835 0.049070437 0.70300001 4294177263
0.14459495 0.049072009 0.70300001 4294112240
0.14593162 0.049073584 0.70300001 4294112240
0.1466399 0.04886575 0.69999999 4294112238
0.14797097 0.048867341 0.69999999 4294112238
0.14994197 0.049078375 0.70300001 4294177261
0.15127885 0.049079988 0.70300001 4294045932
0.15218164 0.048941977 0.70099998 4294045680
0.15351482 0.048943594 0.70099998 4294045680
0.1546272 0.04887541 0.69999999 4293848296
0.155513 0.048737399 0.69800001 4294177261
0.15684068 0.048739031 0.69800001 4294177261
0.15816841 0.048740681 0.69800001 4294243054
0.15949617 0.048742339 0.69800001 4294243054
0.16059357 0.048674155 0.69700003 4294177261
0.16191955 0.048675824 0.69700003 4293980139
0.16324557 0.048677493 0.69700003 4294045932
0.16457164 0.048679166 0.69700003 4293979885
0.16589774 0.048680849 0.69700003 4294045678
0.16722392 0.048682537 0.69700003 4294046193
0.16855013 0.048684221 0.69700003 4293980400
0.16987641 0.048685919 0.69700003 4293914605
0.17120272 0.048687622 0.69700003 4293980398
0.17252907 0.048689324 0.69700003 4293914607
0.17385547 0.048691038 0.69700003 4293914607
0.17493056 0.048622888 0.69599998 4293914607
0.17625514 0.048624597 0.69599998 4293914607
0.17757975 0.048626315 0.69599998 4293783273
0.17890443 0.048628043 0.69599998 4293980652
0.18048809 0.048699636 0.69700003 4293914603
0.1815539 0.0486315 0.69599998 4293914603
0.18287866 0.048633229 0.69599998 4293783275
0.18446815 0.048704848 0.69700003 4293783275
0.18579493 0.048706587 0.69700003 4293783275
0.18712172 0.04870832 0.69700003 4293783275
0.18844852 0.048710067 0.69700003 4293783275
0.1895031 0.04864192 0.69599998 4293914605
0.19082811 0.048643671 0.69599998 4293651435
0.1921531 0.048645414 0.69599998 4293651435
0.19403414 0.048786949 0.69800001 4293651435
0.195363 0.048788708 0.69800001 4293519849
0.19669192 0.048790459 0.69800001 4293454054
0.19802088 0.048792217 0.69800001 4293519847
0.19934979 0.048793972 0.69800001 4293323238
0.20067872 0.048795722 0.69800001 4293323238
0.20200777 0.048797477 0.69800001 4293585640
0.20333679 0.048799228 0.69800001 4293454054
0.20525223 0.048940815 0.69999999 4293387749
0.20658512 0.048942573 0.69999999 4293387749
0.20821495 0.049014241 0.70099998 4293387749
0.20954975 0.049015999 0.70099998 4293453542
0.21148622 0.049157601 0.70300001 4293322470
0.21312758 0.04922929 0.704 4293256677
0.21538202 0.049440838 0.70700002 4293454056
0.21672828 0.0494426 0.70700002 4293454056
0.21838295 0.049514294 0.708 4293256677
0.22035183 0.049655933 0.70999998 4293256677
0.22170375 0.049657684 0.70999998 4293191397
0.22305568 0.049659435 0.70999998 4293191397
0.22440767 0.049661193 0.70999998 4292928482
0.22703151 0.049942736 0.71399999 4292928482
0.22839102 0.049944486 0.71399999 4292862433
0.23039417 0.050086148 0.71600002 4292862433
0.23305219 0.050367713 0.72000003 4292796126
0.23442313 0.050369464 0.72000003 4292664540
0.23644903 0.050511125 0.722 4292467161
0.23980014 0.05093265 0.72799999 4292467161
0.24218012 0.051144298 0.73100001 4292335575
0.24457155 0.051355958 0.73400003 4292664540
0.10666742 0.053439714 0.74599999 4293584606
0.10750427 0.053154469 0.74199998 4293453538
0.10847279 0.052940872 0.73900002 4293585381
0.10972732 0.052870542 0.73799998 4293585379
0.11112872 0.052871879 0.73799998 4293716708
0.11192024 0.052586656 0.73400003 4293716708
0.11315975 0.052516352 0.73299998 4293716708
0.11377043 0.052159484 0.72799999 4293716708
0.11515306 0.052160844 0.72799999 4293782757
0.11637568 0.052090578 0.727 4293782757
0.11743258 0.051948659 0.72500002 4293782757
0.11848193 0.051806752 0.72299999 4293848550
0.11968958 0.051736511 0.722 4293914343
0.12072575 0.051594615 0.72000003 4293914343
0.12192395 0.051524371 0.71899998 4293914343
0.12294699 0.051382493 0.71700001 4294177000
0.12413583 0.051312272 0.71600002 4294177000
0.12514564 0.051170398 0.71399999 4294045930
0.12650228 0.051171865 0.71399999 4294045930
0.12767991 0.051101662 0.713 4294045930
0.12867282 0.050959807 0.71100003 4294177259
0.13002394 0.050961293 0.71100003 4294045930
0.13119033 0.050891124 0.70999998 4294309101
0.13216633 0.05074928 0.708 4294112490
0.13332336 0.05067911 0.70700002 4294244076
0.1346671 0.050680637 0.70700002 4294177259
0.13601093 0.050682183 0.70700002 4294045930
0.13735481 0.050683722 0.70700002 4293914603
0.13869873 0.050685279 0.70700002 4293914603
0.14004272 0.050686847 0.70700002 4294177259
0.14118677 0.050616719 0.70599997 4294309101
0.14252897 0.05061831 0.70599997 4293980400
0.14325993 0.050404806 0.70300001 4294046193
0.14459653 0.0504064 0.70300001 4294177259
0.14551805 0.050264589 0.70099998 4294177259
0.14664148 0.050194494 0.69999999 4294177259
0.14797257 0.050196107 0.69999999 4294309101
0.1493037 0.050197728 0.69999999 4294177259
0.15128049 0.050414495 0.70300001 4293980137
0.15218326 0.050272714 0.70099998 4293979887
0.15329745 0.050202634 0.69999999 4294045680
0.15462886 0.050204299 0.69999999 4293979887
0.15551467 0.050062515 0.69800001 4294045680
0.15684234 0.050064173 0.69800001 4294177261
0.15817006 0.050065838 0.69800001 4294243054
0.1592693 0.049995784 0.69700003 4294177259
0.16059524 0.049997471 0.69700003 4294045930
0.16192123 0.049999151 0.69700003 4293980139
0.16324723 0.050000839 0.69700003 4293980139
0.16457333 0.050002545 0.69700003 4293914091
0.16589944 0.050004248 0.69700003 4293848298
0.16722561 0.050005961 0.69700003 4293783275
0.16855182 0.050007671 0.69700003 4293980398
0.16987811 0.050009388 0.69700003 4293914603
0.17120443 0.050011113 0.69700003 4294046445
0.17253077 0.050012838 0.69700003 4293914603
0.17385718 0.05001457 0.69700003 4293717480
0.17493226 0.049944542 0.69599998 4293783275
0.17625688 0.049946286 0.69599998 4293783275
0.17758149 0.049948033 0.69599998 4293783273
0.17890617 0.049949769 0.69599998 4294046445
0.18023086 0.049951524 0.69599998 4293783527
0.18155563 0.049953274 0.69599998 4293783527
0.1828804 0.049955022 0.69599998 4293783273
0.18420525 0.049956787 0.69599998 4293651687
0.18553008 0.049958546 0.69599998 4293717482
0.18685499 0.049960297 0.69599998 4293717482
0.18817993 0.04996207 0.69599998 4293783273
0.18950486 0.049963832 0.69599998 4293914603
0.19082986 0.049965598 0.69599998 4293651689
0.19215485 0.049967371 0.69599998 4293585640
0.19375792 0.050040931 0.69700003 4293585640
0.19508487 0.050042704 0.69700003 4293519847
0.19641189 0.050044477 0.69700003 4293454054
0.19773892 0.050046254 0.69700003 4293454054
0.19906597 0.050048023 0.69700003 4293454052
0.20068051 0.050121602 0.69800001 4293454052
0.20200956 0.050123375 0.69800001 4293322724
0.20333853 0.050125148 0.69800001 4293256931
0.205254 0.050270546 0.69999999 4293387749
0.20658684 0.050272323 0.69999999 4293387749
0.20821673 0.050345916 0.70099998 4293387749
0.20955157 0.050347693 0.70099998 4293453542
0.21148801 0.050493114 0.70300001 4293322724
0.21312936 0.050566722 0.704 4293322724
0.21538381 0.050783988 0.70700002 4293454054
0.21673003 0.050785773 0.70700002 4293322724
0.21838473 0.050859384 0.708 4293125093
0.22035357 0.051004831 0.70999998 4293059044
0.22170551 0.051006608 0.70999998 4293256929
0.22305752 0.051008385 0.70999998 4293322722
0.22440942 0.05101015 0.70999998 4292796640
0.22703326 0.051299304 0.71399999 4292730846
0.22839281 0.051301081 0.71399999 4292927709
0.2303959 0.051446546 0.71600002 4292927709
0.23273027 0.051663879 0.71899998 4292730587
0.23442495 0.051737502 0.72000003 4292532952
0.23645078 0.051882979 0.722 4292532700
0.23815489 0.051956613 0.72299999 4292532700
0.24218188 0.052533288 0.73100001 4292467161
0.10567564 0.055074308 0.74900001 4293584606
0.10638274 0.054707952 0.74400002 4293650656
0.10750559 0.054562215 0.74199998 4293716195
0.1084741 0.054342929 0.73900002 4293848037
0.10972865 0.054270733 0.73799998 4293716708
0.11082889 0.054125007 0.736 4293716708
0.11192159 0.053979293 0.73400003 4293782757
0.11285236 0.053760026 0.73100001 4293716708
0.1137718 0.053540781 0.72799999 4293453790
0.11499628 0.053468626 0.727 4293716962
0.11637706 0.053470023 0.727 4293782757
0.117434 0.053324334 0.72500002 4293782757
0.11848336 0.053178653 0.72299999 4293782757
0.11969099 0.053106532 0.722 4293782757
0.12055951 0.052887302 0.71899998 4293978853
0.12192539 0.052888744 0.71899998 4293978853
0.12329137 0.052890208 0.71899998 4293848037
0.12413727 0.052671 0.71600002 4294045159
0.12514712 0.052525345 0.71399999 4293848550
0.12632658 0.052453261 0.713 4293848550
0.1276814 0.052454762 0.713 4293848550
0.12867433 0.052309133 0.71100003 4293914343
0.13002546 0.052310649 0.71100003 4293848550
0.13119186 0.052238595 0.70999998 4294177259
0.13216785 0.052092966 0.708 4294046443
0.13332489 0.052020945 0.70700002 4294046443
0.13466865 0.052022487 0.70700002 4294045930
0.13601246 0.052024044 0.70700002 4294045930
0.13716206 0.051952027 0.70599997 4293980652
0.13850412 0.05195361 0.70599997 4293914603
0.1400443 0.052028786 0.70700002 4293980650
0.14118837 0.051956788 0.70599997 4294046443
0.14253059 0.05195839 0.70599997 4294045932
0.14326152 0.051739208 0.70300001 4294177261
0.14459816 0.05174084 0.70300001 4293980137
0.14551964 0.051595256 0.70099998 4293980137
0.14664309 0.051523276 0.69999999 4293980137
0.14797419 0.051524907 0.69999999 4293980137
0.14930534 0.051526561 0.69999999 4294045930
0.15063655 0.051528215 0.69999999 4294045930
0.15153362 0.051382646 0.69800001 4294045932
0.15286115 0.051384311 0.69800001 4294177261
0.15418871 0.051385984 0.69800001 4294045678
0.15551634 0.051387664 0.69800001 4294045678
0.15684402 0.051389351 0.69800001 4294045678
0.15817173 0.051391035 0.69800001 4294045678
0.159271 0.051319104 0.69700003 4294045932
0.16059695 0.051320817 0.69700003 4293980139
0.16192292 0.05132252 0.69700003 4293979885
0.16324894 0.051324233 0.69700003 4293979885
0.16457504 0.051325951 0.69700003 4293914091
0.16590117 0.051327687 0.69700003 4293914091
0.16722733 0.051329415 0.69700003 4293914091
0.16855358 0.051331155 0.69700003 4293914091
0.16987984 0.051332891 0.69700003 4293783275
0.17120616 0.051334642 0.69700003 4293717482
0.17253251 0.051336385 0.69700003 4293717482
0.17385894 0.051338147 0.69700003 4293717482
0.174934 0.051266238 0.69599998 4293783273
0.17625864 0.051268008 0.69599998 4293783273
0.17758323 0.051269766 0.69599998 4293585381
0.17890792 0.051271535 0.69599998 4293716710
0.18023263 0.051273309 0.69599998 4293519588
0.18155739 0.051275082 0.69599998 4293848296
0.18288219 0.051276859 0.69599998 4293717480
0.18420699 0.051278632 0.69599998 4293717480
0.18553187 0.051280417 0.69599998 4293717482
0.18685673 0.051282201 0.69599998 4293651689
0.18818167 0.051283985 0.69599998 4293717482
0.18950664 0.051285774 0.69599998 4293717482
0.19083163 0.051287569 0.69599998 4293519847
0.19215664 0.05128935 0.69599998 4293519847
0.19375966 0.051364832 0.69700003 4293519847
0.19508666 0.051366631 0.69700003 4293519847
0.19641368 0.051368423 0.69700003 4293454054
0.19774069 0.051370215 0.69700003 4293322724
0.19906776 0.05137201 0.69700003 4293322722
0.20068233 0.051447507 0.69800001 4293256929
0.20201132 0.051449303 0.69800001 4293191138
0.20334031 0.051451091 0.69800001 4293256931
0.20525578 0.051600318 0.69999999 4293387749
0.20658863 0.051602107 0.69999999 4293387749
0.20821853 0.051677626 0.70099998 4293256677
0.20955335 0.051679421 0.70099998 4293256677
0.21148978 0.05182866 0.70300001 4293256931
0.21313114 0.051904183 0.704 4293322724
0.21508092 0.052053437 0.70599997 4293257444
0.21673182 0.052128963 0.70700002 4293191651
0.21838652 0.05220449 0.708 4293125091
0.22035538 0.052353762 0.70999998 4293059298
0.22170728 0.052355561 0.70999998 4293059296
0.22305928 0.052357353 0.70999998 4292993503
0.22441117 0.05235913 0.70999998 4292927712
0.22608112 0.052434672 0.71100003 4292796126
0.2280747 0.052583944 0.713 4292796380
0.23039769 0.052806985 0.71600002 4292927709
0.23208468 0.052882515 0.71700001 4292664540
0.23442671 0.053105574 0.72000003 4292598747
0.23645258 0.053254869 0.722 4292532954
0.23815665 0.053330399 0.72299999 4292335575
0.2421837 0.053922299 0.73100001 4292269782
0.10567695 0.05649535 0.74900001 4293519067
0.10638407 0.056119531 0.74400002 4293782240
0.1075069 0.055970009 0.74199998 4293585633
0.10832866 0.055669628 0.73799998 4293716962
0.10973003 0.055670988 0.73799998 4293716962
0.11083026 0.055521484 0.736 4293782755
0.11146551 0.055145681 0.73100001 4293716960
0.11269939 0.05507163 0.73000002 4293716960
0.11361691 0.054846693 0.727 4293585629
0.11499769 0.054848112 0.727 4293783007
0.11605834 0.054698627 0.72500002 4293782755
0.11711147 0.054549165 0.72299999 4293782755
0.1184848 0.054550603 0.72299999 4293585379
0.11936088 0.054325704 0.72000003 4293585379
0.12056095 0.054251704 0.71899998 4293716195
0.12192687 0.05425318 0.71899998 4293782244
0.12294991 0.054103747 0.71700001 4293716710
0.12413877 0.054029774 0.71600002 4293848296
0.12514859 0.053880349 0.71399999 4293782757
0.12632811 0.053806402 0.713 4293716708
0.12768289 0.053807907 0.713 4293782503
0.12867583 0.053658504 0.71100003 4293848296
0.13002698 0.053660043 0.71100003 4293783527
0.1311934 0.053586118 0.70999998 4294112236
0.13216941 0.053436723 0.708 4293980650
0.13332644 0.053362805 0.70700002 4293980650
0.1346702 0.053364377 0.70700002 4294177261
0.13601404 0.053365957 0.70700002 4294045932
0.13716365 0.053292066 0.70599997 4293914857
0.1385057 0.053293664 0.70599997 4293980650
0.14004591 0.053370766 0.70700002 4293980650
0.14118998 0.053296894 0.70599997 4293914857
0.14253221 0.053298526 0.70599997 4293980137
0.14326315 0.053073682 0.70300001 4294243052
0.14459978 0.053075325 0.70300001 4294045161
0.14593647 0.053076964 0.70300001 4294045161
0.14664474 0.052852113 0.69999999 4294045161
0.14755309 0.05270277 0.69800001 4294045161
0.14888042 0.052704427 0.69800001 4293980137
0.15020782 0.052706093 0.69800001 4293980137
0.15153532 0.052707784 0.69800001 4293980137
0.15264381 0.052633949 0.69700003 4294045930
0.15396951 0.052635647 0.69700003 4293979885
0.15529522 0.052637335 0.69700003 4293914091
0.15662099 0.052639041 0.69700003 4293979885
0.15794684 0.052640762 0.69700003 4293979885
0.15927273 0.05264248 0.69700003 4293914091
0.16059865 0.052644201 0.69700003 4293848298
0.16192463 0.052645933 0.69700003 4293848298
0.16325067 0.052647673 0.69700003 4293914091
0.16457677 0.05264942 0.69700003 4293848298
0.16590291 0.052651174 0.69700003 4293848298
0.16722909 0.052652918 0.69700003 4293848298
0.16855533 0.05265468 0.69700003 4293848298
0.16988158 0.052656438 0.69700003 4293651435
0.17120793 0.052658215 0.69700003 4293651435
0.1725343 0.052659992 0.69700003 4293717482
0.1738607 0.052661765 0.69700003 4293717482
0.17518713 0.05266355 0.69700003 4293717478
0.17651364 0.05266533 0.69700003 4293783527
0.17784017 0.052667122 0.69700003 4293519847
0.1789097 0.05259335 0.69599998 4293454054
0.18023437 0.052595139 0.69599998 4293454054
0.18155916 0.052596938 0.69599998 4293717482
0.18288399 0.052598737 0.69599998 4293717478
0.1842088 0.052600536 0.69599998 4293717478
0.18553364 0.052602336 0.69599998 4293717480
0.18685853 0.052604146 0.69599998 4293520101
0.18818347 0.052605946 0.69599998 4293585640
0.18896388 0.052456584 0.69400001 4293651689
0.19028506 0.052458391 0.69400001 4293519847
0.19160625 0.05246019 0.69400001 4293454054
0.1937615 0.052688785 0.69700003 4293454054
0.19508848 0.052690595 0.69700003 4293519847
0.19641548 0.052692406 0.69700003 4293256929
0.19774249 0.052694224 0.69700003 4293125343
0.19935517 0.052771643 0.69800001 4293125089
0.20068412 0.052773461 0.69800001 4293191138
0.20201309 0.052775268 0.69800001 4293191138
0.20392476 0.052928306 0.69999999 4293191138
0.20525759 0.05293012 0.69999999 4293190884
0.20688556 0.053007558 0.70099998 4293190884
0.2082203 0.053009365 0.70099998 4293190884
0.20955512 0.053011175 0.70099998 4293190884
0.2114916 0.05316424 0.70300001 4293125089
0.21313295 0.053241681 0.704 4293125089
0.21508273 0.053394746 0.70599997 4293125856
0.21673365 0.053472202 0.70700002 4293125856
0.2183883 0.053549651 0.708 4293125089
0.21973647 0.053551465 0.708 4293125089
0.2217091 0.053704549 0.70999998 4292993503
0.22306105 0.053706355 0.70999998 4292796380
0.22441299 0.053708158 0.70999998 4292730333
0.22608291 0.053785611 0.71100003 4292730333
0.2280765 0.053938709 0.713 4292796378
0.23039947 0.054167461 0.71600002 4292993501
0.23208648 0.054244906 0.71700001 4292598747
0.23442847 0.054473665 0.72000003 4292598747
0.23645434 0.054626781 0.722 4292532954
0.23815846 0.054704234 0.72299999 4292335575
0.23953502 0.054706022 0.72299999 4292269782
0.10833003 0.057069909 0.73799998 4293520097
0.10973139 0.057071287 0.73799998 4293520097
0.11113282 0.057072684 0.73799998 4293520097
0.11146691 0.056532737 0.73100001 4293322974
0.11270077 0.056456808 0.73000002 4293520097
0.11361833 0.056226205 0.727 4293585629
0.11499912 0.056227643 0.727 4293717214
0.11605979 0.056074396 0.72500002 4293453792
0.11711291 0.055921149 0.72299999 4293585379
0.11832236 0.055845268 0.722 4293585379
0.11936234 0.055692043 0.72000003 4293716708
0.12056243 0.05561617 0.71899998 4293782244
0.12192836 0.055617657 0.71899998 4293782244
0.12295139 0.055464454 0.71700001 4293782757
0.12414028 0.055388607 0.71600002 4293848550
0.12515013 0.055235408 0.71399999 4293717478
0.1263296 0.055159569 0.713 4293651685
0.12768444 0.055161111 0.713 4293717478
0.12867738 0.055007935 0.71100003 4293783527
0.12984565 0.054932117 0.70999998 4293914857
0.13119496 0.054933686 0.70999998 4293914857
0.13217096 0.05478052 0.708 4293980137
0.13332801 0.054704722 0.70700002 4293980137
0.13467181 0.054706331 0.70700002 4293980137
0.13601564 0.054707922 0.70700002 4293980137
0.13716526 0.054632157 0.70599997 4293914857
0.13850732 0.054633781 0.70599997 4293980650
0.14004752 0.054712798 0.70700002 4293914857
0.14119162 0.054637048 0.70599997 4293914857
0.14213008 0.054483928 0.704 4293980137
0.1432648 0.054408181 0.70300001 4293980137
0.14460145 0.054409854 0.70300001 4294110953
0.14593813 0.054411519 0.70300001 4294110953
0.14664641 0.054180995 0.69999999 4294045159
0.14755474 0.054027874 0.69800001 4294110953
0.14888209 0.054029554 0.69800001 4293980137
