# .PCD v0.7 - Point Cloud Data file format
VERSION 0.7
FIELDS x y z rgba
SIZE 4 4 4 4
TYPE F F F U
COUNT 1 1 1 1
WIDTH 1048
HEIGHT 1
VIEWPOINT 0 0 0 1 0 0 0
POINTS 1048
DATA ascii
-0.19286817 -0.0017350459 0.76599997 4294967295
-0.19090948 -0.0017313223 0.764 4294967295
-0.18945442 -0.0017321225 0.764 4294967295
-0.18799943 -0.001732916 0.764 4294967295
-0.18654451 -0.0017337033 0.764 4294967295
-0.18508966 -0.0017344845 0.764 4294967295
-0.18363486 -0.0017352586 0.764 4294967295
-0.18218014 -0.0017360267 0.764 4294967295
-0.18072547 -0.001736788 0.764 4294967295
-0.17927086 -0.0017375431 0.764 4294967295
-0.17781635 -0.0017382918 0.764 4294967295
-0.17682356 -0.0017435865 0.76599997 4294967295
-0.17536536 -0.0017443241 0.76599997 4294967295
-0.17390725 -0.0017450558 0.76599997 4294967295
-0.17244922 -0.0017457809 0.76599997 4294967295
-0.17099123 -0.0017464994 0.76599997 4294967295
-0.16953333 -0.0017472118 0.76599997 4294967295
-0.1680755 -0.0017479178 0.76599997 4294967295
-0.16661774 -0.0017486175 0.76599997 4294967295
-0.16472885 -0.0017447437 0.764 4294967295
-0.16327503 -0.0017454283 0.764 4294967295
-0.16139773 -0.0017415365 0.76200002 4294967295
-0.15994786 -0.0017422072 0.76200002 4294967295
-0.15849809 -0.0017428715 0.76200002 4294967295
-0.1570484 -0.0017435295 0.76200002 4294967295
-0.15600716 -0.0017487592 0.764 4294967295
-0.15455385 -0.0017494065 0.764 4294967295
-0.15310057 -0.0017500473 0.764 4294967295
-0.15164739 -0.001750682 0.764 4294967295
-0.15058744 -0.0017558951 0.76599997 4294967295
-0.1491306 -0.0017565187 0.76599997 4294967295
-0.14767383 -0.001757136 0.76599997 4294967295
-0.14621715 -0.0017577471 0.76599997 4294967295
-0.14494956 -0.001760648 0.76700002 4294967295
-0.14349112 -0.0017612474 0.76700002 4294967295
-0.14203277 -0.0017618407 0.76700002 4294967295
-0.14094104 -0.0017670229 0.76899999 4294967295
-0.13947906 -0.0017676053 0.76899999 4294967295
-0.1383761 -0.0017727801 0.77100003 4294967295
-0.13691047 -0.0017733512 0.77100003 4294967295
-0.13544491 -0.001773916 0.77100003 4294967295
-0.13432696 -0.0017790778 0.773 4294967295
-0.13285774 -0.0017796315 0.773 4294967295
-0.13138863 -0.0017801793 0.773 4294967295
-0.12991959 -0.0017807203 0.773 4294967295
-0.12861678 -0.0017835599 0.77399999 4294967295
-0.12714599 -0.0017840894 0.77399999 4294967295
-0.12567528 -0.0017846123 0.77399999 4294967295
-0.12452558 -0.0017897425 0.77600002 4294967295
-0.12336838 -0.0017948687 0.778 4294967295
-0.12189028 -0.0017953756 0.778 4294967295
-0.1207218 -0.001800493 0.77999997 4294967295
-0.11924011 -0.0018009889 0.77999997 4294967295
-0.11775844 -0.0018014784 0.77999997 4294967295
-0.11627687 -0.0018019618 0.77999997 4294967295
-0.11494254 -0.0018047497 0.78100002 4294967295
-0.11374979 -0.0018098439 0.78299999 4294967295
-0.11254951 -0.0018149344 0.78500003 4294967295
-0.11134168 -0.0018200208 0.787 4294967295
-0.1098472 -0.001820477 0.787 4294967295
-0.10862814 -0.0018255541 0.78899997 4294967295
-0.10726576 -0.0018283132 0.79000002 4294967294
-0.1057658 -0.0018287523 0.79000002 4294967294
-0.10532176 -0.001847708 0.79799998 4294967295
-0.10380676 -0.0018481388 0.79799998 4294967293
-0.1025482 -0.0018531962 0.80000001 4294901754
-0.10166097 -0.0018652001 0.80500001 4294835705
-0.10063045 -0.0018748853 0.80900002 4294703605
-0.099094853 -0.0018752962 0.80900002 4294637812
-0.097800501 -0.0018803375 0.81099999 4294308334
-0.096261263 -0.0018807367 0.81099999 4294505712
-0.096123636 -0.0019089633 0.82300001 4294440688
-0.094561756 -0.0019093552 0.82300001 4294967290
-0.093225941 -0.0019143813 0.82499999 4294376189
-0.091660388 -0.0019147608 0.82499999 4289112749
-0.22751091 -0.00027225129 0.79000002 4294374652
-0.22571914 -0.00027289998 0.78899997 4294967295
-0.22364709 -0.00027319239 0.787 4294967295
-0.22158271 -0.00027347321 0.78500003 4294967295
-0.22008674 -0.00027444164 0.78500003 4294967295
-0.21859075 -0.00027540341 0.78500003 4294967295
-0.21654177 -0.00027565449 0.78299999 4294967295
-0.21312721 -0.00027412784 0.77600002 4294967295
-0.21164857 -0.00027505899 0.77600002 4294967295
-0.20962825 -0.00027527226 0.77399999 4294967295
-0.20788456 -0.00027583115 0.773 4294967295
-0.20641179 -0.00027673913 0.773 4294967295
-0.20440881 -0.00027692231 0.77100003 4294967295
-0.20293997 -0.00027781495 0.77100003 4294967295
-0.20094852 -0.00027797811 0.76899999 4294967295
-0.19948353 -0.00027885547 0.76899999 4294967295
-0.19801866 -0.0002797264 0.76899999 4294967295
-0.19604264 -0.00027986109 0.76700002 4294967295
-0.19432798 -0.00028035085 0.76599997 4294967295
-0.19286901 -0.00028119903 0.76599997 4294967295
-0.19091029 -0.00028130438 0.764 4294967295
-0.18945524 -0.00028213754 0.764 4294967295
-0.18800026 -0.00028296426 0.764 4294967295
-0.18654531 -0.00028378452 0.764 4294967295
-0.18509042 -0.00028459841 0.764 4294967295
-0.18363562 -0.00028540584 0.764 4294967295
-0.1821809 -0.00028620689 0.764 4294967295
-0.18072623 -0.00028700149 0.764 4294967295
-0.17927164 -0.00028778974 0.764 4294967295
-0.17781712 -0.00028857152 0.764 4294967295
-0.17682433 -0.00029010442 0.76599997 4294967295
-0.17536613 -0.00029087538 0.76599997 4294967295
-0.173908 -0.00029163994 0.76599997 4294967295
-0.17244995 -0.00029239809 0.76599997 4294967295
-0.17099197 -0.00029314985 0.76599997 4294967295
-0.16953406 -0.00029389511 0.76599997 4294967295
-0.16807623 -0.00029463402 0.76599997 4294967295
-0.16618344 -0.00029459535 0.764 4294967295
-0.16472957 -0.00029531948 0.764 4294967295
-0.16327576 -0.00029603729 0.764 4294967295
-0.16139838 -0.00029597181 0.76200002 4294967295
-0.15994856 -0.00029667493 0.76200002 4294967295
-0.15849875 -0.00029737168 0.76200002 4294967295
-0.15704907 -0.00029806205 0.76200002 4294967295
-0.15600784 -0.00029953016 0.764 4294967295
-0.15455449 -0.00030020956 0.764 4294967295
-0.15310122 -0.00030088259 0.764 4294967295
-0.151648 -0.00030154921 0.764 4294967295
-0.15058808 -0.00030300056 0.76599997 4294967295
-0.14913122 -0.0003036561 0.76599997 4294967295
-0.14767449 -0.00030430531 0.76599997 4294967295
-0.14621778 -0.00030494804 0.76599997 4294967295
-0.14476116 -0.00030558443 0.76599997 4294967295
-0.14349172 -0.00030661415 0.76700002 4294967295
-0.14203337 -0.00030723854 0.76700002 4294967295
-0.14057511 -0.00030785656 0.76700002 4294967295
-0.13947964 -0.00030927244 0.76899999 4294967295
-0.13837671 -0.00031068517 0.77100003 4294967295
-0.13691105 -0.00031128703 0.77100003 4294967295
-0.13544549 -0.00031188253 0.77100003 4294967295
-0.13432753 -0.0003132821 0.773 4294967295
-0.13285832 -0.00031386624 0.773 4294967295
-0.13138917 -0.00031444387 0.773 4294967295
-0.12992013 -0.00031501512 0.773 4294967295
-0.12845115 -0.00031557988 0.773 4294967295
-0.12698227 -0.0003161382 0.773 4294967295
-0.12567583 -0.00031709985 0.77399999 4294967295
-0.12420517 -0.00031764593 0.77399999 4294967295
-0.12305175 -0.00031900787 0.77600002 4294967295
-0.12189081 -0.00032036606 0.778 4294967295
-0.12041279 -0.0003208956 0.778 4294967295
-0.1192406 -0.00032224492 0.77999997 4294967295
-0.11775897 -0.00032276285 0.77999997 4294967295
-0.11627738 -0.00032327423 0.77999997 4294967295
-0.11494305 -0.00032419429 0.78100002 4294967295
-0.11345973 -0.00032469336 0.78100002 4294967295
-0.1122632 -0.00032601858 0.78299999 4294967295
-0.11134215 -0.00032817389 0.787 4294967295
-0.10984766 -0.00032865716 0.787 4294967295
-0.10862859 -0.00032997024 0.78899997 4294967293
-0.10726621 -0.00033086044 0.79000002 4294967292
-0.10576624 -0.00033132581 0.79000002 4294967292
-0.10532221 -0.00033514446 0.79799998 4294967292
-0.1038072 -0.00033560127 0.79799998 4294901754
-0.102805 -0.0003377359 0.80199999 4294901752
-0.10140882 -0.00033860336 0.80299997 4294638580
-0.10063087 -0.00034157635 0.80900002 4294637812
-0.09909527 -0.00034201256 0.80900002 4294506483
-0.097559743 -0.0003424421 0.80900002 4294308847
-0.096261665 -0.00034371245 0.81099999 4294374640
-0.09472248 -0.00034412954 0.81099999 4294505708
-0.093183368 -0.00034453991 0.81099999 4294834930
-0.090105325 -0.00034534035 0.81099999 4291481032
-0.22959733 0.0012319413 0.792 4293717743
-0.22751193 0.0012277974 0.79000002 4294967295
-0.22572012 0.0012252178 0.78899997 4294967295
-0.22364807 0.0012210959 0.787 4294967295
-0.22158369 0.0012169856 0.78500003 4294967295
-0.21952698 0.0012128868 0.78299999 4294967295
-0.21803483 0.001211895 0.78299999 4294967295
-0.21654275 0.0012109099 0.78299999 4294967295
-0.21367742 0.0012022047 0.778 4294967295
-0.21164949 0.0011981507 0.77600002 4294967295
-0.20935835 0.0011925652 0.773 4294967295
-0.2078855 0.001191618 0.773 4294967295
-0.20587865 0.0011875968 0.77100003 4294967295
-0.20440973 0.0011866649 0.77100003 4294967295
-0.20294087 0.0011857395 0.77100003 4294967295
-0.20094942 0.0011817468 0.76899999 4294967295
-0.19948445 0.0011808367 0.76899999 4294967295
-0.19801953 0.0011799327 0.76899999 4294967295
-0.19604354 0.0011759689 0.76700002 4294967295
-0.19432884 0.0011735481 0.76599997 4294967295
-0.19286987 0.0011726668 0.76599997 4294967295
-0.19091114 0.0011687325 0.764 4294967295
-0.18945609 0.0011678665 0.764 4294967295
-0.18800108 0.0011670068 0.764 4294967295
-0.18654613 0.0011661533 0.764 4294967295
-0.18509129 0.0011653065 0.764 4294967295
-0.18363647 0.0011644659 0.764 4294967295
-0.18218172 0.0011636317 0.764 4294967295
-0.18072703 0.001162804 0.764 4294967295
-0.17927246 0.0011619829 0.764 4294967295
-0.1778179 0.0011611677 0.764 4294967295
-0.17682511 0.0011633968 0.76599997 4294967295
-0.17536691 0.0011625927 0.76599997 4294967295
-0.17390877 0.001161795 0.76599997 4294967295
-0.17245071 0.0011610038 0.76599997 4294967295
-0.17099273 0.0011602191 0.76599997 4294967295
-0.1695348 0.0011594406 0.76599997 4294967295
-0.16763814 0.0011556436 0.764 4294967295
-0.16618419 0.0011548804 0.764 4294967295
-0.1647303 0.0011541233 0.764 4294967295
-0.16284905 0.0011503536 0.76200002 4294967295
-0.16139911 0.0011496117 0.76200002 4294967295
-0.15973935 0.0011473683 0.76099998 4294967295
-0.15829146 0.0011466402 0.76099998 4294967295
-0.15684366 0.0011459183 0.76099998 4294967295
-0.15560015 0.001146708 0.76200002 4294967295
-0.15455519 0.0011490063 0.764 4294967295
-0.15310191 0.0011483012 0.764 4294967295
-0.1516487 0.0011476027 0.764 4294967295
-0.15058877 0.0011499129 0.76599997 4294967295
-0.14913189 0.0011492255 0.76599997 4294967295
-0.14767514 0.0011485446 0.76599997 4294967295
-0.14621845 0.0011478703 0.76599997 4294967295
-0.14476183 0.0011472024 0.76599997 4294967295
-0.14330529 0.0011465412 0.76599997 4294967295
-0.14203401 0.0011473824 0.76700002 4294967295
-0.14057572 0.0011467334 0.76700002 4294967295
-0.13911752 0.0011460911 0.76700002 4294967295
-0.13837732 0.0011514289 0.77100003 4294967295
-0.13691166 0.0011507963 0.77100003 4294967295
-0.1354461 0.0011501703 0.77100003 4294967295
-0.1339806 0.0011495508 0.77100003 4294967295
-0.13251516 0.001148938 0.77100003 4294967295
-0.13104983 0.0011483318 0.77100003 4294967295
-0.12958458 0.0011477323 0.77100003 4294967295
-0.12845172 0.0011501148 0.773 4294967295
-0.12698282 0.001149527 0.773 4294967295
-0.12551402 0.0011489458 0.773 4294967295
-0.12420573 0.0011498568 0.77399999 4294967295
-0.12305231 0.0011522579 0.77600002 4294967295
-0.12189135 0.0011546627 0.778 4294967295
-0.12041332 0.0011541045 0.778 4294967293
-0.11924114 0.0011565185 0.77999997 4294967294
-0.11775947 0.0011559722 0.77999997 4294967295
-0.1162779 0.0011554327 0.77999997 4294967295
-0.11494356 0.0011563805 0.78100002 4294967294
-0.11346023 0.0011558537 0.78100002 4294967293
-0.11226374 0.0011582924 0.78299999 4294967293
-0.11134265 0.0011636924 0.787 4294967294
-0.10984816 0.0011631821 0.787 4294967292
-0.10862906 0.0011656332 0.78899997 4294967291
-0.10726669 0.0011666119 0.79000002 4294835191
-0.10576673 0.0011661201 0.79000002 4294967034
-0.10532268 0.001177439 0.79799998 4294835705
-0.10380768 0.001176956 0.79799998 4294835705
-0.10254909 0.0011794285 0.80000001 4294835705
-0.101283 0.0011819055 0.80199999 4294572789
-0.10038254 0.0011888065 0.80699998 4294441203
-0.099095725 0.001191291 0.80900002 4294243824
-0.097560175 0.0011908364 0.80900002 4294177259
-0.096262105 0.0011933318 0.81099999 4294243052
-0.094722897 0.0011928901 0.81099999 4294176746
-0.093183778 0.0011924555 0.81099999 4294637297
-0.22959842 0.0027358399 0.792 4294377471
-0.22751296 0.0027278666 0.79000002 4294967295
-0.22600725 0.0027268075 0.79000002 4294967295
-0.22364913 0.0027154044 0.787 4294967295
-0.22158471 0.0027074644 0.78500003 4294967295
-0.21952796 0.0026995358 0.78299999 4294967295
-0.21803586 0.002698512 0.78299999 4294967295
-0.2159906 0.002690604 0.78100002 4294967295
-0.21312913 0.0026723763 0.77600002 4294967295
-0.21110496 0.0026644953 0.77399999 4294967295
-0.20935932 0.0026600668 0.773 4294967295
-0.20734859 0.0026522074 0.77100003 4294967295
-0.20587963 0.0026512365 0.77100003 4294967295
-0.2038804 0.0026433971 0.76899999 4294967295
-0.20241535 0.0026424408 0.76899999 4294967295
-0.20095031 0.0026414911 0.76899999 4294967295
-0.19896658 0.0026336813 0.76700002 4294967295
-0.19750547 0.0026327469 0.76700002 4294967295
-0.19578882 0.0026283872 0.76599997 4294967295
-0.19382235 0.0026206067 0.764 4294967295
-0.19236718 0.0026196945 0.764 4294967295
-0.19091204 0.002618789 0.764 4294967295
-0.18945695 0.0026178902 0.764 4294967295
-0.18800196 0.0026169976 0.764 4294967295
-0.186547 0.002616111 0.764 4294967295
-0.18509212 0.0026152311 0.764 4294967295
-0.18363731 0.002614357 0.764 4294967295
-0.18170564 0.0026066485 0.76200002 4294967295
-0.18025477 0.00260579 0.76200002 4294967295
-0.17927328 0.0026117747 0.764 4294967295
-0.17781872 0.0026109267 0.764 4294967295
-0.17636426 0.0026100855 0.764 4294967295
-0.17490986 0.0026092504 0.764 4294967295
-0.17345551 0.0026084215 0.764 4294967295
-0.17200127 0.0026075996 0.764 4294967295
-0.17099352 0.0026136078 0.76599997 4294967295
-0.16909295 0.0026059747 0.764 4294967295
-0.16763891 0.0026051719 0.764 4294967295
-0.16618496 0.0026043758 0.764 4294967295
-0.16473106 0.0026035861 0.764 4294967295
-0.16284983 0.0025959895 0.76200002 4294967295
-0.16118805 0.0025918093 0.76099998 4294967295
-0.15974009 0.0025910421 0.76099998 4294967295
-0.1582922 0.0025902814 0.76099998 4294967295
-0.15684441 0.0025895275 0.76099998 4294967295
-0.15539666 0.0025887799 0.76099998 4294967295
-0.15415132 0.0025914402 0.76200002 4294967295
-0.15310262 0.0025975048 0.764 4294967295
-0.15164942 0.0025967741 0.764 4294967295
-0.15019628 0.00259605 0.764 4294967295
-0.14913261 0.0026021271 0.76599997 4294967295
-0.14767583 0.0026014145 0.76599997 4294967295
-0.14621913 0.0026007087 0.76599997 4294967295
-0.14476252 0.0026000098 0.76599997 4294967295
-0.14330597 0.0025993171 0.76599997 4294967295
-0.14203466 0.0026020235 0.76700002 4294967295
-0.14057639 0.0026013434 0.76700002 4294967295
-0.13911818 0.0026006703 0.76700002 4294967295
-0.13766003 0.0026000035 0.76700002 4294967295
-0.13655713 0.0026061214 0.76899999 4294967295
-0.13509536 0.0026054664 0.76899999 4294967295
-0.13398121 0.0026115931 0.77100003 4294967295
-0.13251577 0.00261095 0.77100003 4294967295
-0.13105044 0.0026103137 0.77100003 4294967295
-0.12958518 0.0026096846 0.77100003 4294967295
-0.12812001 0.002609062 0.77100003 4294967295
-0.12665488 0.0026084462 0.77100003 4294967295
-0.12551458 0.002614602 0.773 4294967295
-0.12404585 0.0026139983 0.773 4294967295
-0.12273572 0.0026167817 0.77399999 4294967295
-0.12157859 0.0026229515 0.77600002 4294967295
-0.1204139 0.002629125 0.778 4294967295
-0.1192417 0.0026353018 0.77999997 4294967295
-0.11776003 0.0026347276 0.77999997 4294967295
-0.11627842 0.0026341595 0.77999997 4294967295
-0.11494409 0.0026369756 0.78100002 4294967293
-0.11346075 0.0026364212 0.78100002 4294967292
-0.11226425 0.0026426238 0.78299999 4294967293
-0.11134319 0.0026555797 0.787 4294967293
-0.10984866 0.0026550419 0.787 4294967290
-0.10862959 0.0026612573 0.78899997 4294967289
-0.10726722 0.002664105 0.79000002 4294901241
-0.10603499 0.00267033 0.792 4294901241
-0.10532318 0.0026900435 0.79799998 4294901239
-0.10380815 0.0026895339 0.79799998 4294901239
-0.10229321 0.0026890321 0.79799998 4294572787
-0.1010309 0.0026952757 0.80000001 4294375408
-0.10013425 0.0027116293 0.80500001 4294178031
-0.098851211 0.0027178801 0.80699998 4293585894
-0.097560644 0.0027241362 0.80900002 4293848548
-0.096025169 0.0027236638 0.80900002 4294046184
-0.094723359 0.0027299309 0.81099999 4294242795
-0.09295442 0.0027227409 0.80900002 4294374381
-0.091419153 0.0027222903 0.80900002 4294243824
-0.22901972 0.0042290525 0.79000002 4294966271
-0.22751401 0.0042279563 0.79000002 4294967295
-0.22572227 0.0042215153 0.78899997 4294967295
-0.22365019 0.004209734 0.787 4294967295
-0.22102121 0.0041872687 0.78299999 4294967295
-0.21952903 0.004186206 0.78299999 4294967295
-0.21747994 0.0041744597 0.78100002 4294967295
-0.21599165 0.0041734125 0.78100002 4294967295
-0.21313015 0.0041456595 0.77600002 4294967295
-0.211106 0.0041339486 0.77399999 4294967295
-0.20936029 0.0041275895 0.773 4294967295
-0.20734955 0.0041159 0.77100003 4294967295
-0.20588063 0.004114897 0.77100003 4294967295
-0.20388135 0.0041032275 0.76899999 4294967295
-0.2024163 0.0041022394 0.76899999 4294967295
-0.20095126 0.0041012568 0.76899999 4294967295
-0.19896752 0.0040896172 0.76700002 4294967295
-0.19750643 0.00408865 0.76700002 4294967295
-0.19578975 0.0040823589 0.76599997 4294967295
-0.19382328 0.00407075 0.764 4294967295
-0.19236809 0.0040698051 0.764 4294967295
-0.19091295 0.0040688664 0.764 4294967295
-0.18945786 0.0040679346 0.764 4294967295
-0.18800287 0.0040670093 0.764 4294967295
-0.18654789 0.0040660892 0.764 4294967295
-0.18509302 0.004065176 0.764 4294967295
-0.1836382 0.0040642694 0.764 4294967295
-0.18170655 0.0040527321 0.76200002 4294967295
-0.18025565 0.0040518409 0.76200002 4294967295
-0.17880484 0.0040509552 0.76200002 4294967295
-0.17781959 0.0040607071 0.764 4294967295
-0.17636512 0.0040598321 0.764 4294967295
-0.17491069 0.0040589636 0.764 4294967295
-0.17345637 0.0040581021 0.764 4294967295
-0.17200211 0.0040572472 0.764 4294967295
-0.17099436 0.0040670177 0.76599997 4294967295
-0.16909379 0.0040555568 0.764 4294967295
-0.16763975 0.0040547214 0.764 4294967295
-0.16618575 0.0040538916 0.764 4294967295
-0.16430062 0.0040424597 0.76200002 4294967295
-0.16285062 0.0040416457 0.76200002 4294967295
-0.16118884 0.0040355353 0.76099998 4294967295
-0.15974085 0.0040347362 0.76099998 4294967295
-0.15829296 0.0040339432 0.76099998 4294967295
-0.15684517 0.0040331581 0.76099998 4294967295
-0.15539743 0.0040323776 0.76099998 4294967295
-0.15415207 0.0040369034 0.76200002 4294967295
-0.15270258 0.0040361355 0.76200002 4294967295
-0.15125316 0.0040353751 0.76200002 4294967295
-0.15019701 0.0040452112 0.764 4294967295
-0.14874399 0.0040444625 0.764 4294967295
-0.14767654 0.0040543047 0.76599997 4294967295
-0.14621985 0.004053568 0.76599997 4294967295
-0.14476322 0.0040528369 0.76599997 4294967295
-0.14330667 0.0040521137 0.76599997 4294967295
-0.14185019 0.0040513962 0.76599997 4294967295
-0.14039379 0.004050686 0.76599997 4294967295
-0.13893749 0.0040499829 0.76599997 4294967295
-0.13766071 0.0040545724 0.76700002 4294967295
-0.13620268 0.0040538828 0.76700002 4294967295
-0.13474466 0.0040531987 0.76700002 4294967295
-0.13363431 0.0040630894 0.76899999 4294967295
-0.1321727 0.0040624184 0.76899999 4294967295
-0.13071114 0.0040617534 0.76899999 4294967295
-0.12958583 0.0040716585 0.77100003 4294967295
-0.12812063 0.0040710056 0.77100003 4294967295
-0.12665552 0.0040703611 0.77100003 4294967295
-0.12551521 0.0040802788 0.773 4294967295
-0.12404646 0.0040796469 0.773 4294967295
-0.12257777 0.004079021 0.773 4294967295
-0.12126584 0.0040836777 0.77399999 4294967295
-0.12010496 0.0040936163 0.77600002 4294967295
-0.11893655 0.0041035577 0.778 4294967294
-0.11776061 0.0041135037 0.77999997 4294967294
-0.11627901 0.0041129077 0.77999997 4294967295
-0.11494469 0.0041175927 0.78100002 4294967294
-0.11375189 0.0041275537 0.78299999 4294967293
-0.1122648 0.0041269772 0.78299999 4294967291
-0.11134374 0.0041474886 0.787 4294967291
-0.10984922 0.0041469233 0.787 4294901754
-0.10863014 0.0041569029 0.78899997 4294901754
-0.10753931 0.0041721552 0.792 4294704375
-0.1063033 0.0041821441 0.79400003 4294704375
-0.10505974 0.0041921367 0.796 4294506994
-0.10380866 0.004202134 0.79799998 4294638580
-0.10229371 0.0042016068 0.79799998 4294375154
-0.10077883 0.0042010858 0.79799998 4294243824
-0.10013475 0.0042374204 0.80500001 4294309101
-0.098606713 0.00423691 0.80500001 4293980137
-0.097319938 0.0042469334 0.80699998 4293980137
-0.095788248 0.004246437 0.80699998 4294177259
-0.09449023 0.0042564715 0.80900002 4294177259
-0.092954889 0.0042559896 0.80900002 4294243052
-0.091419615 0.0042555151 0.80900002 4294046191
-0.08834926 0.0042545893 0.80900002 4291087823
-0.22902085 0.0057291957 0.79000002 4294967295
-0.22751515 0.0057280678 0.79000002 4294967295
-0.22572334 0.0057196948 0.78899997 4294967295
-0.22365129 0.0057040844 0.787 4294967295
-0.22102232 0.0056739924 0.78299999 4294967295
-0.21896937 0.0056584068 0.78100002 4294967295
-0.217481 0.0056573218 0.78100002 4294967295
-0.21571612 0.005648999 0.77999997 4294967295
-0.21313119 0.0056189639 0.77600002 4294967295
-0.21083425 0.0055961828 0.773 4294967295
-0.20936134 0.0055951322 0.773 4294967295
-0.20735057 0.0055796136 0.77100003 4294967295
-0.20588161 0.0055785784 0.77100003 4294967295
-0.2038824 0.0055630798 0.76899999 4294967295
-0.20241731 0.0055620582 0.76899999 4294967295
-0.20042963 0.0055465801 0.76700002 4294967295
-0.19896851 0.0055455747 0.76700002 4294967295
-0.19724987 0.0055373451 0.76599997 4294967295
-0.19579072 0.0055363523 0.76599997 4294967295
-0.19382426 0.0055209133 0.764 4294967295
-0.1918655 0.0055054864 0.76200002 4294967295
-0.19041415 0.0055045174 0.76200002 4294967295
-0.18896285 0.0055035544 0.76200002 4294967295
-0.18751165 0.0055025984 0.76200002 4294967295
-0.1860605 0.0055016489 0.76200002 4294967295
-0.18460941 0.005500705 0.76200002 4294967295
-0.1831584 0.0054997676 0.76200002 4294967295
-0.18170741 0.0054988363 0.76200002 4294967295
-0.18025655 0.0054979124 0.76200002 4294967295
-0.17880574 0.0054969941 0.76200002 4294967295
-0.17735498 0.0054960819 0.76200002 4294967295
-0.176366 0.0055096005 0.764 4294967295
-0.17491157 0.0055086981 0.764 4294967295
-0.17345725 0.005507804 0.764 4294967295
-0.17200299 0.0055069164 0.764 4294967295
-0.17099522 0.0055204476 0.76599997 4294967295
-0.16909464 0.005505159 0.764 4294967295
-0.1676406 0.0055042915 0.764 4294967295
-0.16575156 0.0054890225 0.76200002 4294967295
-0.16430146 0.0054881694 0.76200002 4294967295
-0.1626377 0.0054801218 0.76099998 4294967295
-0.16118966 0.0054792841 0.76099998 4294967295
-0.15932187 0.0054640542 0.759 4294967295
-0.15787776 0.0054632304 0.759 4294967295
-0.15643378 0.0054624155 0.759 4294967295
-0.1553982 0.0054759965 0.76099998 4294967295
-0.15415286 0.0054823863 0.76200002 4294967295
-0.15270334 0.0054815873 0.76200002 4294967295
-0.15125394 0.0054807956 0.76200002 4294967295
-0.14980459 0.0054800091 0.76200002 4294967295
-0.14874472 0.0054936125 0.764 4294967295
-0.14729173 0.0054928381 0.764 4294967295
-0.14583883 0.0054920712 0.764 4294967295
-0.14476396 0.0055056866 0.76599997 4294967295
-0.1433074 0.0055049313 0.76599997 4294967295
-0.14185092 0.0055041835 0.76599997 4294967295
-0.14039452 0.0055034421 0.76599997 4294967295
-0.1389382 0.0055027083 0.76599997 4294967295
-0.13766146 0.0055091646 0.76700002 4294967295
-0.13620336 0.0055084419 0.76700002 4294967295
-0.13474537 0.005507729 0.76700002 4294967295
-0.133635 0.0055213822 0.76899999 4294967295
-0.13217336 0.00552068 0.76899999 4294967295
-0.13071181 0.0055199857 0.76899999 4294967295
-0.12925035 0.0055192988 0.76899999 4294967295
-0.1281213 0.005532972 0.77100003 4294967295
-0.12665619 0.0055322973 0.77100003 4294967295
-0.12519112 0.0055316291 0.77100003 4294967295
-0.12372617 0.0055309692 0.77100003 4294967295
-0.12257839 0.0055446611 0.773 4294967295
-0.12110978 0.0055440143 0.773 4294967295
-0.12010557 0.005564888 0.77600002 4294967294
-0.11863142 0.0055642528 0.77600002 4294967294
-0.11715735 0.0055636251 0.77600002 4294967292
-0.1159815 0.0055773426 0.778 4294967293
-0.1147981 0.0055910633 0.77999997 4294967292
-0.11346193 0.0055976212 0.78100002 4294967291
-0.11226539 0.0056113517 0.78299999 4294901500
-0.11106136 0.0056250878 0.78500003 4294901500
-0.10984979 0.0056388276 0.787 4294901754
-0.1086307 0.0056525716 0.78899997 4294704375
-0.10753986 0.0056734844 0.792 4294835445
-0.10630384 0.0056872373 0.79400003 4294769652
-0.10506029 0.0057009943 0.796 4294703603
-0.10380922 0.0057147569 0.79799998 4294769652
-0.10229424 0.0057142032 0.79799998 4294440436
-0.10077934 0.0057136575 0.79799998 4294308849
-0.099886484 0.0057489155 0.80299997 4294374894
-0.098362252 0.0057483818 0.80299997 4294374894
-0.096838064 0.0057478561 0.80299997 4294045930
-0.095551364 0.0057616518 0.80500001 4294045930
-0.094490729 0.0057897675 0.80900002 4294045930
-0.092955373 0.0057892608 0.80900002 4293980137
-0.091420099 0.0057887635 0.80900002 4293980398
-0.089884877 0.0057882727 0.80900002 4293980398
-0.23052774 0.0072305268 0.79000002 4291476435
-0.22902195 0.0072293598 0.79000002 4294967295
-0.22751629 0.0072282008 0.79000002 4294967295
-0.2257245 0.007217898 0.78899997 4294967295
-0.22308406 0.0071801646 0.78500003 4294967295
-0.22102337 0.0071607367 0.78299999 4294967295
-0.21897046 0.0071413242 0.78100002 4294967295
-0.21720365 0.0071310629 0.77999997 4294967295
-0.21516412 0.0071116704 0.778 4294967295
-0.21258292 0.0070740087 0.77399999 4294967295
-0.21083532 0.00706378 0.773 4294967295
-0.2088207 0.0070444238 0.77100003 4294967295
-0.20735164 0.00704335 0.77100003 4294967295
-0.20588267 0.0070422813 0.77100003 4294967295
-0.20388344 0.0070229541 0.76899999 4294967295
-0.20241834 0.0070218989 0.76899999 4294967295
-0.20043071 0.007002593 0.76700002 4294967295
-0.1989695 0.0070015532 0.76700002 4294967295
-0.19725086 0.0069913925 0.76599997 4294967295
-0.19579177 0.0069903675 0.76599997 4294967295
-0.19382526 0.0069711008 0.764 4294967295
-0.19186647 0.0069518429 0.76200002 4294967295
-0.19041511 0.0069508413 0.76200002 4294967295
-0.18896386 0.0069498466 0.76200002 4294967295
-0.18751261 0.0069488566 0.76200002 4294967295
-0.18606146 0.0069478746 0.76200002 4294967295
-0.18461038 0.0069468985 0.76200002 4294967295
-0.18315935 0.0069459272 0.76200002 4294967295
-0.1817084 0.0069449632 0.76200002 4294967295
-0.1802575 0.0069440054 0.76200002 4294967295
-0.17880668 0.006943055 0.76200002 4294967295
-0.17735589 0.0069421097 0.76200002 4294967295
-0.17636691 0.0069593894 0.764 4294967295
-0.17491248 0.0069584553 0.764 4294967295
-0.17345816 0.0069575282 0.764 4294967295
-0.17200387 0.0069566076 0.764 4294967295
-0.17054968 0.006955693 0.764 4294967295
-0.16865286 0.0069365785 0.76200002 4294967295
-0.16720261 0.0069356794 0.76200002 4294967295
-0.16575244 0.0069347881 0.76200002 4294967295
-0.16408671 0.0069248024 0.76099998 4294967295
-0.16263856 0.0069239242 0.76099998 4294967295
-0.16119051 0.0069230534 0.76099998 4294967295
-0.15932271 0.0069039972 0.759 4294967295
-0.15787861 0.0069031431 0.759 4294967295
-0.15643458 0.0069022938 0.759 4294967295
-0.15539902 0.0069196378 0.76099998 4294967295
-0.15415367 0.006927893 0.76200002 4294967295
-0.15270419 0.0069270618 0.76200002 4294967295
-0.15125476 0.0069262385 0.76200002 4294967295
-0.14980541 0.0069254204 0.76200002 4294967295
-0.14874551 0.0069427853 0.764 4294967295
-0.14729251 0.0069419793 0.764 4294967295
-0.14583959 0.0069411816 0.764 4294967295
-0.14438677 0.0069403895 0.764 4294967295
-0.14330816 0.0069577713 0.76599997 4294967295
-0.14185166 0.0069569927 0.76599997 4294967295
-0.14039527 0.0069562215 0.76599997 4294967295
-0.13893893 0.0069554555 0.76599997 4294967295
-0.13766219 0.0069637774 0.76700002 4294967295
-0.13620411 0.0069630267 0.76700002 4294967294
-0.1347461 0.0069622826 0.76700002 4294967295
-0.13328816 0.0069615445 0.76700002 4294967295
-0.13217409 0.0069789658 0.76899999 4294967295
-0.13071252 0.0069782408 0.76899999 4294967295
-0.12925105 0.0069775246 0.76899999 4294967295
-0.12812199 0.0069949599 0.77100003 4294967294
-0.12665685 0.0069942554 0.77100003 4294967295
-0.12519179 0.0069935597 0.77100003 4294967295
-0.12372681 0.0069928695 0.77100003 4294967295
-0.12257906 0.0070103267 0.773 4294967295
-0.12111044 0.0070096496 0.773 4294967295
-0.11979669 0.0070180497 0.77399999 4294967292
-0.11863206 0.0070355195 0.77600002 4294901241
-0.11715797 0.0070348633 0.77600002 4294835191
-0.11598212 0.0070523443 0.778 4294967034
-0.11479872 0.0070698289 0.77999997 4294967034
-0.11346256 0.0070782569 0.78100002 4294967034
-0.11226601 0.0070957514 0.78299999 4294704375
-0.110779 0.0070951278 0.78299999 4294835705
-0.10985038 0.0071307542 0.787 4294901754
-0.1086313 0.0071482626 0.78899997 4294572789
-0.10726889 0.0071567181 0.79000002 4294637297
-0.10603666 0.0071742367 0.792 4294637297
-0.10506086 0.0072098766 0.796 4294571504
-0.1038098 0.007227404 0.79799998 4294571504
-0.1022948 0.0072268238 0.79799998 4294374640
-0.10077992 0.0072262529 0.79799998 4294374640
-0.099887036 0.007270962 0.80299997 4294309101
-0.098362781 0.0072704032 0.80299997 4294243052
-0.096838601 0.0072698523 0.80299997 4293980650
-0.095551893 0.0072874161 0.80500001 4293980650
-0.094491251 0.0073230872 0.80900002 4293914857
-0.092955895 0.0073225573 0.80900002 4293783527
-0.091420598 0.0073220353 0.80900002 4294045932
-0.089885361 0.0073215207 0.80900002 4294243054
-0.23052892 0.0087307468 0.79000002 4291609579
-0.22902317 0.0087295501 0.79000002 4294967295
-0.22751743 0.008728358 0.79000002 4294967295
-0.22572565 0.0087161232 0.78899997 4294967295
-0.22308521 0.0086707622 0.78500003 4294967295
-0.22102454 0.0086475061 0.78299999 4294967295
-0.21897162 0.0086242622 0.78100002 4294967295
-0.21664786 0.0085899886 0.778 4294967295
-0.2146121 0.0085667688 0.77600002 4294967295
-0.21258406 0.0085435603 0.77399999 4294967295
-0.21083644 0.0085314019 0.773 4294967295
-0.20882182 0.0085082147 0.77100003 4294967295
-0.20735274 0.0085071083 0.77100003 4294967295
-0.20534967 0.0084839426 0.76899999 4294967295
-0.2038845 0.0084828492 0.76899999 4294967295
-0.20241942 0.0084817642 0.76899999 4294967295
-0.20043173 0.0084586274 0.76700002 4294967295
-0.19897059 0.0084575545 0.76700002 4294967295
-0.19725193 0.0084454641 0.76599997 4294967295
-0.19579276 0.0084444052 0.76599997 4294967295
-0.19382627 0.0084213084 0.764 4294967295
-0.1918675 0.0083982227 0.76200002 4294967295
-0.19041613 0.008397189 0.76200002 4294967295
-0.18896484 0.0083961599 0.76200002 4294967295
-0.18751362 0.0083951382 0.76200002 4294967295
-0.18606244 0.0083941231 0.76200002 4294967295
-0.18461135 0.0083931135 0.76200002 4294967295
-0.18316032 0.0083921095 0.76200002 4294967295
-0.18170935 0.008391113 0.76200002 4294967295
-0.18002191 0.0083791111 0.76099998 4294967295
-0.17857295 0.0083781285 0.76099998 4294967295
-0.17712411 0.0083771525 0.76099998 4294967295
-0.1759062 0.0083871894 0.76200002 4294967295
-0.17445557 0.0083862254 0.76200002 4294967295
-0.173005 0.0083852671 0.76200002 4294967295
-0.17155452 0.0083843162 0.76200002 4294967295
-0.17010412 0.00838337 0.76200002 4294967295
-0.1686538 0.0083824331 0.76200002 4294967295
-0.16720353 0.0083815018 0.76200002 4294967295
-0.16553581 0.008369578 0.76099998 4294967295
-0.16408759 0.0083686616 0.76099998 4294967295
-0.16263948 0.0083677508 0.76099998 4294967295
-0.16119137 0.0083668474 0.76099998 4294967295
-0.1597434 0.0083659505 0.76099998 4294967295
-0.15829548 0.0083650611 0.76099998 4294967295
-0.15684766 0.0083641782 0.76099998 4294967295
-0.15539989 0.0083633028 0.76099998 4294967295
-0.15415451 0.0083734225 0.76200002 4294967295
-0.15270501 0.0083725592 0.76200002 4294967295
-0.15125559 0.0083717043 0.76200002 4294967295
-0.14980623 0.0083708549 0.76200002 4294967295
-0.14835694 0.008370013 0.76200002 4294967295
-0.14729334 0.0083911447 0.764 4294967295
-0.14584042 0.0083903158 0.764 4294967295
-0.14438756 0.0083894925 0.764 4294967295
-0.14330894 0.0084106363 0.76599997 4294967295
-0.14185248 0.008409827 0.76599997 4294967295
-0.14039604 0.0084090233 0.76599997 4294967295
-0.13893974 0.0084082279 0.76599997 4294967295
-0.13748345 0.0084074391 0.76599997 4294967295
-0.13620487 0.0084176334 0.76700002 4294967294
-0.13474686 0.0084168585 0.76700002 4294967295
-0.13328893 0.008416092 0.76700002 4294967295
-0.13217483 0.0084372759 0.76899999 4294967295
-0.13071327 0.0084365215 0.76899999 4294967295
-0.12925176 0.0084357746 0.76899999 4294967295
-0.1281227 0.0084569724 0.77100003 4294967295
-0.12665756 0.0084562395 0.77100003 4294967295
-0.12519251 0.008455514 0.77100003 4294967294
-0.12372752 0.008454795 0.77100003 4294967295
-0.12257976 0.0084760142 0.773 4294967293
-0.12111113 0.0084753102 0.773 4294967291
-0.11979736 0.0084855761 0.77399999 4294967290
-0.11832698 0.008484886 0.77399999 4294967032
-0.11715865 0.0085061267 0.77600002 4294835191
-0.11598276 0.008527372 0.778 4294967034
-0.11479938 0.0085486211 0.77999997 4294967034
-0.11346319 0.008558915 0.78100002 4294901241
-0.11226666 0.0085801743 0.78299999 4294835191
-0.11077963 0.0085795242 0.78299999 4294835191
-0.10985103 0.0086227078 0.787 4294769652
-0.10835657 0.0086220708 0.787 4294440688
-0.1072695 0.0086543038 0.79000002 4294374640
-0.10603726 0.0086755883 0.792 4294440690
-0.10532545 0.0087406905 0.79799998 4294308847
-0.10381039 0.0087400768 0.79799998 4294308847
-0.1022954 0.0087394714 0.79799998 4294374894
-0.10078048 0.0087388726 0.79799998 4294374894
-0.099763215 0.008782086 0.80199999 4294243052
-0.098363355 0.0087924516 0.80299997 4294177259
-0.09683916 0.008791876 0.80299997 4293980137
-0.09602724 0.0088569969 0.80900002 4293980137
-0.094491795 0.0088564334 0.80900002 4293980137
-0.092956439 0.0088558812 0.80900002 4293914343
-0.091421135 0.0088553345 0.80900002 4293914343
-0.090108112 0.0088766869 0.81099999 4294177259
-0.23053014 0.010230989 0.79000002 4292993253
-0.22902438 0.010229761 0.79000002 4294967295
-0.22751863 0.010228537 0.79000002 4294967295
-0.22572684 0.010214372 0.78899997 4294967295
-0.22308642 0.010161385 0.78500003 4294967295
-0.22102575 0.010134298 0.78299999 4294967295
-0.21897277 0.010107224 0.78100002 4294967295
-0.21664897 0.010067222 0.778 4294967295
-0.21461326 0.010040173 0.77600002 4294967295
-0.21258521 0.010013135 0.77399999 4294967295
-0.21083756 0.0099990442 0.773 4294967295
-0.20882295 0.0099720294 0.77100003 4294967295
-0.2073539 0.0099708913 0.77100003 4294967295
-0.20535074 0.0099438932 0.76899999 4294967295
-0.20388561 0.00994277 0.76899999 4294967295
-0.20242052 0.0099416506 0.76899999 4294967295
-0.20043284 0.009914685 0.76700002 4294967295
-0.19897163 0.0099135805 0.76700002 4294967295
-0.197253 0.0098995576 0.76599997 4294967295
-0.19528264 0.0098726219 0.764 4294967295
-0.19331996 0.0098456983 0.76200002 4294967295
-0.19186859 0.0098446272 0.76200002 4294967295
-0.1904172 0.009843559 0.76200002 4294967295
-0.1889659 0.0098424982 0.76200002 4294967295
-0.18751465 0.009841443 0.76200002 4294967295
-0.18606348 0.0098403934 0.76200002 4294967295
-0.18461239 0.0098393522 0.76200002 4294967295
-0.18316135 0.0098383157 0.76200002 4294967295
-0.18171039 0.0098372865 0.76200002 4294967295
-0.18002291 0.009823354 0.76099998 4294967295
-0.17857398 0.0098223388 0.76099998 4294967295
-0.17712508 0.0098213283 0.76099998 4294967295
-0.17590715 0.0098332316 0.76200002 4294967295
-0.17445654 0.0098322341 0.76200002 4294967295
-0.17300598 0.0098312432 0.76200002 4294967295
-0.1715555 0.0098302588 0.76200002 4294967295
-0.17010508 0.0098292809 0.76200002 4294967295
-0.16865472 0.0098283095 0.76200002 4294967295
-0.16698503 0.0098144487 0.76099998 4294967295
-0.16553676 0.0098134931 0.76099998 4294967295
-0.16408853 0.0098125432 0.76099998 4294967295
-0.16264038 0.0098115997 0.76099998 4294967295
-0.1611923 0.0098106656 0.76099998 4294967295
-0.15974434 0.0098097371 0.76099998 4294967295
-0.15829641 0.0098088151 0.76099998 4294967295
-0.15684855 0.0098078987 0.76099998 4294967295
-0.1554008 0.0098069916 0.76099998 4294967295
-0.15395309 0.00980609 0.76099998 4294967295
-0.15250549 0.0098051978 0.76099998 4294967295
-0.15125647 0.0098171951 0.76200002 4294967295
-0.14980708 0.0098163132 0.76200002 4294967295
-0.14835781 0.0098154396 0.76200002 4294967295
-0.14690861 0.0098145744 0.76200002 4294967295
-0.14584124 0.0098394724 0.764 4294967295
-0.14438841 0.0098386193 0.764 4294967295
-0.14293562 0.0098377718 0.764 4294967295
-0.14185329 0.0098626837 0.76599997 4294967295
-0.14039688 0.0098618511 0.76599997 4294967295
-0.13894051 0.0098610232 0.76599997 4294967295
-0.13748425 0.0098602045 0.76599997 4294967295
-0.13602807 0.0098593943 0.76599997 4294967295
-0.13457197 0.0098585906 0.76599997 4294967295
-0.1331159 0.0098577924 0.76599997 4294967295
-0.13183184 0.0098698735 0.76700002 4294967295
-0.13071401 0.0098948237 0.76899999 4294967295
-0.12925251 0.0098940479 0.76899999 4294967295
-0.12812345 0.0099190101 0.77100003 4294967295
-0.12665831 0.0099182483 0.77100003 4294967294
-0.12519325 0.0099174939 0.77100003 4294967292
-0.12372825 0.0099167461 0.77100003 4294967292
-0.12258049 0.0099417288 0.773 4294967291
-0.12111185 0.0099409958 0.773 4294967291
-0.11979807 0.00995313 0.77399999 4294967034
-0.11832768 0.0099524101 0.77399999 4294967034
-0.11715932 0.0099774152 0.77600002 4294769398
-0.11598346 0.010002425 0.778 4294967034
-0.11480007 0.010027437 0.77999997 4294967291
-0.11346389 0.010039602 0.78100002 4294835191
-0.11226732 0.010064624 0.78299999 4294506483
-0.1107803 0.010063946 0.78299999 4294637812
-0.10985169 0.010114686 0.787 4294506481
-0.10835721 0.010114021 0.787 4294374894
-0.10713436 0.010139066 0.78899997 4294374894
-0.10563625 0.010138416 0.78899997 4294374894
-0.1050621 0.010227717 0.796 4294309101
-0.103811 0.010252775 0.79799998 4294309101
-0.10229602 0.010252143 0.79799998 4294243052
-0.1007811 0.01025152 0.79799998 4294243052
-0.099763826 0.010302289 0.80199999 4293980650
-0.098241448 0.010301682 0.80199999 4294046443
-0.096839741 0.010313924 0.80299997 4293914343
-0.096027821 0.010390396 0.80900002 4293848550
-0.094492376 0.010389808 0.80900002 4293848550
-0.092956997 0.010389228 0.80900002 4293782757
-0.091421679 0.010388658 0.80900002 4293585381
-0.090108663 0.01041378 0.81099999 4293980139
-0.088569686 0.010413226 0.81099999 4293389031
-0.23053136 0.011731256 0.79000002 4293782505
-0.2287357 0.011715146 0.78899997 4294967295
-0.22723189 0.011713892 0.78899997 4294967295
-0.22515592 0.011682956 0.787 4294967295
-0.22308759 0.011652028 0.78500003 4294967295
-0.22102691 0.011621113 0.78299999 4294967295
-0.21869361 0.01157537 0.77999997 4294967295
-0.21665017 0.01154448 0.778 4294967295
-0.21461445 0.011513602 0.77600002 4294967295
-0.21258634 0.011482732 0.77399999 4294967295
-0.21083872 0.011466712 0.773 4294967295
-0.2088241 0.011435867 0.77100003 4294967295
-0.20735502 0.011434698 0.77100003 4294967295
-0.20535193 0.011403871 0.76899999 4294967295
-0.20388675 0.011402714 0.76899999 4294967295
-0.20242167 0.011401563 0.76899999 4294967295
-0.20043395 0.011370767 0.76700002 4294967295
-0.19871336 0.011354805 0.76599997 4294967295
-0.19725412 0.011353674 0.76599997 4294967295
-0.19528376 0.011322911 0.764 4294967295
-0.193321 0.011292158 0.76200002 4294967295
-0.19186963 0.011291052 0.76200002 4294967295
-0.19041826 0.011289952 0.76200002 4294967295
-0.18896696 0.01128886 0.76200002 4294967295
-0.18751571 0.01128777 0.76200002 4294967295
-0.18606456 0.011286691 0.76200002 4294967295
-0.18461344 0.011285614 0.76200002 4294967295
-0.18316241 0.011284547 0.76200002 4294967295
-0.18147293 0.011268674 0.76099998 4294967295
-0.18002392 0.01126762 0.76099998 4294967295
-0.17857499 0.011266571 0.76099998 4294967295
-0.17712611 0.011265529 0.76099998 4294967295
-0.17567733 0.011264494 0.76099998 4294967295
-0.17422859 0.011263466 0.76099998 4294967295
-0.17300697 0.011277242 0.76200002 4294967295
-0.1715565 0.011276226 0.76200002 4294967295
-0.17010607 0.011275216 0.76200002 4294967295
-0.16843437 0.011259415 0.76099998 4294967295
-0.166986 0.01125842 0.76099998 4294967295
-0.16553769 0.011257431 0.76099998 4294967295
-0.16408949 0.01125645 0.76099998 4294967295
-0.16264135 0.011255476 0.76099998 4294967295
-0.16076963 0.011224929 0.759 4294967295
-0.15932542 0.01122397 0.759 4294967295
-0.1578813 0.01122302 0.759 4294967295
-0.15643726 0.011222075 0.759 4294967295
-0.15540171 0.011250705 0.76099998 4294967295
-0.153954 0.011249771 0.76099998 4294967295
-0.1525064 0.011248847 0.76099998 4294967295
-0.15125737 0.011262711 0.76200002 4294967295
-0.149808 0.011261798 0.76200002 4294967295
-0.1483587 0.011260892 0.76200002 4294967295
-0.14690946 0.011259994 0.76200002 4294967295
-0.14584213 0.011288656 0.764 4294967295
-0.14438927 0.01128777 0.764 4294967295
-0.14293647 0.011286894 0.764 4294967295
-0.14148377 0.011286023 0.764 4294967295
-0.14003114 0.011285161 0.764 4294967295
-0.13857859 0.011284306 0.764 4294967295
-0.13748509 0.011312996 0.76599997 4294967295
-0.1360289 0.011312154 0.76599997 4294967295
-0.13457277 0.011311321 0.76599997 4294967295
-0.13311672 0.011310494 0.76599997 4294967295
-0.13166074 0.011309674 0.76599997 4294967295
-0.13020489 0.011308865 0.76599997 4294967294
-0.12891716 0.011322825 0.76700002 4294967292
-0.12779188 0.011351551 0.76899999 4294967292
-0.12665908 0.011380281 0.77100003 4294967292
-0.125194 0.011379496 0.77100003 4294967290
-0.123729 0.011378722 0.77100003 4294967289
-0.12258125 0.011407469 0.773 4294901241
-0.12111259 0.011406706 0.773 4294769398
-0.11979879 0.011420707 0.77399999 4294835191
-0.11832842 0.011419961 0.77399999 4294835191
-0.11716005 0.01144873 0.77600002 4294835191
-0.11598418 0.011477503 0.778 4294967034
-0.11480076 0.011506281 0.77999997 4294901239
-0.11346457 0.011520312 0.78100002 4294637810
-0.11226802 0.0115491 0.78299999 4294637812
-0.11078098 0.011548394 0.78299999 4294637812
-0.10985235 0.01160669 0.787 4294440688
-0.10835788 0.011605999 0.787 4294374894
-0.10713502 0.011634808 0.78899997 4294374894
-0.1056369 0.011634134 0.78899997 4294309101
-0.10479877 0.011707189 0.79400003 4294177259
-0.10355148 0.011736015 0.796 4294045930
-0.10204027 0.011735357 0.796 4294045930
-0.10078173 0.011764196 0.79799998 4294045930
-0.099764444 0.011822521 0.80199999 4294046184
-0.098242067 0.011821887 0.80199999 4294243306
-0.096840352 0.011836004 0.80299997 4293848550
-0.095791019 0.011894342 0.80699998 4293782757
-0.094492964 0.011923208 0.80900002 4293782757
-0.093187377 0.011952078 0.81099999 4293519586
-0.091648266 0.011951485 0.81099999 4293584608
-0.090109214 0.011950897 0.81099999 4293650402
-0.088570252 0.011950322 0.81099999 4293454306
-0.23203845 0.013232845 0.79000002 4292071636
-0.23024082 0.013214798 0.78899997 4294045680
-0.22873695 0.013213506 0.78899997 4294967295
-0.22665717 0.013178733 0.787 4294967295
-0.22515716 0.013177455 0.787 4294967295
-0.22308883 0.013142698 0.78500003 4294967295
-0.22046362 0.013074474 0.78100002 4294967295
-0.21869482 0.013056481 0.77999997 4294967295
-0.21665141 0.013021761 0.778 4294967295
-0.21406254 0.012953582 0.77399999 4294967295
-0.21258755 0.012952356 0.77399999 4294967295
-0.21083994 0.012934402 0.773 4294967295
-0.20882529 0.012899728 0.77100003 4294967295
-0.20735621 0.012898525 0.77100003 4294967295
-0.20535311 0.012863871 0.76899999 4294967295
-0.20388794 0.012862682 0.76899999 4294967295
-0.20242281 0.012861498 0.76899999 4294967295
-0.20043513 0.012826872 0.76700002 4294967295
-0.19871448 0.012808981 0.76599997 4294967295
-0.19674021 0.012774376 0.764 4294967295
-0.19477369 0.012739788 0.76200002 4294967295
-0.19332217 0.012738641 0.76200002 4294967295
-0.19161893 0.012720786 0.76099998 4294967295
-0.19016945 0.012719655 0.76099998 4294967295
-0.18872006 0.012718531 0.76099998 4294967295
-0.18727072 0.012717413 0.76099998 4294967295
-0.18582146 0.0127163 0.76099998 4294967295
-0.18437223 0.012715194 0.76099998 4294967295
-0.18292309 0.012714095 0.76099998 4294967295
-0.18147402 0.012712998 0.76099998 4294967295
-0.18002498 0.012711911 0.76099998 4294967295
-0.17857605 0.01271083 0.76099998 4294967295
-0.17712715 0.012709755 0.76099998 4294967295
-0.17567836 0.012708686 0.76099998 4294967295
-0.17422962 0.012707626 0.76099998 4294967295
-0.17300802 0.012723268 0.76200002 4294967295
-0.17133237 0.012705522 0.76099998 4294967295
-0.16988383 0.01270448 0.76099998 4294967295
-0.16843539 0.012703446 0.76099998 4294967295
-0.16698702 0.012702416 0.76099998 4294967295
-0.1655387 0.012701397 0.76099998 4294967295
-0.1640905 0.012700383 0.76099998 4294967295
-0.16221489 0.012666002 0.759 4294967295
-0.16077061 0.012665002 0.759 4294967295
-0.1593264 0.012664013 0.759 4294967295
-0.15788227 0.012663028 0.759 4294967295
-0.15643823 0.012662053 0.759 4294967295
-0.15540266 0.012694445 0.76099998 4294967295
-0.15395494 0.012693482 0.76099998 4294967295
-0.15250733 0.012692524 0.76099998 4294967295
-0.15125827 0.012708251 0.76200002 4294967295
-0.14980891 0.012707308 0.76200002 4294967295
-0.14835963 0.012706371 0.76200002 4294967295
-0.14691037 0.01270544 0.76200002 4294967295
-0.14584303 0.012737866 0.764 4294967295
-0.14439017 0.012736948 0.764 4294967295
-0.14293738 0.012736041 0.764 4294967295
-0.14148465 0.01273514 0.764 4294967295
-0.14003201 0.012734245 0.764 4294967295
-0.13857946 0.012733361 0.764 4294967295
-0.13748595 0.012765814 0.76599997 4294967295
-0.13602975 0.012764942 0.76599997 4294967295
-0.13457359 0.012764078 0.76599997 4294967294
-0.13311754 0.012763221 0.76599997 4294967293
-0.13166156 0.012762371 0.76599997 4294967292
-0.13020569 0.012761533 0.76599997 4294967290
-0.12891796 0.012777358 0.76700002 4294967290
-0.1277927 0.012809847 0.76899999 4294967034
-0.1266599 0.012842344 0.77100003 4294967291
-0.12519479 0.012841528 0.77100003 4294967034
-0.1237298 0.012840724 0.77100003 4294835191
-0.12258202 0.012873235 0.773 4294703605
-0.12111335 0.012872444 0.773 4294703605
-0.11979957 0.012888316 0.77399999 4294769398
-0.11832916 0.012887538 0.77399999 4294769398
-0.1171608 0.01292007 0.77600002 4294769398
-0.11598492 0.012952609 0.778 4294703605
-0.1148015 0.012985152 0.77999997 4294637810
-0.11331999 0.012984402 0.77999997 4294703603
-0.11198197 0.013000313 0.78100002 4294703603
-0.1107817 0.013032871 0.78299999 4294440688
-0.10957388 0.013065434 0.78500003 4294374381
-0.10835856 0.013098005 0.787 4294505710
-0.10686415 0.013097296 0.787 4294374894
-0.10536981 0.013096595 0.787 4294243052
-0.10453548 0.013179106 0.792 4294045930
-0.10329198 0.013211699 0.79400003 4293980137
-0.10204093 0.013244297 0.796 4294110953
-0.10078239 0.013276897 0.79799998 4293848037
-0.099765107 0.013342781 0.80199999 4293978851
-0.098242715 0.013342123 0.80199999 4294044644
-0.096720383 0.013341472 0.80199999 4293716708
-0.095316842 0.013357467 0.80299997 4293716708
-0.09425997 0.013423369 0.80699998 4293716708
-0.093187988 0.013489275 0.81099999 4293519586
-0.091648862 0.013488656 0.81099999 4293387486
-0.090332039 0.013521311 0.81300002 4293584608
-0.23203978 0.014733191 0.79000002 4292728285
-0.23024213 0.014713213 0.78899997 4294769137
-0.22873829 0.014711893 0.78899997 4294967295
-0.22665845 0.014673288 0.787 4294967295
-0.22458626 0.014634693 0.78500003 4294967295
-0.22309016 0.014633395 0.78500003 4294967295
-0.22046492 0.014557539 0.78100002 4294967295
-0.21869607 0.014537615 0.77999997 4294967295
-0.21665266 0.014499067 0.778 4294967295
-0.21406376 0.01442326 0.77399999 4294967295
-0.21258883 0.014422004 0.77399999 4294967295
-0.21084113 0.01440212 0.773 4294967295
-0.20882653 0.014363617 0.77100003 4294967295
-0.20735741 0.014362381 0.77100003 4294967295
-0.2053543 0.014323894 0.76899999 4294967295
-0.20388913 0.014322674 0.76899999 4294967295
-0.20242402 0.014321457 0.76899999 4294967295
-0.20043628 0.014283004 0.76700002 4294967295
-0.1987157 0.01426318 0.76599997 4294967295
-0.1967414 0.014224746 0.764 4294967295
