# .PCD v0.7 - Point Cloud Data file format
VERSION 0.7
FIELDS x y z rgba
SIZE 4 4 4 4
TYPE F F F U
COUNT 1 1 1 1
WIDTH 1064
HEIGHT 1
VIEWPOINT 0 0 0 1 0 0 0
POINTS 1064
DATA ascii
-0.18722259 0.046668082 0.70599997 4293582810
-0.1858774 0.046666261 0.70599997 4293648603
-0.18453227 0.046664443 0.70599997 4293582812
-0.18318714 0.046662621 0.70599997 4293582812
-0.18132697 0.046528626 0.704 4293451994
-0.17998581 0.046526812 0.704 4293386201
-0.17864466 0.046525013 0.704 4293583062
-0.1773036 0.046523213 0.704 4293583062
-0.17596257 0.046521425 0.704 4293648855
-0.17437354 0.046453543 0.70300001 4293714648
-0.17254226 0.046319615 0.70099998 4293714652
-0.1712071 0.046317831 0.70099998 4293846238
-0.17035666 0.046448205 0.70300001 4293977568
-0.16901784 0.046446443 0.70300001 4293977568
-0.167202 0.046312541 0.70099998 4294043361
-0.16586708 0.04631079 0.70099998 4294109154
-0.16453221 0.046309039 0.70099998 4294043363
-0.16319741 0.046307296 0.70099998 4294043363
-0.1618627 0.046305567 0.70099998 4293846238
-0.16052802 0.046303831 0.70099998 4293977568
-0.15919341 0.04630211 0.70099998 4294109669
-0.15785886 0.046300396 0.70099998 4294109669
-0.15630108 0.046232637 0.69999999 4293978853
-0.15496856 0.046230938 0.69999999 4294110439
-0.15385558 0.046295289 0.70099998 4294110955
-0.15230371 0.046227552 0.69999999 4294045161
-0.15097135 0.046225879 0.69999999 4294176233
-0.14963913 0.04622421 0.69999999 4294176233
-0.14851877 0.046288572 0.70099998 4294241255
-0.14718473 0.046286914 0.70099998 4294307305
-0.14585076 0.046285264 0.70099998 4294176233
-0.14451687 0.046283629 0.70099998 4294176233
-0.14318304 0.04628199 0.70099998 4294176233
-0.14184928 0.046280373 0.70099998 4294176233
-0.14051557 0.046278752 0.70099998 4294176235
-0.13918194 0.046277151 0.70099998 4294176235
-0.13784839 0.046275552 0.70099998 4294110439
-0.1369044 0.046405997 0.70300001 4294110439
-0.13556716 0.04640441 0.70300001 4294044646
-0.13423 0.046402842 0.70300001 4294176233
-0.13289294 0.046401281 0.70300001 4294307303
-0.1315559 0.046399724 0.70300001 4294307303
-0.13021894 0.046398178 0.70300001 4294241255
-0.12888207 0.04639665 0.70300001 4294241255
-0.12772669 0.046461124 0.704 4294241255
-0.12638803 0.046459604 0.704 4294307305
-0.1254047 0.04659009 0.70599997 4294176233
-0.1240624 0.046588592 0.70599997 4294307818
-0.12289399 0.046653103 0.70700002 4294307818
-0.12154991 0.046651624 0.70700002 4294176233
-0.12037593 0.046716135 0.708 4294176233
-0.11903011 0.04671469 0.708 4294176233
-0.11768433 0.046713244 0.708 4294110693
-0.11633864 0.046711817 0.708 4294110693
-0.11548028 0.046908323 0.71100003 4294175716
-0.11412901 0.046906915 0.71100003 4294307303
-0.11309506 0.047037445 0.713 4294307305
-0.11174013 0.047036055 0.713 4294241255
-0.1103853 0.047034677 0.713 4294175716
-0.1090305 0.047033302 0.713 4294307303
-0.1076758 0.047031954 0.713 4294176233
-0.10647026 0.047096569 0.71399999 4294110439
-0.10511377 0.047095247 0.71399999 4294241255
-0.10375737 0.047093928 0.71399999 4294241255
-0.10268784 0.047224533 0.71600002 4294241255
-0.10132778 0.047223248 0.71600002 4294241255
-0.10010737 0.047287911 0.71700001 4294307305
-0.098745532 0.047286648 0.71700001 4294307305
-0.097655386 0.047417298 0.71899998 4294307303
-0.096423797 0.047482006 0.72000003 4294373096
-0.095452502 0.047678594 0.72299999 4294044648
-0.094339766 0.047809266 0.72500002 4293978599
-0.093219496 0.047939934 0.727 4293978340
-0.091965385 0.048004676 0.72799999 4293978340
-0.090831943 0.04813537 0.73000002 4293913060
-0.089813508 0.048332009 0.73299998 4293978853
-0.088542491 0.048396774 0.73400003 4293979366
-0.087386452 0.04852749 0.736 4293979366
-0.086222902 0.048658215 0.73799998 4293913060
-0.08493688 0.04872302 0.73900002 4293847267
-0.08376015 0.048853766 0.741 4293715682
-0.082464747 0.04891859 0.74199998 4293518302
-0.081602581 0.049247146 0.74699998 4293518302
-0.080184773 0.049246058 0.74699998 4293386716
-0.079083368 0.049442779 0.75 4293386199
-0.077867083 0.04957357 0.75199997 4293452248
-0.076439962 0.049572535 0.75199997 4293518300
-0.075910665 0.050164793 0.76099998 4294176487
-0.074466571 0.050163776 0.76099998 4293123794
-0.22243518 0.050222352 0.73799998 4294506231
-0.22102833 0.0502204 0.73799998 4294374644
-0.21902636 0.050082363 0.736 4294769146
-0.21703203 0.04994433 0.73400003 4294308086
-0.21533908 0.049874343 0.73299998 4291412938
-0.21335819 0.04973634 0.73100001 4291609792
-0.21109489 0.04953029 0.72799999 4292465101
-0.20941922 0.04946034 0.727 4292858823
-0.20746121 0.049322352 0.72500002 4292924616
-0.20465815 0.048980299 0.72000003 4292793550
-0.20300354 0.048910365 0.71899998 4292859343
-0.20107232 0.048772413 0.71700001 4292990670
-0.19970578 0.048770517 0.71700001 4293122513
-0.19806276 0.048700616 0.71600002 4293122513
-0.19614878 0.048562694 0.71399999 4293188306
-0.19396973 0.048356775 0.71100003 4293384915
-0.19261481 0.048354898 0.71100003 4293319122
-0.19018395 0.048080996 0.70700002 4293188558
-0.18856966 0.048011135 0.70599997 4293188558
-0.18722439 0.048009269 0.70599997 4293385685
-0.18587923 0.048007429 0.70599997 4293583064
-0.18453409 0.048005581 0.70599997 4293517017
-0.18267004 0.047867741 0.704 4293517017
-0.18132882 0.047865909 0.704 4293386201
-0.17973198 0.047796085 0.70300001 4293451994
-0.17839274 0.047794256 0.70300001 4293583062
-0.17705354 0.047792427 0.70300001 4293583062
-0.17571443 0.047790617 0.70300001 4293582810
-0.17437534 0.047788791 0.70300001 4293648603
-0.17254405 0.047651038 0.70099998 4293648603
-0.17120889 0.047649231 0.70099998 4293714652
-0.17035846 0.047783379 0.70300001 4293977568
-0.16901961 0.047781579 0.70300001 4293977568
-0.16720377 0.047643855 0.70099998 4293846752
-0.16586885 0.047642078 0.70099998 4293846752
-0.16453399 0.047640305 0.70099998 4294043363
-0.16319919 0.047638532 0.70099998 4294043363
-0.16186443 0.04763677 0.70099998 4293846754
-0.16052976 0.047635015 0.70099998 4293912547
-0.15919513 0.047633257 0.70099998 4293978340
-0.15786058 0.047631513 0.70099998 4293978340
-0.15652607 0.047629785 0.70099998 4293912806
-0.15519166 0.047628056 0.70099998 4293978599
-0.15385729 0.047626331 0.70099998 4293913060
-0.152523 0.047624614 0.70099998 4293913060
-0.15118873 0.047622908 0.70099998 4293978853
-0.14985457 0.047621205 0.70099998 4294044646
-0.14852044 0.04761951 0.70099998 4294175716
-0.1471864 0.04761783 0.70099998 4294307303
-0.14585242 0.047616154 0.70099998 4294176487
-0.14451852 0.047614481 0.70099998 4294110693
-0.14318468 0.047612827 0.70099998 4294110439
-0.1418509 0.04761117 0.70099998 4294110439
-0.1405172 0.04760953 0.70099998 4294045159
-0.13918355 0.047607902 0.70099998 4294045159
-0.13785 0.047606282 0.70099998 4294110441
-0.13651651 0.047604669 0.70099998 4294110441
-0.13518308 0.047603063 0.70099998 4294110441
-0.1342316 0.047737285 0.70300001 4294110441
-0.13289447 0.047735687 0.70300001 4294307303
-0.13155745 0.047734112 0.70300001 4294307303
-0.1302205 0.047732543 0.70300001 4294241509
-0.12888362 0.047730993 0.70300001 4294241509
-0.12772821 0.04779733 0.704 4294175462
-0.12638956 0.047795791 0.704 4294241255
-0.12540622 0.047930047 0.70599997 4294176487
-0.12406391 0.047928527 0.70599997 4294176487
-0.12289546 0.0479949 0.70700002 4294176487
-0.12155139 0.047993407 0.70700002 4294110693
-0.12037741 0.048059799 0.708 4294176487
-0.11903156 0.048058316 0.708 4294176487
-0.11768578 0.048056845 0.708 4294110693
-0.11666872 0.048191141 0.70999998 4294110693
-0.11548172 0.048257574 0.71100003 4294044644
-0.11413044 0.048256125 0.71100003 4294110693
-0.11309648 0.048390444 0.713 4294110439
-0.11174154 0.048389025 0.713 4294044646
-0.11038668 0.048387621 0.713 4294044646
-0.10903187 0.048386231 0.713 4294110439
-0.10767715 0.048384853 0.713 4294241255
-0.10647161 0.048451349 0.71399999 4294175462
-0.1051151 0.048449986 0.71399999 4294044646
-0.10375868 0.048448652 0.71399999 4294044646
-0.10240232 0.04844733 0.71399999 4294175462
-0.10132907 0.048581716 0.71600002 4294175462
-0.10010867 0.048648261 0.71700001 4294241509
-0.098746806 0.048646975 0.71700001 4294307303
-0.097656623 0.04878138 0.71899998 4294307303
-0.096425034 0.048847962 0.72000003 4294307303
-0.095717795 0.049185932 0.72500002 4294110187
-0.094601251 0.049320363 0.727 4293978601
-0.093220733 0.049319129 0.727 4293913060
-0.091966584 0.049385741 0.72799999 4293847267
-0.090833142 0.049520206 0.73000002 4293847267
-0.089814685 0.049722504 0.73299998 4293847267
-0.088543653 0.04978916 0.73400003 4293847267
-0.087150156 0.049787991 0.73400003 4293913060
-0.086340889 0.050125979 0.73900002 4293847267
-0.08493802 0.050124831 0.73900002 4293584095
-0.083761267 0.050259348 0.741 4293649888
-0.082465865 0.050326053 0.74199998 4293584095
-0.081603676 0.05066406 0.74699998 4293518554
-0.080185853 0.050662961 0.74699998 4293386712
-0.079084426 0.050865345 0.75 4293386966
-0.077868134 0.050999913 0.75199997 4293255637
-0.07644099 0.050998855 0.75199997 4293649622
-0.075013921 0.05099782 0.75199997 4293847002
-0.073586896 0.050996803 0.75199997 4291153086
-0.22103031 0.051622879 0.73799998 4294440184
-0.21902831 0.051481012 0.736 4294769148
-0.21703397 0.051339157 0.73400003 4294308345
-0.21475348 0.051127367 0.73100001 4291413453
-0.2133601 0.051125411 0.73100001 4291346613
-0.21109682 0.050913647 0.72799999 4292399557
-0.20884502 0.050701894 0.72500002 4292596167
-0.20746313 0.050699949 0.72500002 4292793546
-0.20466007 0.050348364 0.72000003 4292793546
-0.2030054 0.05027651 0.71899998 4292990924
-0.20163509 0.050274581 0.71899998 4292990924
-0.19970772 0.050132819 0.71700001 4293056718
-0.19806467 0.050060984 0.71600002 4292925648
-0.19615068 0.049919233 0.71399999 4293057490
-0.19451724 0.049847413 0.713 4293188308
-0.1926167 0.049705692 0.71100003 4293188308
-0.19018583 0.049424168 0.70700002 4293188558
-0.18857154 0.049352378 0.70599997 4293254351
-0.18722627 0.049350496 0.70599997 4293188306
-0.18588108 0.049348619 0.70599997 4293319892
-0.18453595 0.049346745 0.70599997 4293517017
-0.1826719 0.049205083 0.704 4293517017
-0.1810731 0.049133334 0.70300001 4293386203
-0.17973381 0.049131475 0.70300001 4293451996
-0.17839454 0.049129616 0.70300001 4293452246
-0.1770554 0.04912778 0.70300001 4293386453
-0.17571625 0.049125928 0.70300001 4293582810
-0.17437717 0.049124081 0.70300001 4293582810
-0.17254587 0.04898249 0.70099998 4293648603
-0.17121071 0.048980661 0.70099998 4293714652
-0.17036027 0.049118586 0.70300001 4293780445
-0.16902141 0.049116757 0.70300001 4293977568
-0.16720556 0.048975211 0.70099998 4293846752
-0.16587065 0.0489734 0.70099998 4293846752
-0.16453576 0.048971601 0.70099998 4293846754
-0.16320096 0.048969802 0.70099998 4293912547
-0.16186622 0.048968013 0.70099998 4293977570
-0.16053151 0.048966229 0.70099998 4293977570
-0.15919688 0.048964456 0.70099998 4293912547
-0.15786232 0.048962679 0.70099998 4293978340
-0.15652783 0.04896092 0.70099998 4293913060
-0.15519339 0.048959166 0.70099998 4293913060
-0.153859 0.048957415 0.70099998 4293913060
-0.15252469 0.048955671 0.70099998 4293913060
-0.15119044 0.048953936 0.70099998 4293978340
-0.14985627 0.048952207 0.70099998 4293978340
-0.14852215 0.04895049 0.70099998 4293978338
-0.14718808 0.048948776 0.70099998 4294175716
-0.1458541 0.048947074 0.70099998 4294110693
-0.14452019 0.048945382 0.70099998 4294110693
-0.14318635 0.048943698 0.70099998 4294110439
-0.14185256 0.048942022 0.70099998 4294044646
-0.14051886 0.048940346 0.70099998 4294044646
-0.13918522 0.048938695 0.70099998 4294110439
-0.13785163 0.048937045 0.70099998 4294044646
-0.13651811 0.04893541 0.70099998 4294110439
-0.13518468 0.048933782 0.70099998 4294044646
-0.13423321 0.049071778 0.70300001 4294044646
-0.13289607 0.049070146 0.70300001 4294175462
-0.13155904 0.049068544 0.70300001 4294175462
-0.13022208 0.049066957 0.70300001 4294175714
-0.12888516 0.04906537 0.70300001 4294175714
-0.12772976 0.049133584 0.704 4294175716
-0.12639108 0.049132027 0.704 4294241509
-0.12540777 0.049270041 0.70599997 4294110693
-0.12424116 0.049338285 0.70700002 4294110693
-0.12289699 0.049336746 0.70700002 4294110439
-0.12155291 0.049335226 0.70700002 4294110439
-0.1203789 0.049403492 0.708 4294110439
-0.11903305 0.049401987 0.708 4294044646
-0.11801971 0.049540035 0.70999998 4294044644
-0.11667018 0.049538549 0.70999998 4294044644
-0.11548316 0.049606852 0.71100003 4294175716
-0.11413188 0.049605392 0.71100003 4294241509
-0.11309791 0.049743481 0.713 4294044646
-0.11174297 0.049742043 0.713 4294044646
-0.11038808 0.049740609 0.713 4294044646
-0.10903327 0.049739189 0.713 4294044646
-0.10767853 0.049737792 0.713 4294044644
-0.10647298 0.049806163 0.71399999 4294044644
-0.10511647 0.049804784 0.71399999 4294044646
-0.10376003 0.049803421 0.71399999 4294044646
-0.10240364 0.049802072 0.71399999 4293978853
-0.1013304 0.049940232 0.71600002 4294110439
-0.10010997 0.050008655 0.71700001 4294044646
-0.09874811 0.050007351 0.71700001 4294044646
-0.097386278 0.050006043 0.71700001 4294044646
-0.097363785 0.050702173 0.727 4294044646
-0.095983118 0.050700892 0.727 4293912806
-0.094602503 0.050699618 0.727 4293912806
-0.09322197 0.050698362 0.727 4293847267
-0.091967806 0.050766844 0.72799999 4293847267
-0.090834349 0.050905086 0.73000002 4293847267
-0.089815892 0.051113062 0.73299998 4293913060
-0.088544846 0.051181592 0.73400003 4293847263
-0.087151326 0.0511804 0.73400003 4293847263
-0.086342052 0.05152785 0.73900002 4293715936
-0.084939159 0.051526677 0.73900002 4293584093
-0.083875448 0.051734693 0.74199998 4293584095
-0.082689278 0.051873006 0.74400002 4293452509
-0.081604786 0.052081026 0.74699998 4293452509
-0.080186956 0.05207992 0.74699998 4293386716
-0.078980066 0.052218243 0.74900001 4293189589
-0.077662095 0.052286878 0.75 4293123796
-0.076442048 0.052425236 0.75199997 4293189591
-0.075014949 0.052424181 0.75199997 4293518300
-0.22103228 0.053025384 0.73799998 4294571256
-0.21903029 0.052879699 0.736 4294834428
-0.21703599 0.052734032 0.73400003 4294637308
-0.21475545 0.052516509 0.73100001 4291676880
-0.21336207 0.052514531 0.73100001 4291215538
-0.21109875 0.052297033 0.72799999 4292070591
-0.20884697 0.052079558 0.72500002 4292529860
-0.20746511 0.052077591 0.72500002 4292924618
-0.20523049 0.051860139 0.722 4292859593
-0.20328972 0.051714532 0.72000003 4292990922
-0.20163701 0.051640745 0.71899998 4293056716
-0.19970967 0.051495165 0.71700001 4293056716
-0.19806658 0.051421404 0.71600002 4293056720
-0.19615261 0.051275823 0.71399999 4293056720
-0.19451915 0.051202081 0.713 4293056466
-0.19261861 0.051056542 0.71100003 4293122259
-0.19045672 0.050839186 0.708 4293122259
-0.18884055 0.050765477 0.70700002 4293254101
-0.18722817 0.050691757 0.70599997 4293319894
-0.18588297 0.05068985 0.70599997 4293319894
-0.18453781 0.050687954 0.70599997 4293385687
-0.1826738 0.05054247 0.704 4293385687
-0.18107496 0.050468795 0.70300001 4293517019
-0.17973566 0.050466906 0.70300001 4293517019
-0.17839643 0.050465025 0.70300001 4293517271
-0.17705724 0.050463151 0.70300001 4293517271
-0.17571811 0.050461281 0.70300001 4293517017
-0.17437904 0.050459411 0.70300001 4293582810
-0.1725477 0.050313994 0.70099998 4293582812
-0.17121254 0.050312139 0.70099998 4293714398
-0.17036211 0.050453838 0.70300001 4293780443
-0.16902326 0.050451979 0.70300001 4293846236
-0.16768444 0.050450139 0.70300001 4293846752
-0.16587245 0.050304774 0.70099998 4293780958
-0.16453756 0.050302941 0.70099998 4293977568
-0.16320278 0.050301123 0.70099998 4293977568
-0.16186801 0.050299302 0.70099998 4293977568
-0.16053332 0.050297495 0.70099998 4293846238
-0.15919867 0.050295688 0.70099998 4294043615
-0.15786412 0.050293893 0.70099998 4294043615
-0.15652958 0.050292101 0.70099998 4293912547
-0.15519516 0.050290324 0.70099998 4293912547
-0.15386078 0.050288543 0.70099998 4293978340
-0.15252645 0.050286777 0.70099998 4293978340
-0.1511922 0.050285012 0.70099998 4293978340
-0.14985801 0.050283264 0.70099998 4293978340
-0.14852387 0.050281513 0.70099998 4293913060
-0.14718983 0.050279777 0.70099998 4293847267
-0.14585581 0.050278045 0.70099998 4294175716
-0.14452191 0.050276332 0.70099998 4294175716
-0.14318806 0.050274618 0.70099998 4294044646
-0.14185426 0.050272916 0.70099998 4293913060
-0.14052053 0.050271221 0.70099998 4293978853
-0.13918687 0.050269537 0.70099998 4294110439
-0.13785326 0.05026786 0.70099998 4294175462
-0.13651976 0.050266195 0.70099998 4294175462
-0.13557202 0.05040795 0.70300001 4294109667
-0.13423485 0.0504063 0.70300001 4293912545
-0.13289772 0.050404664 0.70300001 4294109921
-0.13156067 0.050403036 0.70300001 4293978592
-0.13022368 0.050401419 0.70300001 4294109919
-0.12888676 0.050399799 0.70300001 4294175712
-0.12773134 0.050469898 0.704 4294175714
-0.12675172 0.050611675 0.70599997 4294175714
-0.12540932 0.050610092 0.70599997 4294175714
-0.12424273 0.050680205 0.70700002 4294241507
-0.12289854 0.050678652 0.70700002 4294241507
-0.12172636 0.050748777 0.708 4294109921
-0.12038042 0.050747238 0.708 4293913060
-0.11903455 0.050745707 0.708 4293847267
-0.1180212 0.050887525 0.70999998 4293847267
-0.11667169 0.050886028 0.70999998 4293978853
-0.11548465 0.050956197 0.71100003 4294044898
-0.11413334 0.050954711 0.71100003 4294176485
-0.11309937 0.051096559 0.713 4294044646
-0.1117444 0.051095102 0.713 4293913060
-0.1103895 0.051093642 0.713 4293978853
-0.10903469 0.051092211 0.713 4293913060
-0.10767994 0.051090788 0.713 4293978338
-0.10647437 0.051161028 0.71399999 4294109667
-0.10511784 0.051159631 0.71399999 4294175714
-0.10376138 0.051158242 0.71399999 4293978592
-0.10269186 0.051300172 0.71600002 4294109921
-0.10133174 0.051298812 0.71600002 4294241507
-0.10039055 0.051512394 0.71899998 4293978853
-0.099024862 0.051511049 0.71899998 4293847267
-0.09806671 0.051724657 0.722 4293978340
-0.096829385 0.051794976 0.72299999 4294109669
-0.095984384 0.052080221 0.727 4293913060
-0.094603769 0.052078921 0.727 4293715682
-0.093351454 0.052149288 0.72799999 4293584097
-0.092221729 0.052291285 0.73000002 4293518304
-0.090960018 0.052361656 0.73100001 4293846752
-0.089817129 0.052503675 0.73299998 4293978338
-0.08842542 0.052502446 0.73299998 4293912797
-0.087152518 0.052572861 0.73400003 4293847004
-0.086343236 0.052929781 0.73900002 4293716188
-0.084940337 0.052928597 0.73900002 4293518552
-0.08410269 0.053285521 0.74400002 4293451996
-0.08269041 0.053284358 0.74400002 4293057238
-0.081605911 0.053498052 0.74699998 4293254360
-0.080188073 0.053496931 0.74699998 4293320153
-0.07877028 0.053495809 0.74699998 4292991956
-0.07755965 0.053637937 0.74900001 4292794834
-0.076748088 0.054066513 0.755 4293057490
-0.075315282 0.054065429 0.755 4293188819
-0.2210343 0.054427929 0.73799998 4294505206
-0.21903226 0.054278422 0.736 4294768635
-0.21703798 0.054128919 0.73400003 4294704127
-0.21534501 0.054053158 0.73299998 4291743186
-0.21394782 0.05405115 0.73299998 4291412156
-0.21168073 0.05382793 0.73000002 4291938501
-0.20942509 0.053604726 0.727 4292463550
-0.20746708 0.053455267 0.72500002 4292990150
-0.20523247 0.053232081 0.722 4292793546
-0.20329167 0.053082645 0.72000003 4292793546
-0.20191945 0.053080678 0.72000003 4292859595
-0.20026869 0.053004973 0.71899998 4292990924
-0.19806857 0.052781854 0.71600002 4293056720
-0.19615455 0.052632447 0.71399999 4293056720
-0.1945211 0.052556776 0.713 4292925648
-0.19262055 0.052407406 0.71100003 4292991697
-0.19045867 0.05218434 0.708 4293188558
-0.18884248 0.05210869 0.70700002 4293188558
-0.1872301 0.052033059 0.70599997 4293319892
-0.18588491 0.052031133 0.70599997 4293319892
-0.18453974 0.052029204 0.70599997 4293319894
-0.18267566 0.051879887 0.704 4293319894
-0.18107684 0.051804282 0.70300001 4293385689
-0.17973757 0.051802382 0.70300001 4293582812
-0.1783983 0.051800475 0.70300001 4293517271
-0.17705913 0.051798571 0.70300001 4293517271
-0.17571998 0.051796664 0.70300001 4293517271
-0.17438091 0.051794782 0.70300001 4293517271
-0.17254956 0.051645536 0.70099998 4293582810
-0.17121442 0.051643655 0.70099998 4293648603
-0.17036398 0.05178912 0.70300001 4293714650
-0.16902512 0.05178725 0.70300001 4293846236
-0.1676863 0.051785368 0.70300001 4293780958
-0.16587429 0.051636182 0.70099998 4293780958
-0.16453943 0.051634334 0.70099998 4293780958
-0.1632046 0.051632471 0.70099998 4293846752
-0.16186984 0.051630635 0.70099998 4293780958
-0.16053511 0.051628795 0.70099998 4293780958
-0.15920047 0.051626962 0.70099998 4293846238
-0.15786591 0.05162514 0.70099998 4293846238
-0.15653138 0.051623322 0.70099998 4293846238
-0.15519695 0.051621515 0.70099998 4293977568
-0.15386257 0.05161972 0.70099998 4293846754
-0.15252823 0.051617917 0.70099998 4293912547
-0.15119398 0.051616136 0.70099998 4293912547
-0.14985977 0.051614355 0.70099998 4293912547
-0.14852563 0.051612586 0.70099998 4293912547
-0.14719157 0.051610824 0.70099998 4293978340
-0.14585756 0.051609065 0.70099998 4293978853
-0.14452364 0.051607318 0.70099998 4293913060
-0.14318976 0.051605575 0.70099998 4293978853
-0.14185596 0.051603846 0.70099998 4293913060
-0.14052223 0.051602133 0.70099998 4293912547
-0.13918857 0.051600419 0.70099998 4293978340
-0.13785498 0.051598724 0.70099998 4293912547
-0.13652144 0.051597029 0.70099998 4293912547
-0.13518797 0.051595345 0.70099998 4293912547
-0.13423648 0.051740881 0.70300001 4293978340
-0.13289937 0.051739216 0.70300001 4294109669
-0.13156231 0.051737554 0.70300001 4293912547
-0.1302253 0.051735912 0.70300001 4294043615
-0.12888838 0.051734276 0.70300001 4294043615
-0.12773295 0.051806238 0.704 4294043615
-0.12675333 0.0519518 0.70599997 4294109408
-0.12541093 0.05195019 0.70599997 4293978592
-0.12424432 0.052022181 0.70700002 4293978592
-0.12290012 0.052020591 0.70700002 4293978340
-0.12172791 0.052092593 0.708 4293912547
-0.12038197 0.052091025 0.708 4293913060
-0.11903609 0.052089468 0.708 4293847267
-0.11802273 0.052235074 0.70999998 4293518554
-0.1166732 0.05223354 0.70999998 4293584347
-0.11548615 0.052305579 0.71100003 4293847265
-0.11413484 0.052304074 0.71100003 4294044644
-0.11310084 0.052449707 0.713 4294044646
-0.11174587 0.052448209 0.713 4293913060
-0.11039097 0.052446738 0.713 4293847267
-0.10903613 0.052445274 0.713 4293715682
-0.10768136 0.052443832 0.713 4293846752
-0.10647579 0.052515943 0.71399999 4293978338
-0.10511924 0.05251452 0.71399999 4293978851
-0.10376277 0.052513108 0.71399999 4293913058
-0.10269324 0.052658815 0.71600002 4293978338
-0.10147462 0.052730978 0.71700001 4293978338
-0.1003919 0.052876681 0.71899998 4293714911
-0.099163935 0.052948862 0.72000003 4293912547
-0.098068044 0.053094592 0.722 4293912547
-0.096830688 0.053166788 0.72299999 4293912547
-0.095985711 0.0534596 0.727 4293847267
-0.094605081 0.053458288 0.727 4293715682
-0.093352735 0.053530518 0.72799999 4293452509
-0.092222981 0.053676289 0.73000002 4293518302
-0.09096127 0.053748544 0.73100001 4293715165
-0.089818366 0.053894334 0.73299998 4293715165
-0.088426642 0.053893078 0.73299998 4293715161
-0.087153733 0.053965382 0.73400003 4293715161
-0.086578116 0.054478802 0.741 4293715163
-0.085171402 0.054477587 0.741 4293649370
-0.084103867 0.054696951 0.74400002 4293451994
-0.08269158 0.05469577 0.74400002 4293188565
-0.081607081 0.054915141 0.74699998 4293319640
-0.080189198 0.054913975 0.74699998 4293188054
-0.07877139 0.054912843 0.74699998 4292925648
-0.077560753 0.055058744 0.74900001 4292794061
-0.076139256 0.055057641 0.74900001 4292728268
-0.22103633 0.055830512 0.73799998 4294373879
-0.21962954 0.055828478 0.73799998 4294702844
-0.21763135 0.055675142 0.736 4294638078
-0.21564083 0.05552182 0.73400003 4292532702
-0.21424176 0.055519789 0.73400003 4291412688
-0.2119727 0.055290837 0.73100001 4291478481
-0.20971517 0.055061895 0.72799999 4292200898
-0.20804138 0.054984245 0.727 4292595655
-0.20523448 0.054604083 0.722 4292595653
-0.20329367 0.054450814 0.72000003 4292595653
-0.20192145 0.054448813 0.72000003 4292661708
-0.2002707 0.054371189 0.71899998 4292990672
-0.19834714 0.05421795 0.71700001 4292859856
-0.19615653 0.053989112 0.71399999 4292859856
-0.19452308 0.053911522 0.713 4292859854
-0.19316435 0.05390954 0.713 4293057490
-0.19099864 0.053680744 0.70999998 4293122248
-0.18964572 0.053678773 0.70999998 4293188041
-0.18749724 0.05345 0.70700002 4293188306
-0.18615015 0.053448047 0.70700002 4293254099
-0.18454169 0.053370487 0.70599997 4293254101
-0.18319657 0.053368542 0.70599997 4293188308
-0.18133633 0.053215418 0.704 4293319640
-0.17973951 0.053137895 0.70300001 4293582812
-0.17840022 0.053135954 0.70300001 4293517269
-0.17706105 0.053134024 0.70300001 4293320146
-0.1757219 0.053132102 0.70300001 4293385687
-0.17438281 0.053130187 0.70300001 4293517017
-0.17304379 0.053128272 0.70300001 4293517019
-0.17170478 0.053126357 0.70300001 4293648605
-0.17036587 0.05312445 0.70300001 4293714650
-0.169027 0.05312255 0.70300001 4293714650
-0.16768818 0.053120647 0.70300001 4293780445
-0.16634943 0.053118762 0.70300001 4293780445
-0.16501074 0.053116869 0.70300001 4293846238
-0.16320647 0.05296389 0.70099998 4293977568
-0.16187169 0.052962013 0.70099998 4293846236
-0.16053699 0.052960154 0.70099998 4293583064
-0.15920232 0.052958284 0.70099998 4293714652
-0.15786773 0.052956436 0.70099998 4293780445
-0.15630992 0.052879058 0.69999999 4293780445
-0.15497737 0.052877221 0.69999999 4293780445
-0.15364487 0.052875396 0.69999999 4293714911
-0.15253004 0.052949119 0.70099998 4293517789
-0.15119576 0.052947301 0.70099998 4293714911
-0.14986156 0.052945498 0.70099998 4293780704
-0.1485274 0.052943692 0.70099998 4294043361
-0.14719331 0.0529419 0.70099998 4294043361
-0.14627548 0.053091165 0.70300001 4293846754
-0.14493774 0.053089395 0.70300001 4293714911
-0.14319152 0.052936587 0.70099998 4293780704
-0.1418577 0.052934833 0.70099998 4293912547
-0.14052396 0.052933089 0.70099998 4293912547
-0.13919029 0.052931357 0.70099998 4293912547
-0.13785668 0.052929621 0.70099998 4293912547
-0.13652314 0.052927904 0.70099998 4293912547
-0.13518967 0.052926201 0.70099998 4293912547
-0.13385627 0.052924503 0.70099998 4293978340
-0.13252293 0.052922823 0.70099998 4293912547
-0.13156395 0.053072128 0.70300001 4293846754
-0.13022695 0.053070463 0.70300001 4293846754
-0.12907337 0.053144291 0.704 4293846754
-0.12809747 0.053293616 0.70599997 4293780958
-0.12675497 0.053291969 0.70599997 4293846752
-0.12541252 0.053290334 0.70599997 4293912547
-0.12424592 0.053364202 0.70700002 4293912547
-0.1229017 0.053362589 0.70700002 4293912547
-0.1217295 0.053436454 0.708 4293846754
-0.12038355 0.053434875 0.708 4293912545
-0.11903763 0.053433288 0.708 4293912545
-0.11802427 0.053582657 0.70999998 4293781210
-0.11667471 0.0535811 0.70999998 4293781210
-0.11548767 0.053655028 0.71100003 4293847263
-0.11445741 0.053804416 0.713 4293847263
-0.11310235 0.053802893 0.713 4293847267
-0.11174737 0.053801376 0.713 4293715682
-0.11039244 0.053799879 0.713 4293715682
-0.10903759 0.053798396 0.713 4293715682
-0.10768283 0.053796936 0.713 4293715936
-0.10647722 0.053870913 0.71399999 4293847265
-0.10512067 0.053869471 0.71399999 4293979103
-0.10405486 0.054018941 0.71600002 4293847517
-0.10269463 0.05401751 0.71600002 4293913058
-0.10147601 0.054091543 0.71700001 4293913058
-0.10039327 0.054241031 0.71899998 4293912547
-0.099165305 0.05431509 0.72000003 4294109669
-0.0980694 0.054464586 0.722 4293846754
-0.096698105 0.054463223 0.722 4293780704
-0.096119083 0.054914482 0.72799999 4293649888
-0.094736524 0.054913137 0.72799999 4293649888
-0.093354046 0.054911818 0.72799999 4293584095
-0.09235061 0.055136781 0.73100001 4293584095
-0.091211423 0.055286337 0.73299998 4293715163
-0.089942165 0.055360474 0.73400003 4293715163
-0.088548549 0.055359211 0.73400003 4293649116
-0.08715497 0.055357955 0.73400003 4293649116
-0.086579345 0.055884633 0.741 4293649368
-0.085172608 0.055883404 0.741 4293518039
-0.083878987 0.055957604 0.74199998 4293452246
-0.082692772 0.056107238 0.74400002 4293057488
-0.081499003 0.05625686 0.74599999 4292991445
-0.080190361 0.056331109 0.74699998 4292991445
-0.078772523 0.056329943 0.74699998 4293122765
-0.077354759 0.056328803 0.74699998 4292793800
-0.07593704 0.056327686 0.74699998 4292859595
-0.22103837 0.057233144 0.73799998 4294505208
-0.21963157 0.057231076 0.73799998 4294702844
-0.21763341 0.05707391 0.736 4294703357
-0.21564285 0.05691677 0.73400003 4293255655
-0.21424377 0.05691471 0.73400003 4292136660
-0.21168479 0.056602508 0.73000002 4291412938
-0.20942914 0.056367844 0.727 4292069048
-0.20804343 0.056365792 0.727 4292660928
-0.20523649 0.055976108 0.722 4292595905
-0.20329571 0.055819031 0.72000003 4292661699
-0.20192344 0.055816997 0.72000003 4292595653
-0.20027269 0.05573744 0.71899998 4292858569
-0.19807254 0.055502869 0.71600002 4292990924
-0.19615853 0.055345818 0.71399999 4292990924
-0.19452503 0.055266298 0.713 4292990924
-0.19316633 0.055264294 0.713 4293056718
-0.19126962 0.055107281 0.71100003 4293122252
-0.18964769 0.055027775 0.70999998 4293188045
-0.18749923 0.054793287 0.70700002 4293188306
-0.18615212 0.054791301 0.70700002 4293188306
-0.18454367 0.054711815 0.70599997 4293188306
-0.18319853 0.054709848 0.70599997 4293188306
-0.1813383 0.054552898 0.704 4293188308
-0.17974144 0.054473445 0.70300001 4293517017
-0.1784022 0.054471493 0.70300001 4293319892
-0.177063 0.054469544 0.70300001 4293319892
-0.17572385 0.054467585 0.70300001 4293517271
-0.17438474 0.05446564 0.70300001 4293517271
-0.17304568 0.054463692 0.70300001 4293517017
-0.17170672 0.054461759 0.70300001 4293648603
-0.17036778 0.054459825 0.70300001 4293648857
-0.16902892 0.054457895 0.70300001 4293714650
-0.1676901 0.054455977 0.70300001 4293714650
-0.16635132 0.054454055 0.70300001 4293780443
-0.16501266 0.054452147 0.70300001 4293714652
-0.16320834 0.054295331 0.70099998 4293714652
-0.16187355 0.054293431 0.70099998 4293714650
-0.16053885 0.054291543 0.70099998 4293648857
-0.15920421 0.054289665 0.70099998 4293648857
-0.15764439 0.054210342 0.69999999 4293648857
-0.1563118 0.05420848 0.69999999 4293648857
-0.1549792 0.054206617 0.69999999 4293648857
-0.15364672 0.054204762 0.69999999 4293714398
-0.15253188 0.054280356 0.70099998 4293714398
-0.1511976 0.054278519 0.70099998 4293714652
-0.14986336 0.054276679 0.70099998 4293780445
-0.1485292 0.054274853 0.70099998 4294043361
-0.14719513 0.054273039 0.70099998 4293977568
-0.14627728 0.054426074 0.70300001 4293780704
-0.14493953 0.054424278 0.70300001 4293780704
-0.14319327 0.054267645 0.70099998 4293846238
-0.14185947 0.054265868 0.70099998 4293977568
-0.1405257 0.054264098 0.70099998 4293846754
-0.13919201 0.054262333 0.70099998 4293846754
-0.13785841 0.054260582 0.70099998 4293715684
-0.13652486 0.054258835 0.70099998 4293715684
-0.13519138 0.054257106 0.70099998 4293780704
-0.13385797 0.054255381 0.70099998 4293846754
-0.13252461 0.054253668 0.70099998 4293715682
-0.13156565 0.054406758 0.70300001 4293715682
-0.13022861 0.05440506 0.70300001 4293715682
-0.12907504 0.054480765 0.704 4293649888
-0.12809913 0.05463386 0.70599997 4293650142
-0.12675662 0.054632187 0.70599997 4293715936
-0.12541418 0.054630537 0.70599997 4293846752
-0.12424755 0.054706272 0.70700002 4293912545
-0.12290332 0.054704629 0.70700002 4293912545
-0.12173112 0.054780383 0.708 4293912545
-0.12038513 0.05477877 0.708 4293780445
-0.11937549 0.05493189 0.70999998 4293846238
-0.11819209 0.055007674 0.71100003 4293977822
-0.11684062 0.055006091 0.71100003 4293977822
-0.1158141 0.055159248 0.713 4293715936
-0.11445896 0.055157684 0.713 4293847265
-0.11310389 0.05515613 0.713 4293715682
-0.11174889 0.055154603 0.713 4293715682
-0.11039396 0.055153083 0.713 4293846752
-0.10903908 0.055151567 0.713 4293780958
-0.10783532 0.055227425 0.71399999 4293452507
-0.1064787 0.055225939 0.71399999 4293715936
-0.10512213 0.055224471 0.71399999 4294110693
-0.1040563 0.055377714 0.71600002 4293847265
-0.10269607 0.055376261 0.71600002 4293715682
-0.10147743 0.055452172 0.71700001 4293715682
-0.10053433 0.055682775 0.72000003 4293780704
-0.099166691 0.055681359 0.72000003 4293780704
-0.098070763 0.055834632 0.722 4293649118
-0.097101271 0.05606525 0.72500002 4293714911
-0.095988393 0.056218531 0.727 4293584095
-0.094737865 0.056294508 0.72799999 4293584095
-0.093611836 0.056447808 0.73000002 4293518300
-0.092351928 0.056523804 0.73100001 4293518300
-0.091212735 0.056677133 0.73299998 4293649370
-0.089943454 0.056753147 0.73400003 4293715163
-0.088549808 0.056751862 0.73400003 4293649370
-0.087393709 0.056905217 0.736 4293518041
-0.086580604 0.057290532 0.741 4293452248
-0.085173845 0.057289273 0.741 4293386199
-0.083880201 0.057365347 0.74199998 4293188565
-0.082693972 0.057518762 0.74400002 4292991443
-0.081500202 0.057672165 0.74599999 4292991443
-0.08019153 0.057748277 0.74699998 4292859856
-0.078773685 0.057747103 0.74699998 4292859341
-0.077355899 0.057745945 0.74699998 4292727755
-0.22104044 0.058635801 0.73799998 4294637049
-0.21963364 0.058633711 0.73799998 4294768635
-0.2176355 0.05847273 0.736 4294572285
-0.2153511 0.058232307 0.73299998 4293783026
-0.21395391 0.058230225 0.73299998 4292795358
-0.21168682 0.057989828 0.73000002 4291018947
-0.2094312 0.057749461 0.727 4291608504
-0.20804548 0.057747386 0.727 4292266691
-0.20552278 0.057427593 0.72299999 4292660928
-0.2032977 0.057187252 0.72000003 4292792515
-0.20164506 0.05710578 0.71899998 4292661701
-0.19971761 0.056944888 0.71700001 4292661701
-0.19752127 0.056704596 0.71399999 4292924616
-0.19588582 0.056623138 0.713 4293122252
-0.19452707 0.056621112 0.713 4292990922
-0.19316833 0.056619082 0.713 4293056716
-0.19127165 0.05645825 0.71100003 4293056716
-0.1896497 0.056376811 0.70999998 4293056716
-0.18776643 0.056215998 0.708 4293187791
-0.18615411 0.056134593 0.70700002 4293319120
-0.18454562 0.056053184 0.70599997 4293319120
-0.18320055 0.056051187 0.70599997 4293319120
-0.18185546 0.056049187 0.70599997 4293188306
-0.1799991 0.055888422 0.704 4293517271
-0.17840414 0.055807069 0.70300001 4293450962
-0.17706493 0.055805076 0.70300001 4293319120
-0.17572579 0.055803102 0.70300001 4293517271
-0.17463474 0.055880502 0.704 4293583064
-0.17304765 0.055799164 0.70300001 4293583064
-0.17170866 0.055797201 0.70300001 4293583064
-0.17036973 0.055795241 0.70300001 4293648857
-0.16903085 0.055793285 0.70300001 4293583064
-0.16769202 0.055791344 0.70300001 4293648857
-0.16635326 0.055789389 0.70300001 4293714650
-0.16454509 0.055628743 0.70099998 4293648857
-0.16321026 0.055626813 0.70099998 4293583064
-0.16187546 0.055624887 0.70099998 4293648857
-0.16054074 0.055622976 0.70099998 4293583064
-0.15897898 0.055541731 0.69999999 4293583064
-0.15764628 0.055539828 0.69999999 4293583064
-0.15631366 0.055537939 0.69999999 4293517019
-0.15498108 0.05553605 0.69999999 4293517019
-0.15364857 0.055534169 0.69999999 4293648857
-0.15231612 0.055532303 0.69999999 4293714650
-0.15119945 0.055609766 0.70099998 4293714650
-0.14986521 0.055607904 0.70099998 4293648857
-0.14853103 0.05560606 0.70099998 4293648857
-0.14761694 0.055762865 0.70300001 4293714650
-0.14627911 0.055761028 0.70300001 4293649118
-0.14494133 0.055759199 0.70300001 4293714911
-0.14360362 0.05575737 0.70300001 4293715165
-0.14186125 0.05559694 0.70099998 4293780958
-0.1405275 0.055595152 0.70099998 4293780704
-0.1391938 0.055593356 0.70099998 4293780704
-0.13786018 0.05559158 0.70099998 4293715686
-0.1365266 0.055589817 0.70099998 4293715686
-0.13519311 0.055588055 0.70099998 4293846754
-0.13424161 0.055744905 0.70300001 4293846754
-0.13290446 0.055743162 0.70300001 4293649888
-0.13156734 0.055741429 0.70300001 4293649888
-0.13041557 0.055818997 0.704 4293649888
-0.12907672 0.055817287 0.704 4293649888
-0.12810081 0.055974148 0.70599997 4293715936
-0.12675829 0.055972461 0.70599997 4293715936
-0.12559348 0.056050058 0.70700002 4293780958
-0.1242492 0.056048382 0.70700002 4293846752
-0.12290497 0.056046724 0.70700002 4293977568
-0.12173275 0.056124344 0.708 4294109154
-0.12038676 0.056122705 0.708 4293780704
-0.11904084 0.056121081 0.708 4293780704
-0.11802747 0.05627799 0.70999998 4293780958
-0.11684222 0.056355659 0.71100003 4293780958
-0.11549079 0.056354053 0.71100003 4293846752
-0.11446053 0.056510992 0.713 4293846752
-0.11310544 0.056509424 0.713 4293846752
-0.11175043 0.056507863 0.713 4293780958
-0.11055031 0.056585573 0.71399999 4293650142
-0.10919354 0.056584038 0.71399999 4293584093
-0.10783681 0.056582514 0.71399999 4293517787
-0.10648018 0.056581017 0.71399999 4293517787
-0.10541807 0.056738015 0.71600002 4293584093
-0.10405777 0.056736536 0.71600002 4293650142
-0.10284095 0.056814302 0.71700001 4293649888
-0.10176194 0.056971326 0.71899998 4293584095
-0.10053574 0.057049114 0.72000003 4293780958
-0.09944357 0.057206154 0.722 4293715165
-0.098072179 0.057204742 0.722 4293649118
-0.096834779 0.05728256 0.72299999 4293649118
-0.095989771 0.057598077 0.727 4293518302
-0.094739243 0.057675932 0.72799999 4293518302
-0.093613185 0.057833008 0.73000002 4293649370
-0.092353269 0.057910871 0.73100001 4293518041
-0.091214053 0.058067977 0.73299998 4293518039
-0.089944765 0.058145866 0.73400003 4293649368
-0.088551112 0.058144558 0.73400003 4293518039
-0.087394983 0.058301695 0.736 4293320659
-0.086581863 0.058696467 0.741 4293320405
-0.085175097 0.058695201 0.741 4293188819
-0.084107533 0.058931582 0.74400002 4293188817
-0.082917482 0.05908874 0.74599999 4292925902
-0.081610657 0.059166718 0.74699998 4292990924
-0.080192722 0.059165508 0.74699998 4292661960
-0.07898578 0.059322726 0.74900001 4292661710
-0.077564172 0.059321541 0.74900001 4293122261
-0.21814768 0.059629634 0.73299998 4294505979
-0.21675046 0.059627537 0.73299998 4294572539
-0.21535325 0.059625436 0.73299998 4294572539
-0.21395604 0.059623331 0.73299998 4292993773
-0.21168892 0.059377212 0.73000002 4290625225
-0.20972136 0.059212439 0.72799999 4291477168
-0.20804761 0.059129018 0.727 4292266941
-0.20552488 0.058801603 0.72299999 4292398524
-0.20329978 0.058555547 0.72000003 4292530110
-0.20164709 0.058472138 0.71899998 4292661699
-0.19971967 0.05830742 0.71700001 4292727492
-0.19752331 0.058061406 0.71399999 4292661447
-0.19588785 0.057978023 0.713 4292924618
-0.19452912 0.05797597 0.713 4292990922
-0.19317041 0.057973925 0.713 4292990922
-0.19127366 0.05780926 0.71100003 4292990924
-0.18991886 0.057807207 0.71100003 4293056718
-0.18829884 0.057723857 0.70999998 4293056718
-0.18694602 0.057721823 0.70999998 4293122511
-0.18480906 0.057475902 0.70700002 4293187793
-0.18346204 0.057473868 0.70700002 4293187793
-0.18185744 0.057390548 0.70599997 4293187793
-0.18051244 0.057388537 0.70599997 4293319122
-0.17865993 0.057223953 0.704 4293187793
-0.17731883 0.057221945 0.704 4293319122
-0.17597777 0.057219945 0.704 4293648857
-0.17463672 0.057217937 0.704 4293583064
-0.17304963 0.057134673 0.70300001 4293582810
-0.17171063 0.057132687 0.70300001 4293582810
-0.17037171 0.057130706 0.70300001 4293583064
-0.16903281 0.057128727 0.70300001 4293583064
-0.16769399 0.057126746 0.70300001 4293517269
-0.16635522 0.057124779 0.70300001 4293583062
-0.16454703 0.056960303 0.70099998 4293517271
-0.16321218 0.056958344 0.70099998 4293583064
-0.16187739 0.056956392 0.70099998 4293583064
-0.16054267 0.056954458 0.70099998 4293583064
-0.15898089 0.05687128 0.69999999 4293517271
-0.15764819 0.056869354 0.69999999 4293517271
-0.15631555 0.056867439 0.69999999 4293517271
-0.15498297 0.056865525 0.69999999 4293583064
-0.15365045 0.056863621 0.69999999 4293583062
-0.152318 0.056861728 0.69999999 4293648855
-0.15120131 0.056941073 0.70099998 4293649370
-0.14986709 0.056939192 0.70099998 4293518041
-0.14853291 0.056937318 0.70099998 4293648857
-0.14761879 0.057097893 0.70300001 4293648857
-0.14628094 0.057096027 0.70300001 4293649118
-0.14494316 0.057094168 0.70300001 4293780704
-0.1431969 0.056929901 0.70099998 4293781210
-0.14186306 0.056928068 0.70099998 4293847004
-0.14052929 0.056926247 0.70099998 4293780704
-0.13919559 0.05692444 0.70099998 4293780704
-0.13786195 0.056922633 0.70099998 4293649890
-0.13652839 0.056920834 0.70099998 4293715684
-0.1351949 0.056919061 0.70099998 4293649888
-0.13424335 0.057079677 0.70300001 4293649888
-0.1329062 0.057077911 0.70300001 4293649888
-0.1315691 0.057076156 0.70300001 4293649888
-0.13041732 0.057155598 0.704 4293584095
-0.12907843 0.057153855 0.704 4293584095
-0.12810253 0.057314496 0.70599997 4293650142
-0.12675999 0.057312783 0.70599997 4293650142
-0.12541752 0.057311073 0.70599997 4293715163
-0.12425087 0.057390556 0.70700002 4293780956
-0.12290663 0.057388872 0.70700002 4293780958
-0.1217344 0.057468362 0.708 4293912545
-0.1203884 0.057466701 0.708 4293846754
-0.11904246 0.057465054 0.708 4293780704
-0.11802909 0.057625741 0.70999998 4293780958
-0.11684383 0.057705276 0.71100003 4293715165
-0.11549239 0.057703651 0.71100003 4293715936
-0.11446212 0.057864361 0.713 4293715936
-0.11310703 0.057862766 0.713 4293584093
-0.111752 0.05786119 0.713 4293584093
-0.11055186 0.057940766 0.71399999 4293584093
-0.10919507 0.057939213 0.71399999 4293584093
-0.10783833 0.057937663 0.71399999 4293649370
-0.10677996 0.058098432 0.71600002 4293518041
-0.10541958 0.058096915 0.71600002 4293451994
-0.10420458 0.058176555 0.71700001 4293517787
-0.10312927 0.058337327 0.71899998 4293649116
-0.10190492 0.058416981 0.72000003 4293715165
-0.1005372 0.058415528 0.72000003 4293650142
-0.099445 0.058576331 0.722 4293584093
-0.098073587 0.058574885 0.722 4293452509
-0.096836194 0.058654591 0.72299999 4293452509
-0.095991172 0.058977678 0.727 4293518302
-0.094740607 0.059057403 0.72799999 4293518302
-0.093614556 0.059218265 0.73000002 4293451994
-0.092354618 0.059298005 0.73100001 4293386201
-0.091215394 0.059458889 0.73299998 4293254610
-0.089946106 0.059538659 0.73400003 4293386453
-0.088552415 0.059537325 0.73400003 4293452246
-0.087396286 0.059698232 0.736 4293320659
-0.086583167 0.060102481 0.741 4293254614
-0.085176364 0.060101185 0.741 4293188565
-0.084108785 0.060343232 0.74400002 4293057236
-0.083029874 0.060585283 0.74699998 4292859856
-0.081830405 0.060746245 0.74900001 4292794059
-0.080408655 0.060745012 0.74900001 4292531144
-0.080041528 0.06155479 0.759 4292924366
-0.078600936 0.061553583 0.759 4293582297
-0.21675259 0.061020721 0.73299998 4294506231
-0.21535532 0.06101859 0.73299998 4294967039
-0.21395816 0.061016466 0.73299998 4294440186
-0.21198104 0.060847871 0.73100001 4290689985
-0.20972341 0.06059603 0.72799999 4291148207
-0.20833586 0.060593911 0.72799999 4291937723
-0.20552698 0.060175642 0.72299999 4292068542
-0.20330188 0.059923857 0.72000003 4292529093
-0.20164917 0.059838526 0.71899998 4292595905
-0.19972177 0.05966999 0.71700001 4292727492
-0.19752538 0.059418246 0.71399999 4292727494
-0.19616467 0.059416167 0.71399999 4292661701
-0.1945312 0.059330869 0.713 4292924614
-0.19317244 0.059328787 0.713 4292990663
-0.19127572 0.059160303 0.71100003 4292859593
-0.18992093 0.05915824 0.71100003 4292990922
-0.18830089 0.059072956 0.70999998 4292990924
-0.18694809 0.059070893 0.70999998 4292990924
-0.18507248 0.058902442 0.708 4293056206
-0.18346407 0.058817193 0.70700002 4293122000
-0.1821171 0.058815148 0.70700002 4293056206
-0.18051447 0.058729909 0.70599997 4293122000
-0.17916949 0.058727872 0.70599997 4293056466
-0.17732082 0.058559474 0.704 4293188308
-0.17597975 0.058557443 0.704 4293188308
-0.17463875 0.058555424 0.704 4293254101
-0.17305164 0.058470227 0.70300001 4293319640
-0.17171262 0.058468204 0.70300001 4293319640
-0.17037368 0.058466204 0.70300001 4293517269
-0.16903481 0.058464199 0.70300001 4293517269
-0.16769597 0.058462191 0.70300001 4293582549
-0.16635719 0.058460202 0.70300001 4293648342
-0.16501847 0.058458216 0.70300001 4293583062
-0.16321416 0.05828993 0.70099998 4293517269
-0.16187936 0.058287948 0.70099998 4293517271
-0.16054463 0.058285989 0.70099998 4293517271
-0.15920994 0.058284033 0.70099998 4293517017
-0.15765011 0.058198929 0.69999999 4293385687
-0.15631749 0.058196988 0.69999999 4293582549
-0.15498491 0.058195058 0.69999999 4293648342
-0.15365238 0.058193132 0.69999999 4293517269
-0.15231992 0.058191203 0.69999999 4293517269
-0.1512032 0.05827241 0.70099998 4293583062
-0.14986898 0.058270514 0.70099998 4293648855
-0.14853479 0.05826861 0.70099998 4293517787
-0.14762065 0.058432955 0.70300001 4293517787
-0.14628282 0.05843107 0.70300001 4293649636
-0.14494503 0.058429193 0.70300001 4293715686
-0.14319876 0.058261093 0.70099998 4293781460
-0.14186488 0.058259234 0.70099998 4293847254
-0.14053112 0.05825739 0.70099998 4293584093
-0.13919741 0.058255546 0.70099998 4293518300
-0.13786376 0.058253724 0.70099998 4293649888
-0.13653018 0.058251906 0.70099998 4293649888
-0.1355824 0.0584163 0.70300001 4293650142
-0.13424514 0.058414485 0.70300001 4293584093
-0.13290797 0.058412701 0.70300001 4293584093
-0.13175799 0.058494002 0.704 4293584093
-0.13041905 0.058492232 0.704 4293715163
-0.12908018 0.05849047 0.704 4293649370
-0.12810425 0.058654882 0.70599997 4293715163
-0.1267617 0.058653142 0.70599997 4293715163
-0.12541923 0.05865141 0.70599997 4293715163
-0.12425257 0.058732774 0.70700002 4293846750
-0.12290832 0.058731057 0.70700002 4293780956
-0.12173607 0.058812432 0.708 4293846750
-0.12039005 0.058810741 0.708 4293715684
-0.11938041 0.058975197 0.70999998 4293584097
-0.11819696 0.059056591 0.71100003 4293715165
-0.11684547 0.059054937 0.71100003 4293715165
-0.11549403 0.059053302 0.71100003 4293781210
-0.11446371 0.059217777 0.713 4293912797
-0.11310862 0.059216168 0.713 4293715163
-0.11175358 0.059214558 0.713 4293518041
-0.11055344 0.059296012 0.71399999 4293715161
-0.10919664 0.059294436 0.71399999 4293715161
-0.10783989 0.059292872 0.71399999 4293649368
-0.10678149 0.059457403 0.71600002 4293518039
-0.10556833 0.059538905 0.71700001 4293518041
-0.10449675 0.059703454 0.71899998 4293518041
-0.10327421 0.059784967 0.72000003 4293649116
-0.10190642 0.05978347 0.72000003 4293517787
-0.10053867 0.059781983 0.72000003 4293518041
-0.099446453 0.059946563 0.722 4293452248
-0.098075025 0.059945095 0.722 4293386203
-0.096837603 0.060026675 0.72299999 4293386203
-0.09599261 0.060357351 0.727 4293518041
-0.094742022 0.060438938 0.72799999 4293386199
-0.093744196 0.060686599 0.73100001 4293386203
-0.092608683 0.060851227 0.73299998 4293386203
-0.091216765 0.060849842 0.73299998 4293320405
-0.08994744 0.060931481 0.73400003 4293320405
-0.088553749 0.060930144 0.73400003 4293254612
-0.087397605 0.061094832 0.736 4292925648
-0.086350784 0.061342526 0.73900002 4292991443
-0.085177667 0.061507232 0.741 4293057236
-0.084336184 0.06192096 0.74599999 4292990924
-0.083031155 0.06200267 0.74699998 4292793546
-0.081940904 0.062250406 0.75 4292727753
-0.080731951 0.062415149 0.75199997 4292727753
-0.080042772 0.062994897 0.759 4293055952
-0.07860215 0.062993653 0.759 4292661195
-0.21198316 0.062237218 0.73100001 4290822088
-0.21030176 0.062149942 0.73000002 4291081649
-0.20833795 0.061977517 0.72799999 4291871165
-0.20609763 0.061719991 0.72500002 4292002231
-0.20330396 0.061292212 0.72000003 4292594368
-0.20165128 0.061204962 0.71899998 4292595905
-0.19972388 0.061032604 0.71700001 4292661699
-0.19752747 0.060775131 0.71399999 4292661701
-0.19589202 0.060687911 0.713 4292727494
-0.19453326 0.060685806 0.713 4292858823
-0.19317453 0.060683697 0.713 4292924616
-0.19127782 0.060511392 0.71100003 4292924618
-0.18992299 0.060509298 0.71100003 4292990411
-0.18856823 0.060507216 0.71100003 4292859595
-0.18695013 0.060420007 0.70999998 4292859595
-0.18507457 0.06024773 0.708 4292990924
-0.18372563 0.060245659 0.708 4293056718
-0.18211912 0.060158487 0.70700002 4293056718
-0.18077224 0.060156427 0.70700002 4293056718
-0.17917152 0.060069263 0.70599997 4293122513
-0.17782661 0.060067207 0.70599997 4293122513
-0.1759818 0.059894986 0.704 4293188308
-0.1746408 0.059892945 0.704 4293254101
-0.17305367 0.059805829 0.70300001 4293385689
-0.17171465 0.059803788 0.70300001 4293385689
-0.17037569 0.05980175 0.70300001 4293385939
-0.16903682 0.05979972 0.70300001 4293385939
-0.16769798 0.0597977 0.70300001 4293582549
-0.1658859 0.059625559 0.70099998 4293648342
-0.16455097 0.059623543 0.70099998 4293648342
-0.16321613 0.059621546 0.70099998 4293582549
-0.16188134 0.059619553 0.70099998 4293385939
