# .PCD v0.7 - Point Cloud Data file format
VERSION 0.7
FIELDS x y z rgba
SIZE 4 4 4 4
TYPE F F F U
COUNT 1 1 1 1
WIDTH 1017
HEIGHT 1
VIEWPOINT 0 0 0 1 0 0 0
POINTS 1017
DATA ascii
0.031815261 -0.087884456 0.57099998 4290687668
0.032897878 -0.087884784 0.57099998 4290687666
0.034040019 -0.088039033 0.57200003 4290556336
0.03512457 -0.088039391 0.57200003 4290425263
0.036272436 -0.088193662 0.57300001 4290491056
0.037489314 -0.088501878 0.57499999 4290294443
0.038579609 -0.088502273 0.57499999 4290228650
0.039738908 -0.088656589 0.57599998 4290358955
0.040972922 -0.088964872 0.57800001 4290293162
0.042068966 -0.088965304 0.57800001 4290358442
-0.072144359 -0.09093859 0.59799999 4292662491
-0.071009122 -0.090937637 0.59799999 4292662491
-0.069640256 -0.09063258 0.59600002 4292794063
-0.068393953 -0.090479568 0.59500003 4292925650
-0.066925392 -0.09002246 0.59200001 4293056218
-0.065690584 -0.089869499 0.59100002 4293187804
-0.064459607 -0.089716531 0.58999997 4292793298
-0.063339815 -0.08971566 0.58999997 4292793298
-0.062220059 -0.08971478 0.58999997 4292859091
-0.058964062 -0.088192515 0.57999998 4293056216
-0.057863422 -0.088191696 0.57999998 4292859093
-0.056762803 -0.088190876 0.57999998 4292727253
-0.05556627 -0.088038042 0.579 4292990169
-0.054467622 -0.08803723 0.579 4292925400
-0.053369019 -0.088036463 0.579 4293056986
-0.051999625 -0.087579556 0.57599998 4292728786
-0.05081841 -0.087426752 0.57499999 4292794580
-0.049727499 -0.087426007 0.57499999 4292662743
-0.04855204 -0.087273248 0.574 4292596950
-0.047463104 -0.08727254 0.574 4292399054
-0.046293404 -0.087119795 0.57300001 4292596689
-0.045127533 -0.086967073 0.57200003 4292596689
-0.043965489 -0.086814344 0.57099998 4292925398
-0.042732164 -0.086509608 0.56900001 4292729038
-0.041652869 -0.086508967 0.56900001 4292729038
-0.040573604 -0.086508334 0.56900001 4292662993
-0.03942496 -0.086355686 0.56800002 4292597200
-0.03834765 -0.08635506 0.56800002 4292728016
-0.037204746 -0.086202435 0.56699997 4292991445
-0.036129389 -0.086201854 0.56699997 4292464849
-0.034992237 -0.086049259 0.56599998 4292399056
-0.033858903 -0.085896678 0.565 4292464847
-0.032729391 -0.085744128 0.56400001 4292464847
-0.031659819 -0.085743584 0.56400001 4292333008
-0.030536044 -0.085591063 0.56300002 4292333008
-0.029468423 -0.085590549 0.56300002 4292464847
-0.028400827 -0.085590072 0.56300002 4292464847
-0.027333254 -0.085589603 0.56300002 4292530640
-0.026265698 -0.085589148 0.56300002 4292728018
-0.025153408 -0.085436665 0.56199998 4292267986
-0.024087792 -0.085436232 0.56199998 4292267986
-0.022981236 -0.085283801 0.56099999 4292268238
-0.021917554 -0.085283406 0.56099999 4292004809
-0.020853888 -0.085283011 0.56099999 4291939018
-0.019825522 -0.085434653 0.56199998 4292465362
-0.018759998 -0.085434295 0.56199998 4292268235
-0.017663004 -0.085281923 0.56099999 4292005063
-0.016599409 -0.085281596 0.56099999 4292070856
-0.015535828 -0.085281275 0.56099999 4292136649
-0.014498059 -0.085432999 0.56199998 4292136649
-0.013432609 -0.085432693 0.56199998 4292070856
-0.012367174 -0.085432425 0.56199998 4292005063
-0.011301749 -0.085432164 0.56199998 4291939014
-0.010236337 -0.085431926 0.56199998 4292070343
-0.0091709336 -0.08543168 0.56199998 4292267465
-0.0081055416 -0.085431471 0.56199998 4292266952
-0.0070401588 -0.085431263 0.56199998 4292530123
-0.0059747831 -0.085431069 0.56199998 4292004548
-0.004891945 -0.085126862 0.56 4291938754
-0.0038303765 -0.085126713 0.56 4291675587
-0.002758926 -0.084822536 0.55800003 4291806916
-0.0017011611 -0.084822431 0.55800003 4291740610
-0.00064340071 -0.08482229 0.55800003 4291740610
0.00041435531 -0.084822185 0.55800003 4291805899
0.0014721079 -0.084822111 0.55800003 4291740106
0.0025298577 -0.084822036 0.55800003 4291543493
0.0035876054 -0.084821992 0.55800003 4291609542
0.0046536769 -0.084973939 0.55900002 4291675585
0.0057337591 -0.085277922 0.56099999 4291675585
0.0067971912 -0.085277915 0.56099999 4291609790
0.0078606242 -0.085277908 0.56099999 4291807168
0.0089240596 -0.085277922 0.56099999 4291608254
0.0099874958 -0.085277937 0.56099999 4291674048
0.011070634 -0.085429989 0.56199998 4291608256
0.012135975 -0.085430056 0.56199998 4291542463
0.013201315 -0.085430108 0.56199998 4291215036
0.014266663 -0.085430205 0.56199998 4291346365
0.015359302 -0.085582316 0.56300002 4291215032
0.01645573 -0.085734434 0.56400001 4291149239
0.017555963 -0.08588656 0.565 4291149239
0.018627025 -0.085886709 0.565 4291149239
0.019698096 -0.085886873 0.565 4291083444
0.020769179 -0.085887037 0.565 4291149493
0.021840267 -0.085887209 0.565 4291017139
0.02291137 -0.085887425 0.565 4291148469
0.023982484 -0.085887633 0.565 4291280309
0.025053607 -0.085887849 0.565 4291280309
0.026124742 -0.085888095 0.565 4290951859
0.027244024 -0.086040355 0.56599998 4290688688
0.028417148 -0.086344652 0.56800002 4290623158
0.02954594 -0.086496942 0.56900001 4290820537
0.030624717 -0.08649724 0.56900001 4290951609
0.031759225 -0.086649567 0.56999999 4290556852
0.032897551 -0.086801909 0.57099998 4290490804
0.034039676 -0.086954266 0.57200003 4290293682
0.035124213 -0.086954623 0.57200003 4290228398
0.036335368 -0.087258995 0.574 4290294447
0.037554126 -0.087563418 0.57599998 4290425513
0.038646299 -0.087563798 0.57599998 4290294184
0.039738499 -0.087564223 0.57599998 4290228391
0.040901605 -0.087716654 0.57700002 4290162342
0.042068522 -0.087869115 0.57800001 4290293162
-0.072143406 -0.089804187 0.59799999 4292268501
-0.070889436 -0.089653067 0.597 4292597209
-0.069522485 -0.089351803 0.59500003 4292729300
-0.068048202 -0.088900365 0.59200001 4292663506
-0.066924505 -0.088899463 0.59200001 4292333779
-0.065689698 -0.08874841 0.59100002 4292728537
-0.064567976 -0.088747524 0.59100002 4292530640
-0.063446298 -0.088746659 0.59100002 4292530640
-0.062324658 -0.088745795 0.59100002 4292595150
-0.058963247 -0.08709234 0.57999998 4292793046
-0.057862606 -0.087091535 0.57999998 4292793046
-0.056664132 -0.086940557 0.579 4292793300
-0.055565469 -0.086939774 0.579 4292859093
-0.054466847 -0.086939 0.579 4292661458
-0.053091738 -0.086487778 0.57599998 4292793300
-0.051998872 -0.086487025 0.57599998 4292334031
-0.050906036 -0.086486265 0.57599998 4292531153
-0.049726766 -0.086335391 0.57499999 4292596948
-0.048551325 -0.086184539 0.574 4292596948
-0.047462393 -0.086183816 0.574 4292333260
-0.046292711 -0.086032987 0.57300001 4292399054
-0.045126855 -0.085882165 0.57200003 4292398540
-0.043810833 -0.085431077 0.56900001 4292661712
-0.04273152 -0.085430428 0.56900001 4292268235
-0.04157903 -0.085279636 0.56800002 4292531407
-0.040501673 -0.085279018 0.56800002 4292333008
-0.039424345 -0.085278407 0.56800002 4292596437
-0.038279537 -0.085127674 0.56699997 4292531153
-0.037204161 -0.085127078 0.56699997 4292531153
-0.036128823 -0.085126504 0.56699997 4292202192
-0.035053503 -0.085125946 0.56699997 4292267986
-0.033858359 -0.084825136 0.565 4292334031
-0.032728858 -0.084674455 0.56400001 4292334031
-0.031659305 -0.084673949 0.56400001 4292267986
-0.030535541 -0.08452332 0.56300002 4292267986
-0.029467935 -0.084522821 0.56300002 4292334031
-0.028400352 -0.084522352 0.56300002 4292334031
-0.027332794 -0.084521875 0.56300002 4292399054
-0.026265254 -0.084521428 0.56300002 4292399054
-0.025152976 -0.084370859 0.56199998 4292136399
-0.024044514 -0.084220305 0.56099999 4292070606
-0.022939863 -0.084069774 0.56 4292137164
-0.021878093 -0.084069371 0.56 4291939786
-0.02085351 -0.084219113 0.56099999 4291939018
-0.019825159 -0.084368862 0.56199998 4292070604
-0.018759647 -0.084368519 0.56199998 4292070093
-0.017662672 -0.084218048 0.56099999 4292267215
-0.016599089 -0.08421772 0.56099999 4292333258
-0.01553552 -0.084217407 0.56099999 4292267465
-0.014497763 -0.084367231 0.56199998 4292070856
-0.01343233 -0.08436694 0.56199998 4291939014
-0.012366907 -0.084366672 0.56199998 4291939014
-0.011301496 -0.084366396 0.56199998 4291939014
-0.010236097 -0.084366158 0.56199998 4291938754
-0.0091707092 -0.084365927 0.56199998 4292004548
-0.0081053302 -0.084365703 0.56199998 4291807168
-0.0070399623 -0.084365517 0.56199998 4291872961
-0.0059639709 -0.084215209 0.56099999 4291938239
-0.0049005132 -0.08421503 0.56099999 4291872446
-0.0038507439 -0.084515117 0.56300002 4291675333
-0.002783509 -0.084514968 0.56300002 4291675333
-0.0017162797 -0.084514827 0.56300002 4291740608
-0.00064905587 -0.084514722 0.56300002 4291806401
0.00041667846 -0.084214389 0.56099999 4291675335
0.0014801036 -0.0842143 0.56099999 4291609542
0.0025344582 -0.083913997 0.55900002 4291477952
0.0035940872 -0.083913937 0.55900002 4291675587
0.0046537141 -0.083913893 0.55900002 4291675583
0.0057337834 -0.084214091 0.56099999 4291807168
0.006797201 -0.084214069 0.56099999 4291346617
0.0078606196 -0.084214076 0.56099999 4291478204
0.0089240391 -0.084214084 0.56099999 4291345852
0.0099874632 -0.084214114 0.56099999 4291411645
0.011050888 -0.084214151 0.56099999 4291346113
0.012135912 -0.084364317 0.56199998 4291346113
0.01320124 -0.084364384 0.56199998 4291215297
0.014266574 -0.084364459 0.56199998 4291149504
0.015359196 -0.084514678 0.56300002 4291149241
0.01642644 -0.084514797 0.56300002 4291215034
0.01752476 -0.08466503 0.56400001 4291149239
0.018593913 -0.084665172 0.56400001 4291083446
0.019663071 -0.084665321 0.56400001 4290623408
0.020769002 -0.084815606 0.565 4290754994
0.021840081 -0.084815793 0.565 4291082414
0.022911167 -0.084815979 0.565 4291214000
0.023982264 -0.084816195 0.565 4291147957
0.025053376 -0.084816411 0.565 4291082164
0.026124496 -0.084816642 0.565 4290687404
0.027340036 -0.085267246 0.56800002 4290818991
0.028416876 -0.085267521 0.56800002 4290623410
0.029545652 -0.085417911 0.56900001 4290623410
0.030624416 -0.085418202 0.56900001 4290688949
0.031758916 -0.085568629 0.56999999 4290557363
0.032897219 -0.085719064 0.57099998 4290425009
0.034039341 -0.085869528 0.57200003 4290096301
0.035185259 -0.086019978 0.57300001 4290096812
0.036461599 -0.086470708 0.57599998 4290162605
0.03755375 -0.086471088 0.57599998 4290228139
0.038645901 -0.086471461 0.57599998 4290228139
0.039738093 -0.086471863 0.57599998 4290162346
0.040901184 -0.086622402 0.57700002 4290096553
0.04206809 -0.086772956 0.57800001 4290096553
-0.072142459 -0.088669777 0.59799999 4292136147
-0.070413545 -0.087927483 0.59299999 4292530905
-0.069287881 -0.087926574 0.59299999 4292531153
-0.068047293 -0.087777376 0.59200001 4292597202
-0.066810563 -0.08762823 0.59100002 4292597202
-0.065688811 -0.087627359 0.59100002 4292925911
-0.064567097 -0.08762648 0.59100002 4292597200
-0.063445427 -0.087625608 0.59100002 4292662993
-0.062323809 -0.087624758 0.59100002 4292530644
-0.060166657 -0.086141281 0.58099997 4292925146
-0.058962427 -0.085992195 0.57999998 4292991706
-0.057861798 -0.08599139 0.57999998 4292925913
-0.056663346 -0.085842356 0.579 4292727764
-0.055564687 -0.085841566 0.579 4292793557
-0.054466069 -0.085840784 0.579 4292728018
-0.053367496 -0.085840039 0.579 4292859604
-0.051998131 -0.085394517 0.57599998 4292530642
-0.050905313 -0.085393786 0.57599998 4292464849
-0.049726047 -0.085244805 0.57499999 4292531153
-0.048635207 -0.085244119 0.57499999 4292925911
-0.047461703 -0.08509516 0.574 4292464849
-0.046292033 -0.084946238 0.57300001 4292464849
-0.045126189 -0.084797308 0.57200003 4292661460
-0.043810178 -0.08435192 0.56900001 4292858839
-0.042655781 -0.08420302 0.56800002 4292662991
-0.041578408 -0.084202386 0.56800002 4292926163
-0.040501062 -0.084201775 0.56800002 4292596437
-0.039354339 -0.084052935 0.56699997 4292793559
-0.038278945 -0.084052332 0.56699997 4292596689
-0.037203588 -0.084051758 0.56699997 4292399054
-0.036128256 -0.084051192 0.56699997 4292597202
-0.035052948 -0.084050633 0.56699997 4292597202
-0.033857819 -0.083753616 0.565 4292728270
-0.032786369 -0.083753102 0.565 4292794063
-0.031658795 -0.083604336 0.56400001 4292464595
-0.03053505 -0.083455615 0.56300002 4292398802
-0.029467456 -0.08345513 0.56300002 4292464847
-0.028399881 -0.083454654 0.56300002 4292530640
-0.027332338 -0.083454192 0.56300002 4292529870
-0.026264807 -0.083453737 0.56300002 4292332747
-0.025063034 -0.083008617 0.56 4292136397
-0.024001243 -0.0830082 0.56 4292136397
-0.022939466 -0.083007798 0.56 4292202442
-0.021877708 -0.08300741 0.56 4292202442
-0.020815967 -0.08300703 0.56 4292137164
-0.019789523 -0.08315488 0.56099999 4292005579
-0.018725922 -0.083154537 0.56099999 4291939284
-0.017662335 -0.083154187 0.56099999 4292202456
-0.016598767 -0.083153859 0.56099999 4292202444
-0.015535216 -0.083153561 0.56099999 4292070602
-0.014471677 -0.083153278 0.56099999 4291873991
-0.013432052 -0.083301209 0.56199998 4291479489
-0.012344639 -0.083152719 0.56099999 4291741893
-0.011281136 -0.083152451 0.56099999 4291741893
-0.010217649 -0.083152212 0.56099999 4291872959
-0.0091704866 -0.083300218 0.56199998 4291938752
-0.0081051234 -0.083299994 0.56199998 4291675585
-0.0070397682 -0.083299786 0.56199998 4291872707
-0.0059637916 -0.083151393 0.56099999 4291806655
-0.0049003479 -0.083151221 0.56099999 4291740606
-0.0038437527 -0.083299287 0.56199998 4291806664
-0.0027784279 -0.083299145 0.56199998 4291609542
-0.0017131084 -0.083299011 0.56199998 4291609792
-0.0006477944 -0.083298892 0.56199998 4291609792
0.00041677267 -0.083150573 0.56099999 4291609538
0.0014801834 -0.083150484 0.56099999 4291806916
0.0025435917 -0.083150424 0.56099999 4291543745
0.0036069974 -0.083150364 0.56099999 4291543745
0.0046704025 -0.083150327 0.56099999 4291609790
0.0057338066 -0.08315029 0.56099999 4291675583
0.0068093264 -0.083298482 0.56199998 4291543997
0.0078606158 -0.083150283 0.56099999 4291543997
0.0089240205 -0.083150275 0.56099999 4291214782
0.0099874306 -0.083150297 0.56099999 4291346111
0.011050842 -0.083150357 0.56099999 4291346113
0.012135851 -0.083298616 0.56199998 4290754233
0.013201164 -0.083298683 0.56199998 4290950844
0.014266485 -0.083298758 0.56199998 4291016637
0.015331813 -0.083298869 0.56199998 4290951607
0.016397143 -0.083298959 0.56199998 4291346365
0.017493559 -0.083447322 0.56300002 4291149493
0.018560804 -0.083447464 0.56300002 4291083444
0.019628052 -0.083447613 0.56300002 4290886835
0.020732069 -0.083595991 0.56400001 4290886835
0.021839891 -0.083744377 0.565 4291017641
0.022910967 -0.083744578 0.565 4291017641
0.023982046 -0.083744772 0.565 4291147707
0.025053145 -0.083744988 0.565 4291081658
0.02617049 -0.083893448 0.56599998 4290951344
0.027339783 -0.084190153 0.56800002 4291280309
0.028416608 -0.084190413 0.56800002 4290622893
0.029545372 -0.084338918 0.56900001 4290622893
0.030624123 -0.084339201 0.56900001 4290688688
0.031758603 -0.084487721 0.56999999 4290622895
0.032896902 -0.084636264 0.57099998 4290293934
0.034038998 -0.084784806 0.57200003 4290162092
0.035184912 -0.084933378 0.57300001 4290096299
0.036461238 -0.085378408 0.57599998 4289964712
0.037553366 -0.085378788 0.57599998 4290029992
0.038645513 -0.085379161 0.57599998 4290358957
0.039737679 -0.085379548 0.57599998 4290096549
0.040900774 -0.08552821 0.57700002 4289767840
0.042067654 -0.085676841 0.57800001 4290030503
-0.070293903 -0.086656258 0.59200001 4292398802
-0.069170125 -0.086655349 0.59200001 4292202444
-0.067931458 -0.086508088 0.59100002 4292597202
-0.066809684 -0.086507216 0.59100002 4292597715
-0.06568794 -0.086506344 0.59100002 4292597715
-0.064566247 -0.08650548 0.59100002 4292202444
-0.063444585 -0.086504623 0.59100002 4292531153
-0.06232297 -0.086503781 0.59100002 4292399056
-0.060165837 -0.085039273 0.58099997 4292793557
-0.059063282 -0.085038476 0.58099997 4292794330
-0.057861004 -0.084891312 0.57999998 4292728537
-0.056662571 -0.08474417 0.579 4292333779
-0.055563919 -0.084743388 0.579 4292596950
-0.054465316 -0.084742628 0.579 4292662743
-0.05336675 -0.084741883 0.579 4292596950
-0.052087672 -0.084448427 0.57700002 4292530642
-0.050904583 -0.08430133 0.57599998 4292530642
-0.049811821 -0.084300622 0.57599998 4292530640
-0.048634503 -0.084153578 0.57499999 4292596689
-0.047543708 -0.084152892 0.57499999 4292464847
-0.046452932 -0.084152207 0.57499999 4292530640
-0.044888854 -0.083273448 0.56900001 4292661458
-0.043809537 -0.083272792 0.56900001 4292661458
-0.042655148 -0.083125807 0.56800002 4292530640
-0.04157779 -0.083125189 0.56800002 4292530640
-0.040500458 -0.083124593 0.56800002 4292595154
-0.039353739 -0.08297763 0.56699997 4292660947
-0.03827836 -0.082977027 0.56699997 4292595152
-0.037203018 -0.082976483 0.56699997 4292858323
-0.036127694 -0.082975909 0.56699997 4292597202
-0.035052404 -0.082975358 0.56699997 4292531153
-0.033917215 -0.082828484 0.56599998 4292268238
-0.032785848 -0.082681626 0.565 4292268238
-0.031658292 -0.082534783 0.56400001 4292266700
-0.030534556 -0.082387947 0.56300002 4292266700
-0.029466977 -0.082387485 0.56300002 4292134599
-0.028399421 -0.082387015 0.56300002 4292595150
-0.027331887 -0.082386561 0.56300002 4292399054
-0.026264368 -0.082386106 0.56300002 4292399054
-0.025062617 -0.081946686 0.56 4292136397
-0.024000833 -0.081946269 0.56 4292136397
-0.022939071 -0.081945859 0.56 4292136649
-0.021877322 -0.081945479 0.56 4292136649
-0.020815596 -0.081945099 0.56 4291874506
-0.019789165 -0.082091078 0.56099999 4291743177
-0.018725576 -0.082090721 0.56099999 4291348428
-0.017662007 -0.0820904 0.56099999 4291743186
-0.016598454 -0.08209008 0.56099999 4291939786
-0.015534915 -0.082089767 0.56099999 4291939786
-0.014471387 -0.082089461 0.56099999 4291808200
-0.013407877 -0.082089193 0.56099999 4291545028
-0.012344377 -0.082088917 0.56099999 4291741893
-0.011280891 -0.082088687 0.56099999 4291741893
-0.010199202 -0.081942111 0.56 4291872961
-0.0091376333 -0.081941888 0.56 4291872961
-0.0080904961 -0.082088009 0.56099999 4291806916
-0.0070270509 -0.0820878 0.56099999 4291806916
-0.0059636151 -0.082087629 0.56099999 4291675585
-0.0049001863 -0.082087457 0.56099999 4291675585
-0.0038367643 -0.082087301 0.56099999 4291675333
-0.0027733487 -0.082087159 0.56099999 4291609540
-0.0017099392 -0.082087032 0.56099999 4291609792
-0.00064768712 -0.082233235 0.56199998 4291609792
0.00041760877 -0.082233138 0.56199998 4291412160
0.0014829012 -0.082233071 0.56199998 4291543747
0.0025436566 -0.082086667 0.56099999 4291543999
0.0036070487 -0.082086608 0.56099999 4291543999
0.0046787644 -0.082232893 0.56199998 4291609790
0.0057440493 -0.082232848 0.56199998 4291609790
0.0068093357 -0.08223284 0.56199998 4291347134
0.0078606103 -0.082086511 0.56099999 4291281340
0.0089240009 -0.082086518 0.56099999 4291083709
0.0099873981 -0.082086556 0.56099999 4291149502
0.011070492 -0.082232907 0.56199998 4291412160
0.012135791 -0.08223296 0.56199998 4290951609
0.013201091 -0.082233034 0.56199998 4291081658
0.014266397 -0.082233109 0.56199998 4291081658
0.015331709 -0.082233205 0.56199998 4290885301
0.016397029 -0.082233317 0.56199998 4291214010
0.017462356 -0.082233444 0.56199998 4290951605
0.018527688 -0.082233563 0.56199998 4291083448
0.01959303 -0.082233712 0.56199998 4291083961
0.020658385 -0.082233891 0.56199998 4290886583
0.021801058 -0.082526706 0.56400001 4290821041
0.02291077 -0.082673214 0.565 4290821041
0.023981839 -0.082673423 0.565 4290885047
0.025052922 -0.082673639 0.565 4290885047
0.026170256 -0.082820199 0.56599998 4290885299
0.027339529 -0.083113089 0.56800002 4290885299
0.028416341 -0.08311335 0.56800002 4290688942
0.029493166 -0.083113626 0.56800002 4290688942
0.030623825 -0.083260231 0.56900001 4290688690
0.031702578 -0.083260529 0.56900001 4290622897
0.032896575 -0.083553493 0.57099998 4290293680
0.03403867 -0.083700158 0.57200003 4290293680
0.035184562 -0.083846807 0.57300001 4290555053
0.036460876 -0.084286161 0.57599998 4290423467
0.037552994 -0.084286518 0.57599998 4290292651
0.03864513 -0.084286891 0.57599998 4290358444
0.039737284 -0.084287286 0.57599998 4290030755
0.04090035 -0.084434032 0.57700002 4290030755
0.04206723 -0.084580772 0.57800001 4289833894
-0.070174262 -0.085388847 0.59100002 4292727505
-0.069052398 -0.08538796 0.59100002 4292334033
-0.067930587 -0.085387066 0.59100002 4292794584
-0.066695765 -0.08524172 0.58999997 4292663506
-0.065575927 -0.085240863 0.58999997 4292597713
-0.064456142 -0.085240006 0.58999997 4292334033
-0.063336395 -0.085239179 0.58999997 4292794584
-0.061583977 -0.084371515 0.58399999 4292334033
-0.060372144 -0.084226251 0.583 4292267984
-0.059062492 -0.083936505 0.58099997 4292597202
-0.057860222 -0.083791256 0.57999998 4292728788
-0.056661785 -0.083645999 0.579 4292596950
-0.055467192 -0.08350078 0.57800001 4292662743
-0.054370504 -0.083500043 0.57800001 4292727768
-0.053273834 -0.083499283 0.57800001 4292530390
-0.051996674 -0.083209649 0.57599998 4292464849
-0.050903875 -0.083208919 0.57599998 4292464849
-0.049724642 -0.083063766 0.57499999 4292334031
-0.048633814 -0.083063066 0.57499999 4292334031
-0.047543019 -0.083062381 0.57499999 4292399056
-0.046452265 -0.083061717 0.57499999 4292464849
-0.045124881 -0.082627699 0.57200003 4292529872
-0.043808896 -0.082193702 0.56900001 4292529872
-0.042654525 -0.082048617 0.56800002 4292530640
-0.041577179 -0.082048014 0.56800002 4292464847
-0.040499851 -0.082047403 0.56800002 4292529618
-0.039422564 -0.082046814 0.56800002 4292529618
-0.0383453 -0.082046233 0.56800002 4292529618
-0.037202451 -0.081901208 0.56699997 4292661460
-0.03612715 -0.081900656 0.56699997 4292464847
-0.035051867 -0.08190012 0.56699997 4292464847
-0.033856768 -0.081610709 0.565 4292595917
-0.032785334 -0.081610195 0.565 4292530123
-0.031657793 -0.081465252 0.56400001 4292332749
-0.030534072 -0.081320316 0.56300002 4292332749
-0.029466508 -0.081319846 0.56300002 4292266700
-0.028398965 -0.081319384 0.56300002 4292595665
-0.02733144 -0.081318937 0.56300002 4292333260
-0.026263935 -0.081318498 0.56300002 4292333260
-0.025062202 -0.080884777 0.56 4292136138
-0.024000425 -0.080884352 0.56 4292004296
-0.022938678 -0.080883957 0.56 4292004550
-0.021876948 -0.080883577 0.56 4292136136
-0.020852404 -0.081027649 0.56099999 4292070856
-0.019788813 -0.081027284 0.56099999 4292136649
-0.018725239 -0.081026949 0.56099999 4291742155
-0.017661683 -0.081026614 0.56099999 4291873741
-0.016598145 -0.081026308 0.56099999 4292004809
-0.015534617 -0.081026003 0.56099999 4291939016
-0.014471104 -0.081025712 0.56099999 4292004550
-0.013407607 -0.081025437 0.56099999 4292004550
-0.012344121 -0.081025168 0.56099999 4291938754
-0.011280648 -0.081024922 0.56099999 4291938754
-0.010198976 -0.080880262 0.56 4291675587
-0.0091374181 -0.080880038 0.56 4291675587
-0.0080902949 -0.081024267 0.56099999 4291675335
-0.0070268628 -0.081024066 0.56099999 4291675335
-0.0059634405 -0.081023887 0.56099999 4291675587
-0.0049000247 -0.081023723 0.56099999 4291609538
-0.0038366169 -0.081023566 0.56099999 4291477952
-0.0027732155 -0.081023417 0.56099999 4291543745
-0.0017098199 -0.081023306 0.56099999 4291609792
-0.00064758136 -0.081167608 0.56199998 4291806914
0.00041770079 -0.081167512 0.56199998 4291412160
0.0014829794 -0.081167437 0.56199998 4291477954
0.002548255 -0.081167355 0.56199998 4291412410
0.0036135288 -0.08116731 0.56199998 4291215032
0.0046871272 -0.081311695 0.56300002 4291412156
0.0057440731 -0.081167236 0.56199998 4291477950
0.0068093445 -0.081167206 0.56199998 4291478204
0.0078746164 -0.081167206 0.56199998 4291346617
0.0089398911 -0.081167229 0.56199998 4291083196
0.010005168 -0.081167243 0.56199998 4290754231
0.011070446 -0.081167273 0.56199998 4291148989
0.012135729 -0.081167333 0.56199998 4291214782
0.013177528 -0.081022985 0.56099999 4291016637
0.014240927 -0.08102306 0.56099999 4291279553
0.015304329 -0.081023142 0.56099999 4291083446
0.016367741 -0.081023268 0.56099999 4291215032
0.017431155 -0.081023373 0.56099999 4290951607
0.01849458 -0.081023514 0.56099999 4290885814
0.019592876 -0.08116807 0.56199998 4290885301
0.020658212 -0.081168249 0.56199998 4290753459
0.021800876 -0.081457287 0.56400001 4290819506
0.022910571 -0.081601895 0.565 4290951092
0.023981631 -0.081602097 0.565 4291016115
0.025052702 -0.081602305 0.565 4290555564
0.026123784 -0.081602536 0.565 4290753202
0.027291143 -0.081891619 0.56699997 4290950324
0.028366048 -0.081891894 0.56699997 4290753711
0.02949289 -0.082036585 0.56800002 4290819504
0.03062354 -0.082181305 0.56900001 4290753459
0.031702276 -0.082181588 0.56900001 4290753459
0.03283865 -0.08232633 0.56999999 4290490543
0.033978827 -0.08247108 0.57099998 4290424750
0.035061412 -0.082471408 0.57099998 4290226605
0.036460523 -0.083193943 0.57599998 4290226605
0.037552629 -0.083194293 0.57599998 4290226601
0.038644746 -0.083194658 0.57599998 4290292651
0.039736889 -0.083195038 0.57599998 4290096035
0.040899947 -0.083339877 0.57700002 4290030242
0.041994032 -0.083340302 0.57700002 4289964962
-0.070173375 -0.084267847 0.59100002 4292595663
-0.069051526 -0.084266968 0.59100002 4292202190
-0.067814767 -0.084123507 0.58999997 4292596948
-0.0666949 -0.084122643 0.58999997 4292334544
-0.065463938 -0.083979227 0.58899999 4292400337
-0.064346068 -0.083978407 0.58899999 4292137162
-0.063228212 -0.083977565 0.58899999 4292597713
-0.061583169 -0.083263882 0.58399999 4292465360
-0.060371343 -0.083120503 0.583 4292136651
-0.059061702 -0.082834564 0.58099997 4292202192
-0.057859451 -0.082691222 0.57999998 4292662743
-0.056661032 -0.082547896 0.579 4292333779
-0.055466443 -0.082404561 0.57800001 4292333779
-0.054369759 -0.082403824 0.57800001 4292726740
-0.053088773 -0.08211796 0.57599998 4292858069
-0.051995955 -0.082117237 0.57599998 4292661712
-0.050814793 -0.08197397 0.57499999 4292595663
-0.049723946 -0.081973277 0.57499999 4292334031
-0.048633143 -0.081972599 0.57499999 4292334031
-0.047459666 -0.081829354 0.574 4292268238
-0.04629004 -0.081686139 0.57300001 4292268238
-0.04512424 -0.081542954 0.57200003 4292333262
-0.044039246 -0.081542313 0.57200003 4292464849
-0.042729001 -0.081114024 0.56900001 4292465360
-0.041649766 -0.08111342 0.56900001 4292465360
-0.04049927 -0.080970265 0.56800002 4292464849
-0.039421979 -0.080969684 0.56800002 4292530642
-0.03834473 -0.08096911 0.56800002 4292596437
-0.0372019 -0.080825992 0.56699997 4292464595
-0.036126602 -0.080825455 0.56699997 4292595403
-0.034989517 -0.080682367 0.56599998 4292661197
-0.033856254 -0.080539308 0.565 4292595401
-0.032726802 -0.080396235 0.56400001 4292595401
-0.031601172 -0.080253214 0.56300002 4292529870
-0.030533593 -0.080252729 0.56300002 4292529870
-0.029466042 -0.080252267 0.56300002 4292398540
-0.028398514 -0.080251805 0.56300002 4292398540
-0.027379544 -0.080393896 0.56400001 4292004044
-0.026310159 -0.080393471 0.56400001 4292333008
-0.022979256 -0.07996463 0.56099999 4292004550
-0.021915637 -0.07996425 0.56099999 4292267465
-0.020852042 -0.079963878 0.56099999 4292266952
-0.019823737 -0.080106065 0.56199998 4292201159
-0.018758284 -0.080105722 0.56199998 4292070089
-0.017661361 -0.079962879 0.56099999 4292070089
-0.016597835 -0.079962566 0.56099999 4292004296
-0.015534324 -0.079962276 0.56099999 4291938503
-0.014470823 -0.079961985 0.56099999 4292200644
-0.01340734 -0.07996171 0.56099999 4292398022
-0.012343867 -0.079961441 0.56099999 4292266693
-0.011280406 -0.079961196 0.56099999 4291937471
-0.01021696 -0.079960972 0.56099999 4291740608
-0.0091535216 -0.079960749 0.56099999 4291806401
-0.0080900956 -0.079960555 0.56099999 4291675333
-0.0070266761 -0.079960346 0.56099999 4291806662
-0.0059632678 -0.079960175 0.56099999 4291545282
-0.0048998664 -0.079960018 0.56099999 4291413440
-0.0038433108 -0.080102399 0.56199998 4291215545
-0.0027829702 -0.080244794 0.56300002 4291478717
-0.0017157971 -0.08024466 0.56300002 4291609022
-0.00064862892 -0.080244556 0.56300002 4291609022
0.00041853503 -0.080244459 0.56300002 4291345087
0.0014856955 -0.08024437 0.56300002 4291476416
0.0025483181 -0.080101773 0.56199998 4291806142
0.0036135789 -0.080101714 0.56199998 4291608506
0.0046788375 -0.080101676 0.56199998 4291608768
0.005744095 -0.080101639 0.56199998 4291674561
0.0068093534 -0.080101624 0.56199998 4291674815
0.0078746118 -0.080101617 0.56199998 4291477692
0.0089398725 -0.080101639 0.56199998 4291215036
0.010005137 -0.080101669 0.56199998 4291215036
0.011070402 -0.080101691 0.56199998 4291215034
0.012135672 -0.080101751 0.56199998 4291149241
0.013177457 -0.079959281 0.56099999 4290951357
0.01424084 -0.079959355 0.56099999 4291148737
0.015304231 -0.07995946 0.56099999 4291149239
0.016367627 -0.079959571 0.56099999 4291083446
0.017399957 -0.079817146 0.56 4290885814
0.018461475 -0.07981728 0.56 4290754485
0.019523002 -0.079817422 0.56 4290950324
0.020621289 -0.079960108 0.56099999 4290950324
0.021800697 -0.08038789 0.56400001 4290950322
0.022869831 -0.080388069 0.56400001 4291016115
0.023938982 -0.080388263 0.56400001 4291016115
0.02505248 -0.080531016 0.565 4290753200
0.026123552 -0.080531232 0.565 4291146674
0.027290899 -0.08081653 0.56699997 4291212467
0.028365787 -0.080816783 0.56699997 4290555051
0.02944069 -0.080817036 0.56699997 4290686893
0.030569434 -0.080959864 0.56800002 4290620846
0.031701982 -0.081102677 0.56900001 4290620846
0.032838337 -0.081245519 0.56999999 4290686893
0.033978507 -0.081388384 0.57099998 4290621100
0.035061076 -0.081388697 0.57099998 4290226342
0.036460165 -0.082101747 0.57599998 4290357671
0.037552264 -0.08210209 0.57599998 4290226855
0.038644373 -0.082102463 0.57599998 4290161062
0.039736498 -0.082102843 0.57599998 4289964197
0.040899545 -0.082245775 0.57700002 4290029990
0.041993622 -0.082246192 0.57700002 4289898919
-0.067813911 -0.08300446 0.58999997 4292859093
-0.066694066 -0.083003618 0.58999997 4292662995
-0.065463096 -0.082862101 0.58899999 4292728788
-0.064345233 -0.082861274 0.58899999 4292596939
-0.0632274 -0.082860462 0.58899999 4292859854
-0.06158236 -0.082156256 0.58399999 4292531153
-0.060370561 -0.082014799 0.583 4292070602
-0.05906092 -0.081732668 0.58099997 4292202192
-0.057858683 -0.081591226 0.57999998 4292991708
-0.05666028 -0.081449792 0.579 4292464595
-0.055561662 -0.081449062 0.579 4292398802
-0.054180894 -0.081026301 0.57599998 4292595665
-0.05308805 -0.081025586 0.57599998 4292661458
-0.051904976 -0.080884211 0.57499999 4292464847
-0.050814103 -0.080883525 0.57499999 4292464847
-0.04972326 -0.080882832 0.57499999 4292267465
-0.048547883 -0.080741502 0.574 4292070343
-0.04745901 -0.080740832 0.574 4292332749
-0.046289392 -0.080599532 0.57300001 4292661458
-0.045123596 -0.080458224 0.57200003 4292529870
-0.04403862 -0.080457605 0.57200003 4292529870
-0.042803485 -0.080175661 0.56999999 4292399054
-0.041722365 -0.080175065 0.56999999 4292530640
-0.04056998 -0.080033824 0.56900001 4292530640
-0.039421409 -0.079892591 0.56800002 4292728018
-0.038344167 -0.079892017 0.56800002 4292727253
-0.037201349 -0.079750814 0.56699997 4292595667
-0.036126062 -0.07975027 0.56699997 4292530123
-0.034988992 -0.079609089 0.56599998 4292530123
-0.03385574 -0.079467937 0.565 4292529860
-0.032726306 -0.079326779 0.56400001 4292661447
-0.031600691 -0.079185642 0.56300002 4292530123
-0.030533122 -0.079185158 0.56300002 4292530123
-0.029465582 -0.079184704 0.56300002 4292529610
-0.028398057 -0.079184264 0.56300002 4292595403
-0.02737911 -0.079324462 0.56400001 4292529618
-0.02191527 -0.078900523 0.56099999 4292136138
-0.02085169 -0.078900181 0.56099999 4292201159
-0.019823397 -0.079040468 0.56199998 4292135366
-0.018757954 -0.07904014 0.56199998 4292004548
-0.017661046 -0.07889916 0.56099999 4292070341
-0.016597534 -0.078898869 0.56099999 4291939014
-0.015534033 -0.078898571 0.56099999 4291741891
-0.014470547 -0.078898288 0.56099999 4292069573
-0.013407076 -0.078898013 0.56099999 4292135366
-0.012343617 -0.078897774 0.56099999 4291872194
-0.01128017 -0.078897513 0.56099999 4291806401
-0.010216736 -0.078897297 0.56099999 4291675587
-0.0091533102 -0.078897066 0.56099999 4291675587
-0.0080898982 -0.07889688 0.56099999 4291675587
-0.0070264935 -0.078896686 0.56099999 4291806916
-0.0059630978 -0.078896508 0.56099999 4291807168
-0.004899709 -0.078896351 0.56099999 4291675583
-0.0038363286 -0.078896202 0.56099999 4291478455
-0.0027729543 -0.078896061 0.56099999 4291675835
-0.0017095857 -0.078895941 0.56099999 4291609790
-0.00064622186 -0.078895837 0.56099999 4291675583
0.00041788121 -0.079036377 0.56199998 4291608004
0.0014831324 -0.079036281 0.56199998 4291345089
0.002548381 -0.079036213 0.56199998 4291674302
0.0036136277 -0.079036161 0.56199998 4291674302
0.0046788733 -0.079036109 0.56199998 4291543747
0.0057441178 -0.079036094 0.56199998 4291609540
0.0068093613 -0.079036064 0.56199998 4291412156
0.007874608 -0.079036079 0.56199998 4291149241
0.0089398557 -0.079036087 0.56199998 4291215034
0.010005104 -0.079036102 0.56199998 4291215034
0.011070358 -0.079036154 0.56199998 4291215034
0.012135614 -0.079036199 0.56199998 4291412156
0.013200875 -0.079036266 0.56199998 4291214784
0.014266139 -0.079036333 0.56199998 4291148991
0.015331415 -0.079036437 0.56199998 4290951859
0.01639669 -0.079036541 0.56199998 4290951859
0.017399836 -0.078755386 0.56 4290885301
0.018461339 -0.078755528 0.56 4290951094
0.019522849 -0.078755669 0.56 4291016117
0.02062113 -0.078896448 0.56099999 4290950324
0.021800516 -0.079318516 0.56400001 4290819506
0.022869643 -0.07931871 0.56400001 4290819506
0.023938777 -0.079318903 0.56400001 4290819506
0.025052264 -0.079459742 0.565 4290753713
0.026123319 -0.07945995 0.565 4290818995
0.027194396 -0.079460196 0.565 4291016117
0.028365532 -0.079741724 0.56699997 4290556336
0.029440425 -0.079741985 0.56699997 4290819508
0.03051533 -0.079742245 0.56699997 4290555566
0.031701688 -0.080023825 0.56900001 4290489773
0.032838035 -0.080164768 0.56999999 4290621100
0.033978183 -0.080305696 0.57099998 4290621100
0.035060745 -0.080306031 0.57099998 4290555564
0.036396522 -0.080868945 0.57499999 4290555564
0.037486702 -0.080869287 0.57499999 4290227621
0.038644001 -0.081010289 0.57599998 4290030242
0.039736118 -0.081010662 0.57599998 4289964199
0.040828262 -0.081011057 0.57599998 4289964199
0.041920427 -0.081011452 0.57599998 4289898919
0.043087296 -0.081152521 0.57700002 4289898919
-0.069049805 -0.082025096 0.59100002 4292398540
-0.067813069 -0.081885442 0.58999997 4292859091
-0.066580184 -0.081745833 0.58899999 4292727503
-0.065462284 -0.081745006 0.58899999 4292727503
-0.064125933 -0.081466623 0.58700001 4292661710
-0.063011907 -0.081465825 0.58700001 4292661710
-0.061581567 -0.081048682 0.58399999 4292464847
-0.060369775 -0.080909133 0.583 4292464847
-0.059161812 -0.080769569 0.58200002 4292465362
-0.05795769 -0.080630049 0.58099997 4292596948
-0.056659535 -0.080351725 0.579 4292267986
-0.055369016 -0.080073453 0.57700002 4292267986
-0.054180183 -0.079933956 0.57599998 4292595665
-0.053087346 -0.079933248 0.57599998 4292595665
-0.05190428 -0.079793781 0.57499999 4292529870
-0.050813414 -0.079793096 0.57499999 4292398540
-0.049636118 -0.079653665 0.574 4292134853
-0.048462644 -0.07951422 0.57300001 4292266439
-0.047375679 -0.079513572 0.57300001 4292397255
-0.046288747 -0.079512917 0.57300001 4292726219
-0.04512297 -0.079373531 0.57200003 4292595152
-0.044038005 -0.079372913 0.57200003 4292529358
-0.042877968 -0.079233542 0.57099998 4291872196
-0.041721772 -0.079094186 0.56999999 4292332747
-0.040569391 -0.078954838 0.56900001 4292463563
-0.039490245 -0.078954279 0.56900001 4292595150
-0.038343616 -0.078814968 0.56800002 4292595667
-0.037200809 -0.078675658 0.56699997 4292529618
-0.036125541 -0.078675114 0.56699997 4292266439
-0.035050299 -0.0786746 0.56699997 4292463817
-0.033855237 -0.078396589 0.565 4292266693
-0.032725822 -0.078257345 0.56400001 4292266693
-0.031600211 -0.078118108 0.56300002 4292266441
-0.030532658 -0.078117646 0.56300002 4292200648
-0.02946513 -0.078117192 0.56300002 4292199621
-0.02839762 -0.07811673 0.56300002 4292463050
-0.027378682 -0.078255072 0.56400001 4292463565
-0.026309321 -0.07825464 0.56400001 4292266187
-0.022978496 -0.077837214 0.56099999 4291675587
-0.021914909 -0.077836841 0.56099999 4291938503
-0.020851338 -0.077836491 0.56099999 4292135112
-0.019823058 -0.077974893 0.56199998 4292135112
-0.018757628 -0.077974565 0.56199998 4291937991
-0.017660735 -0.077835508 0.56099999 4291937991
-0.016597234 -0.077835195 0.56099999 4292135112
-0.015533747 -0.077834904 0.56099999 4292069319
-0.014470275 -0.077834629 0.56099999 4291938503
-0.013406814 -0.07783436 0.56099999 4291872709
-0.01234337 -0.077834107 0.56099999 4291675587
-0.011279937 -0.077833876 0.56099999 4291938503
-0.010216516 -0.077833652 0.56099999 4292004296
-0.0091531035 -0.077833444 0.56099999 4291675587
-0.0080897035 -0.077833235 0.56099999 4291675587
-0.0070263124 -0.077833049 0.56099999 4291543745
-0.0059629292 -0.07783287 0.56099999 4291609022
-0.004899554 -0.077832699 0.56099999 4291740608
-0.0038361871 -0.077832572 0.56099999 4291281594
-0.0027728262 -0.077832438 0.56099999 4291478717
-0.0017094706 -0.077832319 0.56099999 4291609792
-0.00064612034 -0.077832207 0.56099999 4291543999
0.00041722582 -0.077832103 0.56099999 4291937221
0.0014832076 -0.077970758 0.56199998 4291674050
0.0025484427 -0.077970691 0.56199998 4291870652
0.0036136764 -0.077970646 0.56199998 4291804602
0.0046789078 -0.077970594 0.56199998 4291412160
0.0057441392 -0.077970564 0.56199998 4291412160
0.0068093706 -0.077970564 0.56199998 4291083707
0.0078746034 -0.077970557 0.56199998 4291017914
0.0089398362 -0.077970572 0.56199998 4291149241
0.010005072 -0.077970594 0.56199998 4291215034
0.011070313 -0.077970631 0.56199998 4291149493
0.012135556 -0.077970684 0.56199998 4291215286
0.013200804 -0.077970751 0.56199998 4291017662
0.014266056 -0.077970818 0.56199998 4291017662
0.015331316 -0.077970907 0.56199998 4290951859
0.01639658 -0.077971004 0.56199998 4290951859
0.017430784 -0.077832393 0.56099999 4291017141
0.018494168 -0.077832513 0.56099999 4291148471
0.019557564 -0.077832662 0.56099999 4291147957
0.020767998 -0.078387767 0.565 4291082164
0.029440157 -0.078666948 0.56699997 4290228402
0.030515054 -0.078667209 0.56699997 4290293934
0.031701397 -0.078944989 0.56900001 4290293934
0.032837726 -0.079084016 0.56999999 4290818991
0.033977866 -0.079223067 0.57099998 4290818991
0.035060417 -0.079223394 0.57099998 4290162607
0.036396183 -0.079778716 0.57499999 4289965485
0.037486348 -0.079779059 0.57499999 4289899689
0.038576543 -0.079779416 0.57499999 4289833896
0.039666757 -0.079779781 0.57499999 4290029992
0.040827874 -0.079918914 0.57599998 4289964199
0.041920029 -0.079919308 0.57599998 4289964199
0.043086879 -0.080058455 0.57700002 4289964199
-0.069048956 -0.080904193 0.59100002 4292661197
-0.067812242 -0.080766477 0.58999997 4292924112
-0.066579364 -0.08062876 0.58899999 4292858319
-0.065461457 -0.080627941 0.58899999 4292726990
-0.064125136 -0.080353372 0.58700001 4292661712
-0.063011117 -0.080352582 0.58700001 4292595663
-0.061580788 -0.079941124 0.58399999 4292595665
-0.060369015 -0.079803497 0.583 4292595665
-0.059161056 -0.079665862 0.58200002 4292530640
-0.057956934 -0.079528227 0.58099997 4292728018
-0.056658804 -0.079253733 0.579 4292267217
-0.055368289 -0.078979246 0.57700002 4292135632
-0.054179471 -0.078841649 0.57599998 4292529872
-0.053086646 -0.078840964 0.57599998 4292529872
-0.051903594 -0.078703396 0.57499999 4292529870
-0.050724376 -0.078565851 0.574 4292398540
-0.049635448 -0.078565165 0.574 4292398540
-0.048461992 -0.078427657 0.57300001 4292529870
-0.047375035 -0.078427017 0.57300001 4292463565
-0.046288118 -0.078426376 0.57300001 4292660945
-0.045201238 -0.078425758 0.57300001 4292595665
-0.0439604 -0.078151405 0.57099998 4292529872
-0.04287738 -0.078150809 0.57099998 4292070093
-0.041647997 -0.077876501 0.56900001 4292398802
-0.040568829 -0.077875927 0.56900001 4292399054
-0.039489683 -0.077875361 0.56900001 4292333260
-0.03841057 -0.07787481 0.56900001 4292529870
-0.037265893 -0.077737421 0.56800002 4292529870
-0.036188729 -0.077736884 0.56800002 4292463817
-0.035111602 -0.07773637 0.56800002 4292661197
-0.033794824 -0.077188432 0.56400001 4292332745
-0.032725334 -0.07718794 0.56400001 4292266952
-0.031599741 -0.077050611 0.56300002 4292266702
-0.030532196 -0.077050157 0.56300002 4292135116
-0.029464683 -0.077049717 0.56300002 4292265419
-0.028397189 -0.077049278 0.56300002 4292462798
-0.027329715 -0.077048853 0.56300002 4292397255
-0.026308911 -0.077185296 0.56400001 4292265669
-0.023060044 -0.077047266 0.56300002 4292004550
-0.020925328 -0.077046558 0.56300002 4292135112
-0.019857997 -0.077046216 0.56300002 4292135112
-0.018757308 -0.076909035 0.56199998 4292200396
-0.017691905 -0.076908723 0.56199998 4291936967
-0.016626522 -0.076908424 0.56199998 4291872198
-0.015533464 -0.076771282 0.56099999 4292200907
-0.014470003 -0.076770999 0.56099999 4291938501
-0.013406557 -0.076770753 0.56099999 4291675585
-0.012343127 -0.076770499 0.56099999 4291675333
-0.011299811 -0.076907106 0.56199998 4292004298
-0.01023451 -0.076906882 0.56199998 4292004548
-0.0091528986 -0.076769821 0.56099999 4291609790
-0.0080895126 -0.076769635 0.56099999 4291937219
-0.0070261331 -0.076769449 0.56099999 4291674048
-0.0059627639 -0.07676927 0.56099999 4291674050
-0.0048994017 -0.076769114 0.56099999 4292068807
-0.0038360476 -0.076768987 0.56099999 4291477950
-0.0027726998 -0.076768845 0.56099999 4291477950
-0.0017093576 -0.076768741 0.56099999 4291477950
-0.00064602011 -0.076768629 0.56099999 4291477950
0.00041731293 -0.076768532 0.56099999 4291674302
0.0014806425 -0.076768458 0.56099999 4291674302
0.0025439691 -0.076768383 0.56099999 4291674300
0.0036137239 -0.076905176 0.56199998 4291542713
0.0046789432 -0.076905131 0.56199998 4291411645
0.0057441606 -0.076905102 0.56199998 4291411645
0.006809379 -0.076905079 0.56199998 4291345850
0.0078745978 -0.076905072 0.56199998 4291345850
0.0089398185 -0.076905094 0.56199998 4291346104
0.010005043 -0.076905116 0.56199998 4291346104
0.011070269 -0.076905161 0.56199998 4291214512
0.0121355 -0.076905198 0.56199998 4291214512
0.013200733 -0.076905265 0.56199998 4291017401
0.014265972 -0.07690534 0.56199998 4291017401
0.015358502 -0.077042274 0.56300002 4290951605
0.016454825 -0.077179223 0.56400001 4290951605
0.017523877 -0.077179343 0.56400001 4291017141
0.018625904 -0.077316299 0.565 4291148471
0.019696865 -0.077316441 0.565 4291017139
0.020767838 -0.077316597 0.565 4290951346
0.02954375 -0.077865668 0.56900001 4290293682
0.030622419 -0.077865921 0.56900001 4290293932
0.03170111 -0.077866204 0.56900001 4290425261
0.032837428 -0.078003332 0.56999999 4290621863
0.033918053 -0.078003652 0.56999999 4290753450
0.034998689 -0.078003943 0.56999999 4290292658
0.03639584 -0.078688525 0.57499999 4290095535
0.037486002 -0.078688867 0.57499999 4290030503
0.038576178 -0.078689218 0.57499999 4289964710
0.039666384 -0.07868959 0.57499999 4289898919
0.04082749 -0.078826807 0.57599998 4289898919
-0.069048129 -0.079783343 0.59100002 4292397770
-0.067811415 -0.079647519 0.58999997 4292661199
-0.066691585 -0.079646714 0.58999997 4292529610
-0.065460667 -0.079510912 0.58899999 4292595403
-0.064233586 -0.07937514 0.588 4292529104
-0.063010328 -0.079239361 0.58700001 4292595154
-0.061896369 -0.079238601 0.58700001 4292266187
-0.060368255 -0.07869789 0.583 4292397772
-0.059160315 -0.078562148 0.58200002 4292397770
-0.057956204 -0.078426428 0.58099997 4292858321
-0.056755934 -0.078290716 0.57999998 4292267215
-0.055367585 -0.077885062 0.57700002 4292333008
-0.054178771 -0.077749372 0.57599998 4292398542
-0.05308596 -0.077748679 0.57599998 4292332749
-0.051902916 -0.077613026 0.57499999 4292267467
-0.050635334 -0.077342406 0.57300001 4292267467
-0.049461849 -0.077206776 0.57200003 4292398542
-0.048376776 -0.077206127 0.57200003 4292332749
-0.047291733 -0.077205501 0.57200003 4292200907
-0.04612593 -0.077069901 0.57099998 4292332749
-0.045042854 -0.07706929 0.57099998 4292529870
-0.043959804 -0.077068686 0.57099998 4292529870
-0.042876791 -0.077068105 0.57099998 4292070089
-0.040568274 -0.076797031 0.56900001 4292268238
-0.039489131 -0.07679648 0.56900001 4292070602
-0.038342532 -0.076660953 0.56800002 4292266954
-0.037199747 -0.076525457 0.56699997 4292332747
-0.036124505 -0.076524943 0.56699997 4292201161
-0.034987468 -0.076389469 0.56599998 4292332747
-0.033914171 -0.076388985 0.56599998 4292267465
-0.032782879 -0.076253548 0.565 4292267465
-0.031599279 -0.075983159 0.56300002 4292595665
-0.030531745 -0.075982697 0.56300002 4292135114
-0.029464243 -0.075982258 0.56300002 4292265671
-0.028497634 -0.076251738 0.565 4292463050
-0.026308509 -0.076115958 0.56400001 4292134853
-0.023100633 -0.076114811 0.56400001 4292070089
-0.020924984 -0.075979143 0.56300002 4291805636
-0.019822396 -0.075843856 0.56199998 4292134601
-0.018756989 -0.07584352 0.56199998 4292331210
-0.017691601 -0.075843215 0.56199998 4292068294
-0.01662623 -0.075842932 0.56199998 4291937221
-0.015533185 -0.075707689 0.56099999 4292068807
-0.014469737 -0.075707413 0.56099999 4291675333
-0.013406306 -0.075707167 0.56099999 4291675333
-0.012342886 -0.075706907 0.56099999 4291609542
-0.011299585 -0.075841643 0.56199998 4291609542
-0.010216083 -0.07570646 0.56099999 4291609542
-0.0091526974 -0.075706258 0.56099999 4291675335
-0.0080893226 -0.075706072 0.56099999 4292199621
-0.0070259571 -0.075705878 0.56099999 4291936706
-0.0059626005 -0.075705729 0.56099999 4292001729
-0.0048992522 -0.075705566 0.56099999 4291870400
-0.0038359102 -0.075705417 0.56099999 4291477438
-0.002772575 -0.07570529 0.56099999 4291477438
-0.0017092457 -0.075705163 0.56099999 4291412158
-0.00064592145 -0.075705066 0.56099999 4291412158
0.00041739875 -0.075704977 0.56099999 4291412156
0.0014807155 -0.075704902 0.56099999 4291412156
0.0025440292 -0.075704835 0.56099999 4291477692
0.0036137712 -0.075839721 0.56199998 4291345850
0.0046873037 -0.075974636 0.56300002 4291345339
0.0057441825 -0.075839654 0.56199998 4291345339
0.0068093869 -0.075839631 0.56199998 4291541176
0.0078745941 -0.075839631 0.56199998 4291738811
0.0089398017 -0.075839654 0.56199998 4291674302
0.010005014 -0.075839676 0.56199998 4291476666
0.011070225 -0.075839698 0.56199998 4291149489
0.012135445 -0.075839758 0.56199998 4291149489
0.013200666 -0.075839818 0.56199998 4291017655
0.014265892 -0.075839892 0.56199998 4290951605
0.015385685 -0.076109864 0.56400001 4290885812
0.016483894 -0.076244928 0.565 4290885812
0.017554827 -0.07624504 0.565 4290951092
0.018625766 -0.076245151 0.565 4290885299
0.019696716 -0.076245293 0.565 4290819506
0.020767678 -0.076245435 0.565 4290556590
0.029439639 -0.076516986 0.56699997 4290293934
0.030514512 -0.076517254 0.56699997 4290293932
0.031700827 -0.076787435 0.56900001 4290293932
0.032779526 -0.076787718 0.56900001 4290226855
0.033858243 -0.076788023 0.56900001 4290489771
0.034936972 -0.076788329 0.56900001 4290226601
-0.067925543 -0.078661703 0.59100002 4292661460
-0.06669078 -0.078527793 0.58999997 4292464847
-0.06545987 -0.078393929 0.58899999 4292728018
-0.064232804 -0.078260049 0.588 4292596950
-0.06300956 -0.07812617 0.58700001 4292531157
-0.061895605 -0.078125425 0.58700001 4292398288
-0.06036751 -0.077592306 0.583 4292398288
-0.059159577 -0.077458479 0.58200002 4292529358
-0.058055229 -0.077457748 0.58200002 4293318874
-0.056755215 -0.077190861 0.57999998 4292793809
-0.055366885 -0.076790906 0.57700002 4292596687
-0.054178085 -0.076657124 0.57599998 4292267215
-0.053085279 -0.076656438 0.57599998 4292135886
-0.051902246 -0.076522693 0.57499999 4292070091
-0.050546315 -0.076122798 0.57200003 4292070091
-0.049461212 -0.07612215 0.57200003 4292200907
-0.048376143 -0.076121509 0.57200003 4292200907
-0.0472911 -0.076120891 0.57200003 4292200907
-0.046125326 -0.075987197 0.57099998 4292200907
-0.04504225 -0.075986587 0.57099998 4292332745
-0.043959215 -0.075985998 0.57099998 4292661710
-0.042876214 -0.075985432 0.57099998 4292333512
-0.041793238 -0.075984851 0.57099998 4292465099
-0.040567707 -0.075718157 0.56900001 4292004298
-0.039488595 -0.075717613 0.56900001 4291806662
-0.038342003 -0.075584002 0.56800002 4292331210
-0.037199229 -0.075450413 0.56699997 4292528845
-0.036123995 -0.075449906 0.56699997 4292397768
-0.034986973 -0.075316332 0.56599998 4292463817
-0.033913687 -0.075315863 0.56599998 4292136136
-0.032782406 -0.075182304 0.565 4292136136
-0.031654947 -0.075048789 0.56400001 4292332745
-0.030585529 -0.075048335 0.56400001 4292069573
