# .PCD v0.7 - Point Cloud Data file format
VERSION 0.7
FIELDS x y z rgba
SIZE 4 4 4 4
TYPE F F F U
COUNT 1 1 1 1
WIDTH 1065
HEIGHT 1
VIEWPOINT 0 0 0 1 0 0 0
POINTS 1065
DATA ascii
0.051406339 -0.14185204 0.72500002 4294967295
0.052781522 -0.14185266 0.72500002 4294967295
0.054380834 -0.1424403 0.72799999 4294967295
0.055761751 -0.14244097 0.72799999 4294967295
0.057142716 -0.1424417 0.72799999 4294967295
0.0585237 -0.14244238 0.72799999 4294967295
0.059410993 -0.14126915 0.722 4294967295
0.060780644 -0.14126988 0.722 4294967295
0.062150329 -0.14127065 0.722 4294967295
0.064223863 -0.14283676 0.73000002 4294967295
0.065608785 -0.14283757 0.73000002 4293126123
0.066993728 -0.14283839 0.73000002 4290560979
0.020082185 -0.1425982 0.736 4294967295
0.021477843 -0.14259838 0.736 4294967295
0.022873506 -0.14259855 0.736 4294967295
0.024203226 -0.14221126 0.73400003 4294967295
0.025560241 -0.14201772 0.73299998 4294967295
0.026876714 -0.1416305 0.73100001 4294967295
0.028224271 -0.14143704 0.73000002 4294967295
0.029527484 -0.1410498 0.72799999 4294967295
0.030865585 -0.14085637 0.727 4294967295
0.032244261 -0.14085671 0.727 4294967295
0.033669196 -0.14105083 0.72799999 4294967295
0.035049796 -0.1410512 0.72799999 4294967295
0.036430411 -0.14105159 0.72799999 4294967295
0.037811045 -0.14105201 0.72799999 4294967295
0.039191689 -0.14105244 0.72799999 4294967295
0.041664898 -0.14008459 0.72299999 4294967295
0.042976603 -0.13989137 0.722 4294967295
0.044345941 -0.13989188 0.722 4294967295
0.045715317 -0.13989241 0.722 4294967295
0.047084704 -0.13989297 0.722 4294967295
0.04845411 -0.13989355 0.722 4294967295
0.049823534 -0.13989414 0.722 4294967295
0.05083847 -0.13892595 0.71700001 4294967295
0.05219847 -0.13892658 0.71700001 4294967295
0.054305468 -0.14086485 0.727 4294967295
0.055761077 -0.14105928 0.72799999 4294967295
0.057142012 -0.14105998 0.72799999 4294967295
0.059410255 -0.13989882 0.722 4294967295
0.060779888 -0.13989957 0.722 4294967295
0.062149562 -0.13990033 0.722 4294967295
0.064223066 -0.14145124 0.73000002 4294967295
0.065607965 -0.14145204 0.73000002 4294967295
0.066992909 -0.14145286 0.73000002 4294967295
0.068377867 -0.14145371 0.73000002 4294967295
0.069762856 -0.14145456 0.73000002 4294967295
0.071147889 -0.14145544 0.73000002 4293520351
0.021244213 -0.13966677 0.72799999 4294967295
0.022624686 -0.13966696 0.72799999 4294967295
0.024104087 -0.14024271 0.73100001 4294967295
0.025490265 -0.14024293 0.73100001 4294967295
0.026766151 -0.13966763 0.72799999 4294967295
0.028146664 -0.1396679 0.72799999 4294967295
0.029486626 -0.13947633 0.727 4294967295
0.030780353 -0.13909295 0.72500002 4294967295
0.032155212 -0.13909326 0.72500002 4294967295
0.033622582 -0.13947733 0.727 4294967295
0.034808692 -0.13871031 0.72299999 4294967295
0.036179796 -0.13871068 0.72299999 4294967295
0.037550926 -0.13871111 0.72299999 4294967295
0.038922079 -0.13871156 0.72299999 4294967295
0.040070314 -0.13794458 0.71899998 4294967295
0.041664422 -0.13871247 0.72299999 4294967295
0.043035615 -0.13871296 0.72299999 4294967295
0.044345424 -0.13852163 0.722 4294967295
0.045714766 -0.13852213 0.722 4294967295
0.04708413 -0.1385227 0.722 4294967295
0.048453525 -0.13852328 0.722 4294967295
0.04982293 -0.13852386 0.722 4294967295
0.050837856 -0.13756518 0.71700001 4294967295
0.052197821 -0.13756578 0.71700001 4294967295
0.053557828 -0.13756643 0.71700001 4294967295
0.054917853 -0.13756709 0.71700001 4294967295
0.056434888 -0.13795151 0.71899998 4294967295
0.057798769 -0.13795221 0.71899998 4294967295
0.059409518 -0.13852853 0.722 4294967295
0.060779147 -0.13852929 0.722 4294967295
0.062148791 -0.13853003 0.722 4294967295
0.063518472 -0.13853081 0.722 4294967295
0.064888187 -0.13853161 0.722 4294967295
0.066349685 -0.13872427 0.72299999 4294967295
0.068189681 -0.13968447 0.72799999 4294967295
0.069570869 -0.1396853 0.72799999 4294967295
0.070952088 -0.13968618 0.72799999 4294967295
0.072532065 -0.14007081 0.73000002 4294311935
0.073917143 -0.14007172 0.73000002 4290364617
0.075302258 -0.14007263 0.73000002 4286023588
0.076477304 -0.1396898 0.72799999 4278191137
0.011676517 -0.1394242 0.73400003 4294967262
0.013068306 -0.13942426 0.73400003 4294967268
0.021244038 -0.13828519 0.72799999 4294967295
0.022624487 -0.13828535 0.72799999 4294967295
0.023906022 -0.1377157 0.72500002 4294967295
0.025280807 -0.13771594 0.72500002 4294967295
0.026655594 -0.1377162 0.72500002 4294967295
0.028030397 -0.13771646 0.72500002 4294967295
0.029405206 -0.13771676 0.72500002 4294967295
0.030695124 -0.13733713 0.72299999 4294967295
0.031933118 -0.13676761 0.72000003 4294967295
0.033298485 -0.13676797 0.72000003 4294967295
0.034760159 -0.13714825 0.722 4294967295
0.036029276 -0.13676873 0.72000003 4294967295
0.037394695 -0.13676913 0.72000003 4294967295
0.038706295 -0.1365796 0.71899998 4294967295
0.040069848 -0.13658005 0.71899998 4294967295
0.041491054 -0.13677049 0.72000003 4294967295
0.042856548 -0.13677098 0.72000003 4294967295
0.044222061 -0.1367715 0.72000003 4294967295
0.045587592 -0.13677202 0.72000003 4294967295
0.047083572 -0.13715249 0.722 4294967295
0.048452944 -0.13715307 0.722 4294967295
0.049822334 -0.13715364 0.722 4294967295
0.050979037 -0.13658436 0.71899998 4294967295
0.052197203 -0.13620506 0.71700001 4294967295
0.053557184 -0.1362057 0.71700001 4294967295
0.055070374 -0.13658629 0.71899998 4294967295
0.056434203 -0.13658696 0.71899998 4294967295
0.057798062 -0.13658765 0.71899998 4294967295
0.059408791 -0.13715829 0.722 4294967295
0.060778387 -0.13715902 0.722 4294967295
0.062148027 -0.13715978 0.722 4294967295
0.063517682 -0.13716055 0.722 4294967295
0.064887382 -0.13716134 0.722 4294967295
0.066257104 -0.13716215 0.722 4294967295
0.068095185 -0.13811284 0.727 4294967295
0.069570012 -0.13830367 0.72799999 4294967295
0.070951216 -0.13830453 0.72799999 4294967295
0.072332457 -0.13830541 0.72799999 4294967295
0.073916234 -0.13868627 0.73000002 4294967295
0.075301342 -0.13868719 0.73000002 4294967295
0.076476373 -0.13830814 0.72799999 4294375408
0.07785774 -0.13830905 0.72799999 4291482319
0.079239145 -0.13831002 0.72799999 4284376419
0.080620594 -0.138311 0.72799999 4278190148
0.082227364 -0.13869198 0.73000002 4278190146
0.0075216475 -0.13840745 0.736 4283250999
0.0089172013 -0.13840742 0.736 4293373081
0.010284734 -0.1380313 0.73400003 4294965220
0.011676498 -0.13803132 0.73400003 4294967295
0.013068264 -0.13803135 0.73400003 4294967295
0.01434183 -0.13690306 0.72799999 4294967295
0.015722228 -0.13690314 0.72799999 4294967295
0.017079135 -0.13671519 0.727 4294967295
0.018457646 -0.13671529 0.727 4294967295
0.019836161 -0.13671544 0.727 4294967295
0.021156324 -0.1363395 0.72500002 4294967295
0.022531066 -0.13633968 0.72500002 4294967295
0.023839865 -0.13596378 0.72299999 4294967295
0.025175957 -0.13577594 0.722 4294967295
0.026545038 -0.13577618 0.722 4294967295
0.027914135 -0.13577648 0.722 4294967295
0.029323794 -0.13596481 0.72299999 4294967295
0.030652348 -0.13577706 0.722 4294967295
0.031888425 -0.13521321 0.71899998 4294967295
0.033251882 -0.13521355 0.71899998 4294967295
0.034663491 -0.13540199 0.72000003 4294967295
0.035978835 -0.13521433 0.71899998 4294967295
0.037342332 -0.1352147 0.71899998 4294967295
0.038705852 -0.13521513 0.71899998 4294967295
0.04006939 -0.1352156 0.71899998 4294967295
0.041317698 -0.13483994 0.71700001 4294967295
0.042677481 -0.13484043 0.71700001 4294967295
0.044221543 -0.13540512 0.72000003 4294967295
0.045587055 -0.13540566 0.72000003 4294967295
0.04708302 -0.13578232 0.722 4294967295
0.048452366 -0.1357829 0.722 4294967295
0.049821738 -0.13578348 0.722 4294967295
0.050978426 -0.13521987 0.71899998 4294967295
0.052342162 -0.1352205 0.71899998 4294967295
0.053705927 -0.13522115 0.71899998 4294967295
0.055069704 -0.13522181 0.71899998 4294967295
0.056276541 -0.13484634 0.71700001 4294967295
0.057636585 -0.13484703 0.71700001 4294967295
0.059161216 -0.13522388 0.71899998 4294967295
0.060609296 -0.13541271 0.72000003 4294967295
0.062147263 -0.13578957 0.722 4294967295
0.063516915 -0.13579035 0.722 4294967295
0.064886585 -0.13579114 0.722 4294967295
0.066256292 -0.13579194 0.722 4294967295
0.068094343 -0.13673314 0.727 4294967295
0.069569178 -0.13692208 0.72799999 4294967295
0.070950352 -0.13692293 0.72799999 4294967295
0.072331578 -0.1369238 0.72799999 4294967295
0.073915333 -0.13730085 0.73000002 4294967295
0.075300425 -0.13730176 0.73000002 4294967295
0.076475441 -0.13692652 0.72799999 4294967295
0.077856794 -0.13692743 0.72799999 4294705151
0.079238191 -0.13692839 0.72799999 4290627020
0.080841102 -0.13730554 0.73000002 4284842144
0.082226373 -0.13730653 0.73000002 4278190105
0.083611675 -0.13730752 0.73000002 4278190116
0.0061261598 -0.13701083 0.736 4294967194
0.0075216922 -0.13701081 0.736 4294967216
0.0089172237 -0.13701077 0.736 4294967295
0.010284734 -0.13663843 0.73400003 4294967295
0.011676476 -0.13663845 0.73400003 4294967295
0.013068219 -0.13663846 0.73400003 4294967295
0.014341765 -0.13552159 0.72799999 4294967295
0.015722141 -0.13552167 0.72799999 4294967295
0.017079029 -0.13533562 0.727 4294967295
0.018457517 -0.13533573 0.727 4294967295
0.01983601 -0.13533585 0.727 4294967295
0.021156155 -0.13496375 0.72500002 4294967295
0.022468714 -0.13459158 0.72299999 4294967295
0.02380668 -0.13440564 0.722 4294967295
0.025175724 -0.13440585 0.722 4294967295
0.026544783 -0.1344061 0.722 4294967295
0.027913857 -0.13440637 0.722 4294967295
0.029282941 -0.13440666 0.722 4294967295
0.030439759 -0.13347615 0.71700001 4294967295
0.031799383 -0.13347648 0.71700001 4294967295
0.033159025 -0.13347682 0.71700001 4294967295
0.034518685 -0.1334772 0.71700001 4294967295
0.035878357 -0.13347758 0.71700001 4294967295
0.037238047 -0.13347799 0.71700001 4294967295
0.038597755 -0.13347843 0.71700001 4294967295
0.039957475 -0.13347885 0.71700001 4294967295
0.041317221 -0.13347933 0.71700001 4294967295
0.042676985 -0.1334798 0.71700001 4294967295
0.044159606 -0.13385263 0.71899998 4294967295
0.045523204 -0.13385318 0.71899998 4294967295
0.046952043 -0.13403988 0.72000003 4294967295
0.048250467 -0.13385427 0.71899998 4294967295
0.049614131 -0.13385485 0.71899998 4294967295
0.050836015 -0.13348313 0.71700001 4294967295
0.05219594 -0.13348375 0.71700001 4294967295
0.053555883 -0.13348436 0.71700001 4294967295
0.054915853 -0.13348502 0.71700001 4294967295
0.056275859 -0.13348569 0.71700001 4294967295
0.057635892 -0.13348639 0.71700001 4294967295
0.058995936 -0.13348708 0.71700001 4294967295
0.060524382 -0.13386017 0.71899998 4294967295
0.061888281 -0.13386089 0.71899998 4294967295
0.063252218 -0.13386165 0.71899998 4294967295
0.064616181 -0.13386244 0.71899998 4294967295
0.066071957 -0.13404943 0.72000003 4294967295
0.067718863 -0.13460878 0.72299999 4294967295
0.069090523 -0.13460959 0.72299999 4294967295
0.070462205 -0.13461044 0.72299999 4294967295
0.072231345 -0.13535604 0.727 4294967295
0.073711939 -0.13554311 0.72799999 4294967295
0.075299509 -0.13591638 0.73000002 4294967295
0.07647451 -0.1355449 0.72799999 4294967295
0.077855855 -0.13554585 0.72799999 4294967295
0.079454921 -0.13591918 0.73000002 4294967295
0.080840126 -0.13592014 0.73000002 4294967295
0.082225397 -0.13592114 0.73000002 4292664540
0.0033442623 -0.13598295 0.73799998 4286604366
0.0047435681 -0.13598286 0.73799998 4294960077
0.006126225 -0.13561423 0.736 4294967295
0.007521736 -0.1356142 0.736 4294967295
0.0088930149 -0.13524567 0.73400003 4294967295
0.010284735 -0.13524565 0.73400003 4294967295
0.011628728 -0.13469288 0.73100001 4294967295
0.012996961 -0.13450865 0.73000002 4294967295
0.0143417 -0.13414019 0.72799999 4294967295
0.015700458 -0.13395602 0.727 4294967295
0.017031936 -0.1335876 0.72500002 4294967295
0.018406611 -0.1335877 0.72500002 4294967295
0.019726722 -0.13321932 0.72299999 4294967295
0.021097621 -0.1332195 0.72299999 4294967295
0.022437448 -0.13303539 0.722 4294967295
0.023707546 -0.13248281 0.71899998 4294967295
0.025001148 -0.13211453 0.71700001 4294967295
0.026323933 -0.1319305 0.71600002 4294967295
0.027681613 -0.13193078 0.71600002 4294967295
0.029039295 -0.13193105 0.71600002 4294967295
0.030396992 -0.13193138 0.71600002 4294967295
0.031754702 -0.13193169 0.71600002 4294967295
0.033112429 -0.13193202 0.71600002 4294967295
0.034470167 -0.13193236 0.71600002 4294967295
0.035827927 -0.13193278 0.71600002 4294967295
0.037185699 -0.13193317 0.71600002 4294967295
0.038543485 -0.1319336 0.71600002 4294967295
0.039901301 -0.13193403 0.71600002 4294967295
0.041259121 -0.13193451 0.71600002 4294967295
0.042616975 -0.13193499 0.71600002 4294967295
0.044036258 -0.13211975 0.71700001 4294967295
0.045332734 -0.13193601 0.71600002 4294967295
0.046690639 -0.13193655 0.71600002 4294967295
0.048048574 -0.1319371 0.71600002 4294967295
0.049406536 -0.13193768 0.71600002 4294967295
0.050764512 -0.13193826 0.71600002 4294967295
0.052122522 -0.13193889 0.71600002 4294967295
0.053480554 -0.13193953 0.71600002 4294967295
0.054915197 -0.13212442 0.71700001 4294967295
0.056275181 -0.13212509 0.71700001 4294967295
0.057635184 -0.13212578 0.71700001 4294967295
0.058995232 -0.1321265 0.71700001 4294967295
0.060355291 -0.13212721 0.71700001 4294967295
0.061887532 -0.13249649 0.71899998 4294967295
0.063251451 -0.13249725 0.71899998 4294967295
0.064615399 -0.13249803 0.71899998 4294967295
0.065979384 -0.13249882 0.71899998 4294967295
0.067343391 -0.13249962 0.71899998 4294967295
0.069089681 -0.13323759 0.72299999 4294967295
0.070461348 -0.13323843 0.72299999 4294967295
0.072230473 -0.13397643 0.727 4294967295
0.073609799 -0.13397731 0.727 4294967295
0.075092301 -0.13416249 0.72799999 4294967295
0.076473586 -0.13416338 0.72799999 4294967295
0.077854924 -0.13416433 0.72799999 4294967295
0.079236284 -0.13416524 0.72799999 4294967295
0.080617689 -0.1341662 0.72799999 4294967295
0.082224414 -0.13453579 0.73000002 4294967295
0.083609678 -0.13453677 0.73000002 4292668415
0.003344371 -0.13458259 0.73799998 4294967295
0.0047308002 -0.13421777 0.736 4294967295
0.0061262907 -0.13421769 0.736 4294967295
0.00750134 -0.13385291 0.73400003 4294967295
0.0088930363 -0.13385291 0.73400003 4294967295
0.010270721 -0.13367051 0.73299998 4294967295
0.0116128 -0.13312346 0.73000002 4294967295
0.012961308 -0.13275875 0.72799999 4294967295
0.014321934 -0.13257644 0.727 4294967295
0.015657179 -0.1322118 0.72500002 4294967295
0.016984841 -0.13184717 0.72299999 4294967295
0.018355707 -0.13184729 0.72299999 4294967295
0.019699289 -0.13166508 0.722 4294967295
0.021009909 -0.13130051 0.72000003 4294967295
0.022344029 -0.13111833 0.71899998 4294967295
0.023641387 -0.1307538 0.71700001 4294967295
0.024966044 -0.13057166 0.71600002 4294967295
0.026323689 -0.13057192 0.71600002 4294967295
0.02768134 -0.13057216 0.71600002 4294967295
0.028957892 -0.13020772 0.71399999 4294967295
0.030311771 -0.13020802 0.71399999 4294967295
0.031665672 -0.13020833 0.71399999 4294967295
0.033019584 -0.13020869 0.71399999 4294967295
0.034373514 -0.13020904 0.71399999 4294967295
0.035727452 -0.13020942 0.71399999 4294967295
0.037081417 -0.13020983 0.71399999 4294967295
0.038435392 -0.13021022 0.71399999 4294967295
0.039900839 -0.13057542 0.71600002 4294967295
0.041258655 -0.13057588 0.71600002 4294967295
0.042616487 -0.13057637 0.71600002 4294967295
0.043974336 -0.13057686 0.71600002 4294967295
0.045205571 -0.13021262 0.71399999 4294967295
0.046559669 -0.13021316 0.71399999 4294967295
0.047913797 -0.13021369 0.71399999 4294967295
0.049198937 -0.13003191 0.713 4294967295
0.050551217 -0.13003251 0.713 4294967295
0.051976308 -0.13021547 0.71399999 4294967295
0.053330526 -0.13021611 0.71399999 4294967295
0.054837957 -0.13058151 0.71600002 4294967295
0.056196015 -0.13058218 0.71600002 4294967295
0.057554115 -0.13058284 0.71600002 4294967295
0.058912244 -0.13058354 0.71600002 4294967295
0.060270399 -0.13058428 0.71600002 4294967295
0.061714642 -0.13076736 0.71700001 4294967295
0.063074753 -0.13076812 0.71700001 4294967295
0.064434893 -0.1307689 0.71700001 4294967295
0.065795064 -0.13076966 0.71700001 4294967295
0.067155264 -0.13077049 0.71700001 4294967295
0.068706617 -0.13113606 0.71899998 4294967295
0.070168138 -0.13131927 0.72000003 4294967295
0.071534134 -0.13132012 0.72000003 4294967295
0.073406421 -0.13223295 0.72500002 4294967295
0.074988253 -0.13259861 0.727 4294967295
0.076472685 -0.13278191 0.72799999 4294967295
0.077854 -0.13278283 0.72799999 4294967295
0.079235345 -0.13278376 0.72799999 4294967295
0.080616735 -0.13278471 0.72799999 4294967295
0.08222343 -0.13315047 0.73000002 4294967295
0.083608694 -0.13315146 0.73000002 4294967295
0.0033263515 -0.13246043 0.73400003 4294967295
0.0047180303 -0.13246036 0.73400003 4294967295
0.0061097061 -0.13246027 0.73400003 4294967295
0.0075013814 -0.13246024 0.73400003 4294967295
0.0088809393 -0.13227971 0.73299998 4294967295
0.010200661 -0.1313774 0.72799999 4294967295
0.011580961 -0.13137741 0.72799999 4294967295
0.01294346 -0.13119696 0.727 4294967295
0.01432187 -0.13119702 0.727 4294967295
0.015657097 -0.13083619 0.72500002 4294967295
0.016984735 -0.13047536 0.72299999 4294967295
0.018330188 -0.13029499 0.722 4294967295
0.019617289 -0.12975374 0.71899998 4294967295
0.020980559 -0.12975392 0.71899998 4294967295
0.022281686 -0.12939316 0.71700001 4294967295
0.023641178 -0.12939337 0.71700001 4294967295
0.024965819 -0.12921312 0.71600002 4294967295
0.026323436 -0.12921335 0.71600002 4294967295
0.027681073 -0.12921363 0.71600002 4294967295
0.028957596 -0.12885295 0.71399999 4294967295
0.030311463 -0.12885326 0.71399999 4294967295
0.031620994 -0.12867312 0.713 4294967295
0.032972991 -0.12867345 0.713 4294967295
0.034373142 -0.12885427 0.71399999 4294967295
0.035727065 -0.12885465 0.71399999 4294967295
0.037029073 -0.12867457 0.713 4294967295
0.038381133 -0.128675 0.713 4294967295
0.039733216 -0.12867542 0.713 4294967295
0.041142941 -0.12885636 0.71399999 4294967295
0.042496957 -0.12885681 0.71399999 4294967295
0.043850996 -0.12885733 0.71399999 4294967295
0.045141738 -0.12867737 0.713 4294967295
0.046493929 -0.12867789 0.713 4294967295
0.047846131 -0.12867844 0.713 4294967295
0.049198359 -0.12867901 0.713 4294967295
0.050550617 -0.1286796 0.713 4294967295
0.051902901 -0.1286802 0.713 4294967295
0.05310582 -0.12831987 0.71100003 4294967295
0.054454349 -0.12832049 0.71100003 4294967295
0.055959892 -0.12868212 0.713 4294967295
0.057392672 -0.12886326 0.71399999 4294967295
0.058746975 -0.12886395 0.71399999 4294967295
0.060101319 -0.12886466 0.71399999 4294967295
0.061627835 -0.12922636 0.71600002 4294967295
0.062986031 -0.12922712 0.71600002 4294967295
0.06434425 -0.12922786 0.71600002 4294967295
0.065702505 -0.12922864 0.71600002 4294967295
0.067154452 -0.12940991 0.71700001 4294967295
0.068705797 -0.12977172 0.71899998 4294967295
0.070069835 -0.12977253 0.71899998 4294967295
0.071433924 -0.12977339 0.71899998 4294967295
0.073203035 -0.1304962 0.72299999 4294967295
0.074574783 -0.1304971 0.72299999 4294967295
0.076156639 -0.13085897 0.72500002 4294967295
0.077746131 -0.13122088 0.727 4294967295
0.078907892 -0.13086081 0.72500002 4294967295
0.080283575 -0.13086174 0.72500002 4294967295
0.081997201 -0.13140422 0.72799999 4294967295
0.083607711 -0.13176619 0.73000002 4294967295
0.0033219249 -0.13088921 0.73299998 4294967295
0.0047116852 -0.13088912 0.73299998 4294967295
0.0061014448 -0.13088903 0.73299998 4294967295
0.007491203 -0.130889 0.73299998 4294967295
0.0088203792 -0.12999612 0.72799999 4294967295
0.010186646 -0.12981755 0.727 4294967295
0.011565031 -0.12981758 0.727 4294967295
0.012907808 -0.12946048 0.72500002 4294967295
0.014282407 -0.12946053 0.72500002 4294967295
0.015592219 -0.12892489 0.722 4294967295
0.016961139 -0.12892501 0.722 4294967295
0.018253896 -0.1283894 0.71899998 4294967295
0.019617142 -0.12838955 0.71899998 4294967295
0.020922029 -0.12803258 0.71700001 4294967295
0.022281498 -0.12803276 0.71700001 4294967295
0.023608001 -0.12785439 0.71600002 4294967295
0.024965588 -0.12785462 0.71600002 4294967295
0.026323188 -0.12785484 0.71600002 4294967295
0.027680801 -0.12785511 0.71600002 4294967295
0.028957313 -0.12749824 0.71399999 4294967295
0.030268699 -0.12731996 0.713 4294967295
0.031531963 -0.12696314 0.71100003 4294967295
0.032880154 -0.12696348 0.71100003 4294967295
0.034228355 -0.12696385 0.71100003 4294967295
0.035576567 -0.12696421 0.71100003 4294967295
0.036924802 -0.1269646 0.71100003 4294967295
0.038273055 -0.12696503 0.71100003 4294967295
0.039621323 -0.12696546 0.71100003 4294967295
0.04096961 -0.12696591 0.71100003 4294967295
0.042317916 -0.12696636 0.71100003 4294967295
0.043666251 -0.12696686 0.71100003 4294967295
0.045014601 -0.12696737 0.71100003 4294967295
0.046362977 -0.12696789 0.71100003 4294967295
0.047711372 -0.12696844 0.71100003 4294967295
0.04905979 -0.12696901 0.71100003 4294967295
0.050408229 -0.12696958 0.71100003 4294967295
0.051756699 -0.12697017 0.71100003 4294967295
0.05310519 -0.1269708 0.71100003 4294967295
0.054453719 -0.12697142 0.71100003 4294967295
0.055802267 -0.12697206 0.71100003 4294967295
0.057311609 -0.12732992 0.713 4294967295
0.058664002 -0.12733059 0.713 4294967295
0.0601006 -0.12750989 0.71399999 4294967295
0.061454959 -0.12751059 0.71399999 4294967295
0.062985286 -0.12786853 0.71600002 4294967295
0.06434349 -0.12786928 0.71600002 4294967295
0.065701723 -0.12787004 0.71600002 4294967295
0.067060009 -0.12787084 0.71600002 4294967295
0.068513855 -0.12805021 0.71700001 4294967295
0.070069 -0.12840822 0.71899998 4294967295
0.071433075 -0.12840907 0.71899998 4294967295
0.07289844 -0.12858853 0.72000003 4294967295
0.074264459 -0.12858938 0.72000003 4294967295
0.075840615 -0.12894748 0.722 4294967295
0.077531338 -0.12948418 0.72500002 4294967295
0.078689292 -0.12912789 0.72299999 4294967295
0.080061153 -0.12912881 0.72299999 4294967295
0.081658341 -0.12948698 0.72500002 4294967295
0.083034083 -0.12948793 0.72500002 4294967295
0.0033129649 -0.12914516 0.73100001 4294967295
0.0046989121 -0.12914506 0.73100001 4294967295
0.0060848589 -0.12914503 0.73100001 4294967295
0.0074708033 -0.12914495 0.73100001 4294967295
0.0088082822 -0.12843825 0.727 4294967295
0.01015862 -0.12808488 0.72500002 4294967295
0.011533191 -0.12808491 0.72500002 4294967295
0.012872158 -0.12773161 0.72299999 4294967295
0.014223244 -0.12755501 0.722 4294967295
0.015527346 -0.12702507 0.71899998 4294967295
0.016843572 -0.12667182 0.71700001 4294967295
0.018202996 -0.12667193 0.71700001 4294967295
0.019562429 -0.12667207 0.71700001 4294967295
0.020892683 -0.12649556 0.71600002 4294967295
0.022250237 -0.12649575 0.71600002 4294967295
0.023607792 -0.12649594 0.71600002 4294967295
0.024895625 -0.1261428 0.71399999 4294967295
0.026249412 -0.12614305 0.71399999 4294967295
0.027603213 -0.12614329 0.71399999 4294967295
0.028916473 -0.12596691 0.713 4294967295
0.030183494 -0.12561385 0.71100003 4294967295
0.031531643 -0.12561418 0.71100003 4294967295
0.032879807 -0.12561451 0.71100003 4294967295
0.034227993 -0.12561487 0.71100003 4294967295
0.035576187 -0.12561524 0.71100003 4294967295
0.036872469 -0.12543894 0.70999998 4294967295
0.0382188 -0.12543935 0.70999998 4294967295
0.03956515 -0.12543978 0.70999998 4294967295
0.040911533 -0.12544024 0.70999998 4294967295
0.042257924 -0.1254407 0.70999998 4294967295
0.043604329 -0.12544118 0.70999998 4294967295
0.044950772 -0.1254417 0.70999998 4294967295
0.04629723 -0.12544219 0.70999998 4294967295
0.047442399 -0.1249127 0.70700002 4294967295
0.048783209 -0.12491325 0.70700002 4294967295
0.050336745 -0.12544388 0.70999998 4294967295
0.051683299 -0.12544447 0.70999998 4294967295
0.053029876 -0.12544508 0.70999998 4294967295
0.054376483 -0.12544571 0.70999998 4294967295
0.055723112 -0.12544633 0.70999998 4294967295
0.057150166 -0.1256237 0.71100003 4294967295
0.058498759 -0.12562439 0.71100003 4294967295
0.059847381 -0.1256251 0.71100003 4294967295
0.061368156 -0.12597916 0.713 4294967295
0.062720619 -0.1259799 0.713 4294967295
0.064162999 -0.12615734 0.71399999 4294967295
0.065517426 -0.12615809 0.71399999 4294967295
0.066871889 -0.12615889 0.71399999 4294967295
0.068513051 -0.12668976 0.71700001 4294967295
0.069873273 -0.12669058 0.71700001 4294967295
0.071233526 -0.12669142 0.71700001 4294967295
0.072593823 -0.12669227 0.71700001 4294967295
0.074263588 -0.12722321 0.72000003 4294967295
0.075629652 -0.1272241 0.72000003 4294967295
0.077209614 -0.12757839 0.722 4294967295
0.078688361 -0.12775598 0.72299999 4294967295
0.080060229 -0.12775692 0.72299999 4294967295
0.081657387 -0.12811127 0.72500002 4294967295
0.083033122 -0.12811226 0.72500002 4294967295
0.084408887 -0.1281132 0.72500002 4294967295
0.0033085351 -0.12758353 0.73000002 4294967295
0.0046925661 -0.12758344 0.73000002 4294967295
0.0060765948 -0.12758338 0.73000002 4294967295
0.0074401819 -0.12723379 0.72799999 4294967295
0.0087840697 -0.12670943 0.72500002 4294967295
0.010130594 -0.12635988 0.72299999 4294967295
0.011501352 -0.12635989 0.72299999 4294967295
0.012818702 -0.12583564 0.72000003 4294967295
0.01416408 -0.12566091 0.71899998 4294967295
0.015484071 -0.12531145 0.71700001 4294967295
0.016819976 -0.12513676 0.71600002 4294967295
0.018177485 -0.12513688 0.71600002 4294967295
0.019534998 -0.12513702 0.71600002 4294967295
0.020834159 -0.12478761 0.71399999 4294967295
0.022187898 -0.12478781 0.71399999 4294967295
0.023541646 -0.12478801 0.71399999 4294967295
0.024860533 -0.12461343 0.713 4294967295
0.026212405 -0.12461369 0.713 4294967295
0.027564285 -0.12461392 0.713 4294967295
0.028835075 -0.12426466 0.71100003 4294967295
0.030183189 -0.12426494 0.71100003 4294967295
0.031531319 -0.12426525 0.71100003 4294967295
0.032833219 -0.1240908 0.70999998 4294967295
0.03417949 -0.12409117 0.70999998 4294967295
0.035525769 -0.12409154 0.70999998 4294967295
0.036768202 -0.12374236 0.708 4294967295
0.038110722 -0.12374277 0.708 4294967295
0.039397541 -0.12356842 0.70700002 4294967295
0.040680587 -0.12339408 0.70599997 4294967295
0.042019375 -0.12339453 0.70599997 4294967295
0.043358184 -0.12339501 0.70599997 4294967295
0.04469702 -0.12339552 0.70599997 4294967295
0.046035875 -0.12339603 0.70599997 4294967295
0.047441851 -0.12357134 0.70700002 4294967295
0.048782647 -0.1235719 0.70700002 4294967295
0.050336163 -0.12409682 0.70999998 4294967295
0.051682699 -0.12409741 0.70999998 4294967295
0.053029269 -0.12409802 0.70999998 4294967295
0.054375857 -0.12409863 0.70999998 4294967295
0.055722468 -0.12409928 0.70999998 4294967295
0.057069115 -0.12409993 0.70999998 4294967295
0.058415789 -0.12410061 0.70999998 4294967295
0.059762497 -0.1241013 0.70999998 4294967295
0.061109222 -0.124102 0.70999998 4294967295
0.062543966 -0.12427752 0.71100003 4294967295
0.063892663 -0.12427828 0.71100003 4294967295
0.065424897 -0.1246286 0.713 4294967295
0.066777453 -0.1246294 0.713 4294967295
0.068225585 -0.12480496 0.71399999 4294967295
0.069775008 -0.12515537 0.71600002 4294967295
0.071232691 -0.125331 0.71700001 4294967295
0.072592974 -0.12533185 0.71700001 4294967295
0.07415957 -0.12568228 0.71899998 4294967295
0.075523719 -0.12568317 0.71899998 4294967295
0.07720872 -0.12620848 0.722 4294967295
0.078578629 -0.12620938 0.722 4294967295
0.079948574 -0.1262103 0.722 4294967295
0.081656441 -0.12673564 0.72500002 4294967295
0.0828031 -0.12638697 0.72299999 4294967295
0.084175058 -0.12638792 0.72299999 4294967295
0.00054060784 -0.12619887 0.73000002 4294967295
0.0019193511 -0.12585299 0.72799999 4294967295
0.0032995716 -0.12585287 0.72799999 4294967295
0.0046797902 -0.12585278 0.72799999 4294967295
0.0060600056 -0.1258527 0.72799999 4294967295
0.0074300012 -0.12567979 0.727 4294967295
0.0087598553 -0.12498826 0.72299999 4294967295
0.01011658 -0.1248154 0.722 4294967295
0.011485421 -0.12481542 0.722 4294967295
0.012818659 -0.12446968 0.72000003 4294967295
0.014164013 -0.12429686 0.71899998 4294967295
0.015462391 -0.12377831 0.71600002 4294967295
0.016772887 -0.12343263 0.71399999 4294967295
0.018126585 -0.12343278 0.71399999 4294967295
0.019453004 -0.12326004 0.713 4294967295
0.020804815 -0.12326019 0.713 4294967295
0.022156639 -0.12326036 0.713 4294967295
0.023508469 -0.12326056 0.713 4294967295
0.024860311 -0.12326077 0.713 4294967295
0.026212161 -0.123261 0.713 4294967295
0.027564026 -0.12326126 0.713 4294967295
0.028834792 -0.12291577 0.71100003 4294967295
0.030140441 -0.12274318 0.70999998 4294967295
0.031486645 -0.12274348 0.70999998 4294967295
0.03283288 -0.12274382 0.70999998 4294967295
0.034179129 -0.12274417 0.70999998 4294967295
0.035425317 -0.12239877 0.708 4294967295
0.036715876 -0.12222628 0.70700002 4294967295
0.038056485 -0.12222669 0.70700002 4294967295
0.039341386 -0.12205422 0.70599997 4294967295
0.040680137 -0.12205465 0.70599997 4294967295
0.042018909 -0.12205511 0.70599997 4294967295
0.043357704 -0.1220556 0.70599997 4294967295
0.044696521 -0.12205609 0.70599997 4294967295
0.046035353 -0.1220566 0.70599997 4294967295
0.047374211 -0.12205712 0.70599997 4294967295
0.048713088 -0.12205765 0.70599997 4294967295
0.050122909 -0.12223113 0.70700002 4294967295
0.051536519 -0.12240458 0.708 4294967295
0.052879274 -0.12240521 0.708 4294967295
0.054222051 -0.12240582 0.708 4294967295
0.055564862 -0.12240645 0.708 4294967295
0.056907706 -0.12240709 0.708 4294967295
0.058415111 -0.12275354 0.70999998 4294967295
0.059593458 -0.12240846 0.708 4294967295
0.060936391 -0.12240916 0.708 4294967295
0.062455263 -0.12275565 0.70999998 4294967295
0.063802049 -0.12275641 0.70999998 4294967295
0.065240614 -0.12293004 0.71100003 4294967295
0.066776671 -0.12327661 0.713 4294967295
0.068129241 -0.1232774 0.713 4294967295
0.069481842 -0.12327819 0.713 4294967295
0.070933834 -0.12345192 0.71399999 4294967295
0.072490893 -0.12379855 0.71600002 4294967295
0.073849291 -0.12379938 0.71600002 4294967295
0.075312763 -0.12397315 0.71700001 4294967295
0.076673143 -0.12397404 0.71700001 4294967295
0.078251205 -0.12432074 0.71899998 4294967295
0.07994765 -0.12484038 0.722 4294967295
0.081430241 -0.12501422 0.72299999 4294967295
0.082802154 -0.12501515 0.72299999 4294967295
0.084174104 -0.12501611 0.72299999 4294967295
0.085546106 -0.12501708 0.72299999 4294967295
0.087158576 -0.12536389 0.72500002 4294967295
0.00053926796 -0.12447205 0.72799999 4294967295
0.0019168349 -0.12430091 0.727 4294967295
0.0032951392 -0.12430083 0.727 4294967295
0.004660584 -0.1239588 0.72500002 4294967295
0.0060350904 -0.12395871 0.72500002 4294967295
0.007389158 -0.12361671 0.72299999 4294967295
0.0087477565 -0.1234457 0.722 4294967295
0.010088552 -0.12310375 0.72000003 4294967295
0.011437671 -0.12293277 0.71899998 4294967295
0.012765205 -0.12259086 0.71700001 4294967295
0.014124549 -0.12259091 0.71700001 4294967295
0.015462308 -0.12242001 0.71600002 4294967295
0.016749294 -0.12190718 0.713 4294967295
0.0180503 -0.12156533 0.71100003 4294967295
0.019398293 -0.12156546 0.71100003 4294967295
0.020746294 -0.12156561 0.71100003 4294967295
0.022094304 -0.12156578 0.71100003 4294967295
0.023442322 -0.121566 0.71100003 4294967295
0.024790356 -0.12156621 0.71100003 4294967295
0.026138391 -0.12156641 0.71100003 4294967295
0.027563766 -0.12190863 0.713 4294967295
0.028834511 -0.12156695 0.71100003 4294967295
0.030140135 -0.12139624 0.70999998 4294967295
0.031486332 -0.12139656 0.70999998 4294967295
0.032832544 -0.12139687 0.70999998 4294967295
0.034082495 -0.12105526 0.708 4294967295
0.035374913 -0.12088467 0.70700002 4294967295
0.036715481 -0.12088504 0.70700002 4294967295
0.038002245 -0.12071443 0.70599997 4294967295
0.039340954 -0.12071487 0.70599997 4294967295
0.040679689 -0.1207153 0.70599997 4294967295
0.042018443 -0.12071574 0.70599997 4294967295
0.043357216 -0.12071621 0.70599997 4294967295
0.044696014 -0.12071672 0.70599997 4294967295
0.046034835 -0.12071723 0.70599997 4294967295
0.047373675 -0.12071774 0.70599997 4294967295
0.048712544 -0.1207183 0.70599997 4294967295
0.050051428 -0.12071884 0.70599997 4294967295
0.05139035 -0.12071943 0.70599997 4294967295
0.05272929 -0.12072004 0.70599997 4294967295
0.054068264 -0.12072063 0.70599997 4294967295
0.05540726 -0.12072127 0.70599997 4294967295
0.056746285 -0.12072191 0.70599997 4294967295
0.058167621 -0.12089358 0.70700002 4294967295
0.059508596 -0.12089425 0.70700002 4294967295
0.060849618 -0.12089493 0.70700002 4294967295
0.062278617 -0.12106665 0.708 4294967295
0.063801304 -0.12140936 0.70999998 4294967295
0.0651481 -0.1214101 0.70999998 4294967295
0.066775896 -0.12192389 0.713 4294967295
0.068128452 -0.12192466 0.713 4294967295
0.069481038 -0.12192546 0.713 4294967295
0.070933014 -0.12209728 0.71399999 4294967295
0.072287567 -0.12209809 0.71399999 4294967295
0.073642157 -0.12209892 0.71399999 4294967295
0.075206861 -0.12244181 0.71600002 4294967295
0.076565325 -0.12244268 0.71600002 4294967295
0.07803265 -0.12261456 0.71700001 4294967295
0.079614542 -0.12295746 0.71899998 4294967295
0.081316687 -0.12347144 0.722 4294967295
0.082686685 -0.12347238 0.722 4294967295
0.084056728 -0.1234733 0.722 4294967295
0.08554513 -0.12364528 0.72299999 4294967295
0.087157592 -0.12398831 0.72500002 4294967295
0.00053940737 -0.12309101 0.72799999 4294967295
0.0019116802 -0.12258366 0.72500002 4294967295
0.0032861722 -0.12258355 0.72500002 4294967295
0.0046478044 -0.12224528 0.72299999 4294967295
0.0060185003 -0.12224523 0.72299999 4294967295
0.0073789749 -0.12207611 0.722 4294967295
0.0087114247 -0.12156884 0.71899998 4294967295
0.010074536 -0.12156883 0.71899998 4294967295
0.011405834 -0.12123068 0.71700001 4294967295
0.012747356 -0.12106164 0.71600002 4294967295
0.014104787 -0.12106169 0.71600002 4294967295
0.015419031 -0.12072359 0.71399999 4294967295
0.016702209 -0.12021645 0.71100003 4294967295
0.018050175 -0.12021656 0.71100003 4294967295
0.019398149 -0.12021669 0.71100003 4294967295
0.020746132 -0.12021686 0.71100003 4294967295
0.022094125 -0.12021703 0.71100003 4294967295
0.023442127 -0.1202172 0.71100003 4294967295
0.024790132 -0.12021742 0.71100003 4294967295
0.026138157 -0.12021764 0.71100003 4294967295
0.027447525 -0.1200488 0.70999998 4294967295
0.028672015 -0.11954183 0.70700002 4294967295
0.030012496 -0.11954213 0.70700002 4294967295
0.031352978 -0.11954241 0.70700002 4294967295
0.032693479 -0.11954274 0.70700002 4294967295
0.034034003 -0.11954308 0.70700002 4294967295
0.035324503 -0.11937435 0.70599997 4294967295
0.036663163 -0.11937473 0.70599997 4294967295
0.037894186 -0.11903697 0.704 4294967295
0.039229088 -0.11903738 0.704 4294967295
0.040506393 -0.11886872 0.70300001 4294967295
0.041839439 -0.11886916 0.70300001 4294967295
0.043172508 -0.11886965 0.70300001 4294967295
0.044505592 -0.11887012 0.70300001 4294967295
0.045838706 -0.11887062 0.70300001 4294967295
0.047238946 -0.11904023 0.704 4294967295
0.048574001 -0.11904076 0.704 4294967295
0.049909085 -0.11904133 0.704 4294967295
0.051244184 -0.11904188 0.704 4294967295
0.052579314 -0.11904248 0.704 4294967295
0.053914472 -0.11904307 0.704 4294967295
0.055406623 -0.11938188 0.70599997 4294967295
0.056745637 -0.11938253 0.70599997 4294967295
0.058084678 -0.11938319 0.70599997 4294967295
0.059423748 -0.11938387 0.70599997 4294967295
0.060848918 -0.11955366 0.70700002 4294967295
0.062277894 -0.11972347 0.708 4294967295
0.063800573 -0.12006238 0.70999998 4294967295
0.065147348 -0.12006313 0.70999998 4294967295
0.066775128 -0.12057119 0.713 4294967295
0.068127669 -0.12057198 0.713 4294967295
0.06948024 -0.12057274 0.713 4294967295
0.070932202 -0.12074268 0.71399999 4294967295
0.07228674 -0.12074348 0.71399999 4294967295
0.073641315 -0.1207443 0.71399999 4294967295
0.075206004 -0.12108338 0.71600002 4294967295
0.076564454 -0.12108424 0.71600002 4294967295
0.078031763 -0.12125424 0.71700001 4294967295
0.07939218 -0.12125512 0.71700001 4294967295
0.080752634 -0.12125603 0.71700001 4294967295
0.082342178 -0.12159517 0.71899998 4294967295
0.084055781 -0.12210348 0.722 4294967295
0.085544154 -0.12227352 0.72299999 4294967295
0.087156616 -0.12261276 0.72500002 4294967295
0.088532455 -0.12261372 0.72500002 4294967295
-0.010646256 -0.12338366 0.73799998 4291018686
-0.0092220129 -0.12304899 0.736 4294967295
-0.0078053642 -0.12271435 0.73400003 4294967295
-0.0064050457 -0.12254691 0.73299998 4294967295
-0.0050153718 -0.12254669 0.73299998 4294967295
-0.0022207948 -0.12171035 0.72799999 4294967295
-0.00083946728 -0.12154301 0.727 4294967295
0.00053732202 -0.12120851 0.72500002 4294967295
0.0019065234 -0.120874 0.72299999 4294967295
0.0032772035 -0.12087391 0.72299999 4294967295
0.0046478803 -0.1208738 0.72299999 4294967295
0.006010232 -0.12070657 0.722 4294967295
0.0073279096 -0.11987058 0.71700001 4294967295
0.0086872084 -0.11987057 0.71700001 4294967295
0.010032497 -0.11970339 0.71600002 4294967295
0.011358086 -0.11936902 0.71399999 4294967295
0.012693902 -0.11920188 0.713 4294967295
0.014006226 -0.11886757 0.71100003 4294967295
0.015354164 -0.11886764 0.71100003 4294967295
0.016678615 -0.11870055 0.70999998 4294967295
0.018024666 -0.11870067 0.70999998 4294967295
0.019370729 -0.11870079 0.70999998 4294967295
0.020716792 -0.11870094 0.70999998 4294967295
0.021969646 -0.11819956 0.70700002 4294967295
0.023277072 -0.11803254 0.70599997 4294967295
0.02461558 -0.11803276 0.70599997 4294967295
0.025954105 -0.11803299 0.70599997 4294967295
0.0273313 -0.11820044 0.70700002 4294967295
0.028631188 -0.11803351 0.70599997 4294967295
0.029969741 -0.11803377 0.70599997 4294967295
0.031308316 -0.11803407 0.70599997 4294967295
0.032646906 -0.1180344 0.70599997 4294967295
0.03398551 -0.11803473 0.70599997 4294967295
0.035324134 -0.11803509 0.70599997 4294967295
0.036558919 -0.11770111 0.704 4294967295
0.037839953 -0.1175343 0.70300001 4294967295
0.039172944 -0.1175347 0.70300001 4294967295
0.040390711 -0.11720074 0.70099998 4294967295
0.041719951 -0.11720121 0.70099998 4294967295
0.042987797 -0.11703447 0.69999999 4294967295
0.044315178 -0.11703495 0.69999999 4294967295
0.0458382 -0.11753702 0.70300001 4294967295
0.047171317 -0.11753753 0.70300001 4294967295
0.048504461 -0.11753807 0.70300001 4294967295
0.04983763 -0.11753862 0.70300001 4294967295
0.051170822 -0.11753919 0.70300001 4294967295
0.052504037 -0.11753978 0.70300001 4294967295
0.053913869 -0.11770756 0.704 4294967295
0.055249043 -0.1177082 0.704 4294967295
0.056744989 -0.11804321 0.70599997 4294967295
0.058084019 -0.11804387 0.70599997 4294967295
0.059423059 -0.11804452 0.70599997 4294967295
0.060590018 -0.11771081 0.704 4294967295
0.061925344 -0.11771151 0.704 4294967295
0.063799843 -0.11871546 0.70999998 4294967295
0.065146618 -0.11871619 0.70999998 4294967295
0.066774368 -0.11921857 0.713 4294967295
0.068126887 -0.11921932 0.713 4294967295
0.069479443 -0.11922009 0.713 4294967295
0.070931382 -0.1193881 0.71399999 4294967295
0.07228592 -0.11938892 0.71399999 4294967295
0.073640488 -0.11938976 0.71399999 4294967295
0.074995078 -0.11939058 0.71399999 4294967295
0.07634972 -0.11939143 0.71399999 4294967295
0.077922054 -0.11972675 0.71600002 4294967295
0.079280563 -0.11972763 0.71600002 4294967295
0.080639116 -0.11972852 0.71600002 4294967295
0.082112223 -0.11989665 0.71700001 4294967295
0.083822004 -0.12039923 0.72000003 4294967295
0.0854249 -0.12073462 0.722 4294967295
0.08691521 -0.12090278 0.72299999 4294967295
0.088287249 -0.12090375 0.72299999 4294967295
-0.013444317 -0.12198438 0.73799998 4278190080
-0.01204513 -0.12198407 0.73799998 4292138194
-0.010617104 -0.1216532 0.736 4294375156
-0.0092217317 -0.12165288 0.736 4294967295
-0.0077944701 -0.12115676 0.73299998 4294967295
-0.0063873315 -0.12082593 0.73100001 4294967295
-0.004994628 -0.12066044 0.73000002 4294967295
-0.0036007774 -0.12032964 0.72799999 4294967295
-0.0022114674 -0.11983358 0.72500002 4294967295
-0.00083469303 -0.11950285 0.72299999 4294967295
0.00053523388 -0.11933742 0.722 4294967295
0.0018987273 -0.11900672 0.72000003 4294967295
0.0032591673 -0.11884132 0.71899998 4294967295
0.0046093836 -0.11851066 0.71700001 4294967295
0.0059686648 -0.1185106 0.71700001 4294967295
0.007327945 -0.11851056 0.71700001 4294967295
0.0086751087 -0.11834525 0.71600002 4294967295
0.010032492 -0.11834523 0.71600002 4294967295
0.011342154 -0.11784939 0.713 4294967295
0.012658251 -0.11751886 0.71100003 4294967295
0.014006164 -0.1175189 0.71100003 4294967295
0.015354082 -0.11751899 0.71100003 4294967295
0.016678512 -0.11735377 0.70999998 4294967295
0.018024545 -0.11735389 0.70999998 4294967295
0.019370584 -0.11735401 0.70999998 4294967295
0.020716632 -0.11735417 0.70999998 4294967295
0.021969471 -0.11685849 0.70700002 4294967295
0.023276871 -0.11669336 0.70599997 4294967295
0.024615362 -0.11669358 0.70599997 4294967295
0.02595387 -0.11669382 0.70599997 4294967295
0.027292384 -0.11669404 0.70599997 4294967295
0.028549807 -0.11636374 0.704 4294967295
0.029884553 -0.11636401 0.704 4294967295
0.03121932 -0.11636431 0.704 4294967295
0.032554094 -0.11636463 0.704 4294967295
0.033985168 -0.11669553 0.70599997 4294967295
0.035223704 -0.11636531 0.704 4294967295
0.036558531 -0.11636568 0.704 4294967295
0.037839554 -0.11620077 0.70300001 4294967295
0.039172526 -0.11620119 0.70300001 4294967295
0.040390275 -0.11587102 0.70099998 4294967295
0.041659988 -0.11570618 0.69999999 4294967295
0.042987328 -0.11570663 0.69999999 4294967295
0.044314697 -0.11570711 0.69999999 4294967295
0.045642085 -0.1157076 0.69999999 4294967295
0.047170796 -0.116204 0.70300001 4294967295
0.04850392 -0.11620452 0.70300001 4294967295
0.049695291 -0.11587449 0.70099998 4294967295
0.051024668 -0.11587504 0.70099998 4294967295
0.052503452 -0.11620621 0.70300001 4294967295
0.053836681 -0.1162068 0.70300001 4294967295
0.055248417 -0.11637272 0.704 4294967295
0.056583606 -0.11637335 0.704 4294967295
0.057918821 -0.116374 0.704 4294967295
0.059169885 -0.11620933 0.70300001 4294967295
0.060503263 -0.11621001 0.70300001 4294967295
0.061924636 -0.11637601 0.704 4294967295
0.063619405 -0.11703794 0.708 4294967295
0.064962357 -0.11703867 0.708 4294967295
0.066586308 -0.11753535 0.71100003 4294967295
0.06793502 -0.1175361 0.71100003 4294967295
0.069283776 -0.11753687 0.71100003 4294967295
0.070632569 -0.11753767 0.71100003 4294967295
0.07218387 -0.11786909 0.713 4294967295
0.073536515 -0.11786991 0.713 4294967295
0.074889213 -0.11787076 0.713 4294967295
0.076241918 -0.1178716 0.713 4294967295
0.077703513 -0.11803775 0.71399999 4294967295
0.07905823 -0.11803865 0.71399999 4294967295
0.080412962 -0.11803953 0.71399999 4294967295
0.081767753 -0.11804044 0.71399999 4294967295
0.083122559 -0.11804134 0.71399999 4294967295
0.085423954 -0.11936487 0.722 4294967295
0.086914249 -0.11953112 0.72299999 4294967295
0.088286266 -0.11953209 0.72299999 4294967295
0.094682723 -0.12069339 0.73000002 4294967295
0.096068233 -0.1206944 0.73000002 4294967295
-0.013443979 -0.12058453 0.73799998 4286673588
-0.01204481 -0.1205842 0.73799998 4294967295
-0.010616806 -0.12025713 0.736 4294967295
-0.0092214542 -0.12025681 0.736 4294967295
-0.0077942144 -0.11976638 0.73299998 4294967295
-0.0063870959 -0.11943935 0.73100001 4294967295
-0.0049944124 -0.11927574 0.73000002 4294967295
-0.0036005827 -0.11894875 0.72799999 4294967295
-0.0022051933 -0.11813162 0.72299999 4294967295
-0.00083338504 -0.11796806 0.722 4294967295
0.00053388457 -0.11764114 0.72000003 4294967295
0.0018962037 -0.11747763 0.71899998 4294967295
0.0032501947 -0.11715075 0.71700001 4294967295
0.0046094577 -0.11715067 0.71700001 4294967295
0.0059687193 -0.1171506 0.71700001 4294967295
0.0073177586 -0.11698715 0.71600002 4294967295
0.0086508896 -0.11666035 0.71399999 4294967295
0.010004464 -0.11666036 0.71399999 4294967295
0.011310317 -0.11617021 0.71100003 4294967295
0.012658208 -0.11617023 0.71100003 4294967295
0.013986399 -0.11600688 0.70999998 4294967295
0.015332403 -0.11600696 0.70999998 4294967295
0.01667841 -0.11600705 0.70999998 4294967295
0.018024424 -0.11600717 0.70999998 4294967295
0.019370448 -0.11600731 0.70999998 4294967295
0.020658119 -0.11568068 0.708 4294967295
0.021938218 -0.11535405 0.70599997 4294967295
0.023276677 -0.11535423 0.70599997 4294967295
0.024545418 -0.11502764 0.704 4294967295
0.025880115 -0.11502789 0.704 4294967295
0.02717616 -0.11486473 0.70300001 4294967295
0.028427878 -0.11453821 0.70099998 4294967295
0.029756919 -0.11453848 0.70099998 4294967295
0.031085975 -0.11453877 0.70099998 4294967295
0.032507528 -0.11486586 0.70300001 4294967295
0.033888552 -0.1150296 0.704 4294967295
0.035223342 -0.11502995 0.704 4294967295
0.036558159 -0.11503033 0.704 4294967295
0.037892986 -0.1150307 0.704 4294967295
0.039172113 -0.11486772 0.70300001 4294967295
0.040332235 -0.11437793 0.69999999 4294967295
0.041659538 -0.11437837 0.69999999 4294967295
0.042986859 -0.11437882 0.69999999 4294967295
0.044314217 -0.11437931 0.69999999 4294967295
0.045641586 -0.11437979 0.69999999 4294967295
0.047036078 -0.11454368 0.70099998 4294967295
0.048503391 -0.11487103 0.70300001 4294967295
0.049694736 -0.11454475 0.70099998 4294967295
0.051024105 -0.1145453 0.70099998 4294967295
0.052502871 -0.1148727 0.70300001 4294967295
0.053836085 -0.11487327 0.70300001 4294967295
0.055169329 -0.11487387 0.70300001 4294967295
0.056502599 -0.1148745 0.70300001 4294967295
0.057671353 -0.11454833 0.70099998 4294967295
0.059000894 -0.11454898 0.70099998 4294967295
0.060330462 -0.11454963 0.70099998 4294967295
0.061660059 -0.11455033 0.70099998 4294967295
0.063618697 -0.11569491 0.708 4294967295
0.064961635 -0.11569562 0.708 4294967295
0.066491917 -0.11602318 0.70999998 4294967295
0.067838714 -0.11602393 0.70999998 4294967295
0.069282994 -0.1161881 0.71100003 4294967295
0.070631772 -0.11618888 0.71100003 4294967295
0.071980588 -0.11618969 0.71100003 4294967295
0.073329426 -0.11619049 0.71100003 4294967295
0.074678309 -0.11619131 0.71100003 4294967295
0.076027229 -0.11619216 0.71100003 4294967295
0.077593841 -0.11651985 0.713 4294967295
0.078946628 -0.1165207 0.713 4294967295
0.080299452 -0.11652157 0.713 4294967295
0.081766844 -0.11668591 0.71399999 4294967295
0.083121642 -0.11668678 0.71399999 4294967295
0.08554133 -0.11815856 0.72299999 4294967295
0.086913303 -0.1181595 0.72299999 4294967295
0.088529535 -0.11848732 0.72500002 4294967295
0.089905389 -0.11848828 0.72500002 4294967295
0.093296237 -0.11930743 0.73000002 4294967295
0.09468171 -0.11930843 0.73000002 4294967295
0.096067235 -0.11930946 0.73000002 4294967295
-0.013443646 -0.11918472 0.73799998 4291742927
-0.012011856 -0.11886141 0.736 4294967295
-0.010616511 -0.11886109 0.736 4294967295
-0.0092211803 -0.11886081 0.736 4294967295
-0.0077726939 -0.11805307 0.73100001 4294967295
-0.0063781263 -0.11789136 0.73000002 4294967295
-0.0049599921 -0.11708365 0.72500002 4294967295
-0.0035756619 -0.11676046 0.72299999 4294967295
-0.0022050212 -0.11676028 0.72299999 4294967295
-0.00083092507 -0.11627563 0.72000003 4294967295
0.00053327461 -0.11611399 0.71899998 4294967295
0.0018910409 -0.11579089 0.71700001 4294967295
0.0032457539 -0.11562929 0.71600002 4294967295
0.0046031019 -0.11562922 0.71600002 4294967295
0.0059604477 -0.11562915 0.71600002 4294967295
0.0073177922 -0.11562911 0.71600002 4294967295
0.0086509036 -0.11530609 0.71399999 4294967295
0.0099904472 -0.1151446 0.713 4294967295
0.011310291 -0.11482163 0.71100003 4294967295
0.012640359 -0.11466016 0.70999998 4294967295
0.013946941 -0.11433725 0.708 4294967295
0.015289132 -0.1143373 0.708 4294967295
0.016678309 -0.11466037 0.70999998 4294967295
0.018024305 -0.1146605 0.70999998 4294967295
0.019315744 -0.11433764 0.708 4294967295
0.020599604 -0.11401479 0.70599997 4294967295
0.021875892 -0.11369196 0.704 4294967295
0.023177575 -0.11353065 0.70300001 4294967295
0.024510344 -0.11353086 0.70300001 4294967295
0.025769597 -0.11320809 0.70099998 4294967295
0.027098596 -0.11320832 0.70099998 4294967295
0.028387059 -0.11304709 0.69999999 4294967295
0.029714188 -0.11304735 0.69999999 4294967295
0.031085674 -0.11320914 0.70099998 4294967295
0.032414727 -0.11320946 0.70099998 4294967295
0.033743802 -0.11320978 0.70099998 4294967295
0.035172954 -0.11353312 0.70300001 4294967295
0.036350064 -0.11304899 0.69999999 4294967295
0.037677296 -0.11304939 0.69999999 4294967295
0.039004542 -0.11304978 0.69999999 4294967295
