# .PCD v0.7 - Point Cloud Data file format
VERSION 0.7
FIELDS x y z rgba
SIZE 4 4 4 4
TYPE F F F U
COUNT 1 1 1 1
WIDTH 1048
HEIGHT 1
VIEWPOINT 0 0 0 1 0 0 0
POINTS 1048
DATA ascii
-0.17847565 -0.10187723 0.54100001 4291018686
-0.17711808 -0.10168889 0.54000002 4291347395
-0.1760904 -0.10168882 0.54000002 4291346884
-0.1750627 -0.10168872 0.54000002 4291675848
-0.17403492 -0.10168858 0.54000002 4291215558
-0.17268676 -0.10150009 0.53899997 4291412938
-0.17134237 -0.10131159 0.53799999 4291544258
-0.17031835 -0.10131136 0.53799999 4291741893
-0.16929431 -0.10131109 0.53799999 4291742145
-0.16764471 -0.10093419 0.53600001 4291610303
-0.16631357 -0.10074556 0.53500003 4291478983
-0.16498624 -0.1005569 0.53399998 4291545032
-0.16396974 -0.10055652 0.53399998 4291084477
-0.16295318 -0.10055611 0.53399998 4291545028
-0.16193669 -0.1005557 0.53399998 4291281092
-0.16092014 -0.10055525 0.53399998 4291675594
-0.15990357 -0.10055476 0.53399998 4291742407
-0.15888703 -0.10055427 0.53399998 4291676613
-0.15816613 -0.10074204 0.53500003 4291085254
-0.15714766 -0.10074148 0.53500003 4291151047
-0.1561292 -0.10074091 0.53500003 4291347647
-0.15482077 -0.10055201 0.53399998 4291413440
-0.15380421 -0.10055137 0.53399998 4291215810
-0.15278766 -0.10055074 0.53399998 4291545032
-0.15177108 -0.10055008 0.53399998 4291151553
-0.15075453 -0.10054939 0.53399998 4291217346
-0.14973797 -0.10054868 0.53399998 4290888129
-0.14872143 -0.10054796 0.53399998 4291217094
-0.14770487 -0.1005472 0.53399998 4291479235
-0.14668834 -0.10054643 0.53399998 4291413442
-0.1456718 -0.10054565 0.53399998 4291413957
-0.14465529 -0.10054484 0.53399998 4291874508
-0.14363874 -0.10054401 0.53399998 4291479748
-0.14262228 -0.10054319 0.53399998 4291479748
-0.14160578 -0.10054233 0.53399998 4291149754
-0.14058933 -0.10054145 0.53399998 4291676098
-0.13957284 -0.10054057 0.53399998 4292004546
-0.13855644 -0.10053967 0.53399998 4291872959
-0.13754001 -0.10053875 0.53399998 4291214784
-0.1365236 -0.10053781 0.53399998 4291675335
-0.13601477 -0.10091342 0.53600001 4291544510
-0.13524647 -0.10110072 0.537 4291742145
-0.13422441 -0.10109976 0.537 4291282624
-0.13320239 -0.10109877 0.537 4291216831
-0.13242653 -0.10128602 0.53799999 4291478465
-0.13140264 -0.101285 0.53799999 4292136651
-0.13037878 -0.10128397 0.53799999 4292005061
-0.12935495 -0.10128292 0.53799999 4292136647
-0.12833117 -0.10128187 0.53799999 4291282889
-0.12730739 -0.10128082 0.53799999 4291282889
-0.12628365 -0.10127975 0.53799999 4291676361
-0.12525991 -0.10127867 0.53799999 4291807948
-0.12423622 -0.10127757 0.53799999 4291741891
-0.12321255 -0.10127649 0.53799999 4292005063
-0.12218891 -0.10127538 0.53799999 4292070341
-0.12139052 -0.10146251 0.53899997 4292136134
-0.12036505 -0.10146138 0.53899997 4291807938
-0.11956103 -0.1016485 0.54000002 4292465612
-0.11853371 -0.10164737 0.54000002 4292203980
-0.11750644 -0.10164624 0.54000002 4292203980
-0.11647919 -0.10164507 0.54000002 4291940049
-0.11566577 -0.10183215 0.54100001 4292334807
-0.11484857 -0.10201921 0.542 4292400339
-0.1140276 -0.10220625 0.54299998 4292597461
-0.11361908 -0.10276975 0.546 4292071890
-0.1125806 -0.10276857 0.546 4292334805
-0.11154215 -0.10276739 0.546 4292137681
-0.11050373 -0.10276618 0.546 4292335059
-0.10946537 -0.10276499 0.546 4292334031
-0.10842701 -0.10276379 0.546 4292728788
-0.1075854 -0.1029508 0.54699999 4292728786
-0.10654524 -0.1029496 0.54699999 4292794580
-0.10550511 -0.10294839 0.54699999 4292728788
-0.10446502 -0.10294719 0.54699999 4292794582
-0.10361405 -0.10313419 0.54799998 4292400598
-0.10257214 -0.10313296 0.54799998 4292466647
-0.10171556 -0.10331997 0.54900002 4292532690
-0.10067183 -0.10331875 0.54900002 4292861655
-0.099628136 -0.10331756 0.54900002 4292466645
-0.09876404 -0.10350452 0.55000001 4292598232
-0.097896181 -0.10369147 0.551 4292730333
-0.097024567 -0.10387845 0.55199999 4293125091
-0.096149214 -0.10406543 0.55299997 4292729302
-0.095442049 -0.10444058 0.55500001 4292860888
-0.094387203 -0.10443937 0.55500001 4292991191
-0.09350054 -0.10462633 0.55599999 4293188569
-0.092443869 -0.10462512 0.55599999 4292991708
-0.091551602 -0.10481209 0.55699998 4293452259
-0.090493105 -0.10481089 0.55699998 4293321441
-0.089595221 -0.10499785 0.55800003 4293518563
-0.088693574 -0.10518482 0.55900002 4293387236
-0.088101707 -0.10574812 0.56199998 4293518565
-0.087033875 -0.10574691 0.56199998 4293321441
-0.086272016 -0.10612206 0.56400001 4293584356
-0.085351542 -0.10630902 0.565 4293387232
-0.084427297 -0.10649598 0.56599998 4293321439
-0.083499283 -0.10668296 0.56699997 4293255648
-0.082422167 -0.10668176 0.56699997 4293321441
-0.081918947 -0.10743319 0.57099998 4293387232
-0.08125902 -0.10799647 0.574 4293387232
-0.080168724 -0.10799529 0.574 4292992987
-0.079078473 -0.10799413 0.574 4293387745
-0.078124128 -0.10818113 0.57499999 4293256159
-0.31898627 -0.11300422 0.60799998 4286676389
-0.31785131 -0.11301219 0.60799998 4286020982
-0.3188445 -0.11546748 0.62099999 4279313163
-0.31979287 -0.11980879 0.64399999 4288322899
-0.31885329 -0.12038004 0.64700001 4292199401
-0.31469235 -0.11927001 0.64099997 4294967295
-0.31348795 -0.11927622 0.64099997 4294967295
-0.32010961 -0.12470911 0.67000002 4284763392
-0.32042512 -0.13110223 0.704 4294834680
-0.32000211 -0.13147938 0.70599997 4294967295
-0.31866851 -0.13148396 0.70599997 4294967295
-0.31733462 -0.13148846 0.70599997 4294967295
-0.20604849 -0.10438478 0.56 4292202694
-0.20425177 -0.10401276 0.55800003 4292334281
-0.20319089 -0.10401349 0.55800003 4291543997
-0.20176765 -0.10382775 0.55699998 4291609790
-0.19998784 -0.10345557 0.55500001 4291610053
-0.19857398 -0.10326976 0.55400002 4291610053
-0.19680732 -0.10289747 0.55199999 4291742155
-0.1950482 -0.10252515 0.55000001 4291939534
-0.19329663 -0.10215277 0.54799998 4291346632
-0.19225428 -0.10215318 0.54799998 4291215045
-0.19086295 -0.10196715 0.54699999 4291215560
-0.1894753 -0.10178104 0.546 4291741905
-0.18843661 -0.10178134 0.546 4291611589
-0.18739782 -0.10178158 0.546 4291611589
-0.18601763 -0.10159536 0.54500002 4291611591
-0.1846413 -0.10140912 0.54400003 4291743177
-0.18326867 -0.10122283 0.54299998 4290887879
-0.18189982 -0.10103651 0.542 4291216844
-0.18053472 -0.10085016 0.54100001 4291479748
-0.1795052 -0.10085018 0.54100001 4291545541
-0.1784756 -0.10085016 0.54100001 4291281092
-0.17711805 -0.1006637 0.54000002 4291609801
-0.17609033 -0.10066364 0.54000002 4291610053
-0.17506257 -0.10066352 0.54000002 4291939018
-0.17403479 -0.10066338 0.54000002 4291478987
-0.17268656 -0.10047676 0.53899997 4291676109
-0.17134216 -0.10029016 0.53799999 4291676100
-0.17031813 -0.10028992 0.53799999 4291939016
-0.16929404 -0.10028964 0.53799999 4291675583
-0.16764443 -0.099916533 0.53600001 4291543997
-0.1666241 -0.099916205 0.53600001 4291675335
-0.1656038 -0.099915855 0.53600001 4292004044
-0.16489051 -0.10010189 0.537 4291675583
-0.16325794 -0.099728659 0.53500003 4292070341
-0.16223949 -0.099728219 0.53500003 4292136136
-0.16122104 -0.099727765 0.53500003 4292793809
-0.16020258 -0.099727288 0.53500003 4292005061
-0.15948161 -0.09991318 0.53600001 4291807938
-0.15846121 -0.099912629 0.53600001 4291216077
-0.15714708 -0.099725671 0.53500003 4291150284
-0.15612862 -0.099725105 0.53500003 4291282108
-0.15511009 -0.099724486 0.53500003 4291347901
-0.1538036 -0.099537462 0.53399998 4291346884
-0.15278697 -0.099536806 0.53399998 4291807435
-0.15177041 -0.099536143 0.53399998 4291610051
-0.15075381 -0.099535443 0.53399998 4291544258
-0.14973722 -0.099534728 0.53399998 4291544260
-0.14872068 -0.099534005 0.53399998 4291741639
-0.14770411 -0.099533252 0.53399998 4291544258
-0.14668755 -0.099532492 0.53399998 4291478465
-0.14567101 -0.099531703 0.53399998 4291479237
-0.14465447 -0.099530913 0.53399998 4292136910
-0.14363793 -0.099530071 0.53399998 4291480000
-0.14262146 -0.099529244 0.53399998 4291414207
-0.14160493 -0.09952838 0.53399998 4291084731
-0.14058845 -0.099527515 0.53399998 4291479489
-0.13957199 -0.099526621 0.53399998 4291742145
-0.13855551 -0.099525712 0.53399998 4291939268
-0.13753909 -0.099524803 0.53399998 4291676096
-0.13652271 -0.09952388 0.53399998 4292070854
-0.13601384 -0.099895686 0.53600001 4291479739
-0.13524549 -0.10008109 0.537 4291676861
-0.13422343 -0.1000801 0.537 4291611840
-0.13320139 -0.10007911 0.537 4291611840
-0.13242553 -0.10026449 0.53799999 4291478213
-0.13140163 -0.10026346 0.53799999 4292004557
-0.13037775 -0.10026244 0.53799999 4292005061
-0.12935393 -0.10026141 0.53799999 4292070854
-0.1283301 -0.10026035 0.53799999 4291676109
-0.12730633 -0.1002593 0.53799999 4291544780
-0.12628256 -0.10025823 0.53799999 4291938764
-0.12525883 -0.10025717 0.53799999 4292465108
-0.12423513 -0.10025609 0.53799999 4292070343
-0.12321145 -0.10025498 0.53799999 4292267465
-0.12218781 -0.10025388 0.53799999 4292136136
-0.1213894 -0.10043912 0.53899997 4292465101
-0.12036392 -0.10043799 0.53899997 4292399305
-0.11955991 -0.10062322 0.54000002 4292794063
-0.11853258 -0.10062209 0.54000002 4292597198
-0.11750527 -0.10062093 0.54000002 4292729040
-0.11647803 -0.10061979 0.54000002 4292466384
-0.11566462 -0.10080497 0.54100001 4292466384
-0.1148474 -0.10099015 0.542 4292597202
-0.11402643 -0.10117529 0.54299998 4292794582
-0.1136179 -0.10173311 0.546 4292531155
-0.11257941 -0.10173193 0.546 4292794584
-0.11154096 -0.10173073 0.546 4292597202
-0.11050253 -0.10172954 0.546 4292662995
-0.10946416 -0.10172836 0.546 4292596435
-0.10842583 -0.10172717 0.546 4292925400
-0.10738753 -0.10172597 0.546 4292729040
-0.10654404 -0.10191109 0.54699999 4292729040
-0.10550391 -0.10190989 0.54699999 4292859602
-0.10446382 -0.1019087 0.54699999 4293386203
-0.10361284 -0.10209377 0.54799998 4292794330
-0.1027581 -0.10227887 0.54900002 4292794330
-0.10171434 -0.10227768 0.54900002 4293057749
-0.10067061 -0.10227647 0.54900002 4293452507
-0.09980838 -0.10246155 0.55000001 4293189337
-0.098942392 -0.10264663 0.551 4293123544
-0.098072648 -0.10283171 0.55199999 4293123292
-0.097374901 -0.10320309 0.55400002 4293583843
-0.096495748 -0.10338817 0.55500001 4293386716
-0.095440835 -0.10338696 0.55500001 4293255131
-0.094385996 -0.10338575 0.55500001 4293189085
-0.093499333 -0.10357082 0.55599999 4293649636
-0.092608921 -0.10375588 0.55699998 4293386464
-0.091550402 -0.10375469 0.55699998 4293452257
-0.090654381 -0.10393977 0.55800003 4293452257
-0.089754596 -0.10412484 0.55900002 4293978601
-0.08948569 -0.10505499 0.56400001 4293387234
-0.088570781 -0.10524004 0.565 4293321441
-0.087497264 -0.10523885 0.565 4293452257
-0.086423784 -0.10523766 0.565 4293912808
-0.085501403 -0.10542274 0.56599998 4293387486
-0.084575281 -0.1056078 0.56699997 4293255644
-0.083350852 -0.10542037 0.56599998 4293255648
-0.082275636 -0.10541921 0.56599998 4293321441
-0.081917778 -0.10634929 0.57099998 4293518563
-0.081257835 -0.10690687 0.574 4293650150
-0.080167554 -0.10690571 0.574 4292992992
-0.079077318 -0.10690456 0.574 4293519336
-0.077987105 -0.1069034 0.574 4293387745
-0.077432811 -0.10764723 0.57800001 4293387745
-0.076335095 -0.10764609 0.57800001 4293387234
-0.31794497 -0.11148703 0.60600001 4287003276
-0.31785917 -0.11186285 0.60799998 4287528027
-0.31731156 -0.1137409 0.61799997 4278202989
-0.31615511 -0.11374819 0.61799997 4279969041
-0.31518954 -0.11824086 0.64200002 4294960367
-0.31398317 -0.11824702 0.64200002 4294568440
-0.31569961 -0.11935823 0.648 4294897405
-0.3169077 -0.12028521 0.653 4294569983
-0.31616303 -0.12047536 0.65399998 4291082703
-0.31915972 -0.12307182 0.66799998 4280033286
-0.31695011 -0.12270894 0.66600001 4281612574
-0.3156957 -0.12271445 0.66600001 4287588153
-0.31910017 -0.12977275 0.704 4294967295
-0.3177703 -0.12977728 0.704 4294901247
-0.31733897 -0.13015038 0.70599997 4294967295
-0.31689996 -0.13052341 0.708 4294967295
-0.31556159 -0.13052766 0.708 4294967295
-0.20425251 -0.10295369 0.55800003 4291675335
-0.20319158 -0.1029544 0.55800003 4291017141
-0.20140608 -0.10258605 0.55599999 4291345850
-0.19998842 -0.10240214 0.55500001 4291214784
-0.19893299 -0.10240273 0.55500001 4291675335
-0.19716437 -0.10203423 0.55299997 4291741903
-0.19540329 -0.10166567 0.551 4291544780
-0.19329704 -0.10111257 0.54799998 4291411906
-0.19225465 -0.10111297 0.54799998 4291477700
-0.19086327 -0.10092881 0.54699999 4291215045
-0.18947563 -0.1007446 0.546 4291807183
-0.18843685 -0.10074487 0.546 4291282887
-0.18739806 -0.1007451 0.546 4291348680
-0.18601784 -0.10056076 0.54500002 4291020485
-0.18498082 -0.10056092 0.54500002 4291152071
-0.18360628 -0.10037652 0.54400003 4290691268
-0.18223546 -0.10019208 0.54299998 4291151819
-0.18053474 -0.09982311 0.54100001 4291545030
-0.1795052 -0.099823125 0.54100001 4291742153
-0.17847557 -0.099823095 0.54100001 4291346884
-0.17744596 -0.099823035 0.54100001 4291478213
-0.17609021 -0.099638432 0.54000002 4291347138
-0.17506242 -0.099638313 0.54000002 4291675846
-0.1740346 -0.099638149 0.54000002 4291281604
-0.17268638 -0.099453449 0.53899997 4291281604
-0.17134193 -0.09926872 0.53799999 4291347136
-0.17031787 -0.099268481 0.53799999 4291544258
-0.16929375 -0.099268191 0.53799999 4291477950
-0.16795687 -0.099083386 0.537 4291609792
-0.16693462 -0.099083059 0.537 4291936706
-0.16591237 -0.099082693 0.537 4292397257
-0.16489014 -0.099082306 0.537 4291937217
-0.16325754 -0.098712884 0.53500003 4291937217
-0.16223906 -0.098712437 0.53500003 4291674565
-0.1615219 -0.098896481 0.53600001 4291674565
-0.16050148 -0.098895982 0.53600001 4291215808
-0.15948109 -0.098895483 0.53600001 4291347395
-0.15846069 -0.098894946 0.53600001 4290690498
-0.15714653 -0.098709859 0.53500003 4290953926
-0.15612803 -0.098709285 0.53500003 4291151038
-0.15510949 -0.098708674 0.53500003 4291151038
-0.15380295 -0.098523542 0.53399998 4291149500
-0.15278634 -0.098522879 0.53399998 4291347136
-0.15176973 -0.098522209 0.53399998 4290951092
-0.15075313 -0.098521523 0.53399998 4291609022
-0.14973652 -0.098520808 0.53399998 4291608770
-0.14871992 -0.098520078 0.53399998 4291872198
-0.14770336 -0.098519325 0.53399998 4291543745
-0.14668676 -0.098518565 0.53399998 4291543745
-0.14567021 -0.098517783 0.53399998 4291544006
-0.14465366 -0.098516971 0.53399998 4291675848
-0.14363708 -0.098516136 0.53399998 4291479748
-0.14262058 -0.098515309 0.53399998 4291282626
-0.14160404 -0.098514438 0.53399998 4291084990
-0.14085086 -0.098698072 0.53500003 4291282626
-0.13957109 -0.098512694 0.53399998 4291413440
-0.13855463 -0.098511808 0.53399998 4291676611
-0.13779576 -0.098695368 0.53500003 4291217344
-0.13677742 -0.098694429 0.53500003 4291348930
-0.13626663 -0.099062428 0.537 4291085242
-0.13524453 -0.099061459 0.537 4291611586
-0.13422245 -0.099060483 0.537 4291808452
-0.13344844 -0.099243969 0.53799999 4291545280
-0.13242452 -0.09924297 0.53799999 4291478467
-0.1314006 -0.099241942 0.53799999 4291939018
-0.13061906 -0.099425398 0.53899997 4291742145
-0.12935288 -0.099239901 0.53799999 4292070854
-0.12832905 -0.099238843 0.53799999 4291676361
-0.12730527 -0.099237807 0.53799999 4291676361
-0.12651619 -0.099421188 0.53899997 4292004298
-0.12549058 -0.099420123 0.53899997 4292004298
-0.12423404 -0.099234588 0.53799999 4291872707
-0.12321035 -0.099233486 0.53799999 4292267465
-0.12241381 -0.099416845 0.53899997 4292202442
-0.12138831 -0.099415742 0.53899997 4292202442
-0.12058613 -0.099599071 0.54000002 4292398538
-0.11955876 -0.099597938 0.54000002 4292661710
-0.11853144 -0.099596821 0.54000002 4292530121
-0.11750415 -0.099595681 0.54000002 4292530121
-0.11669259 -0.099778973 0.54100001 4292465360
-0.11587724 -0.099962249 0.542 4292465360
-0.11505814 -0.10014553 0.54299998 4292334031
-0.11402526 -0.10014436 0.54299998 4292465360
-0.11361672 -0.10069647 0.546 4292267465
-0.11257824 -0.10069531 0.546 4292530894
-0.11153977 -0.10069413 0.546 4292727503
-0.11050137 -0.10069295 0.546 4292990674
-0.10946298 -0.10069176 0.546 4292859091
-0.10842463 -0.10069057 0.546 4292859091
-0.10738634 -0.10068939 0.546 4292728270
-0.10654286 -0.10087261 0.54699999 4292859856
-0.10550272 -0.10087141 0.54699999 4292859604
-0.10446263 -0.10087021 0.54699999 4293057240
-0.10361165 -0.10105342 0.54799998 4292596950
-0.10275692 -0.10123664 0.54900002 4292991708
-0.1018984 -0.10141983 0.55000001 4293057751
-0.10085276 -0.10141861 0.55000001 4293057751
-0.099988654 -0.10160182 0.551 4293319640
-0.099120751 -0.101785 0.55199999 4293385689
-0.098249108 -0.10196818 0.55299997 4293056216
-0.097373702 -0.10215136 0.55400002 4293648353
-0.096494533 -0.10233457 0.55500001 4293452509
-0.095439635 -0.10233336 0.55500001 4293386716
-0.094384789 -0.10233215 0.55500001 4293057499
-0.0936663 -0.10269972 0.55699998 4293386464
-0.092607722 -0.10269853 0.55699998 4293386462
-0.091713578 -0.10288171 0.55800003 4293386462
-0.090653181 -0.10288051 0.55800003 4293386464
-0.089913964 -0.10324807 0.56 4293583843
-0.089484498 -0.10398435 0.56400001 4293387232
-0.088569596 -0.10416752 0.565 4293321439
-0.087496072 -0.10416633 0.565 4293189085
-0.086422592 -0.10416513 0.565 4293583843
-0.085500218 -0.10434833 0.56599998 4293124059
-0.084574088 -0.1045315 0.56699997 4293189853
-0.083349675 -0.10434598 0.56599998 4293387745
-0.082274474 -0.10434482 0.56599998 4293519588
-0.082060084 -0.10544978 0.57200003 4293716199
-0.081256688 -0.10581733 0.574 4293650150
-0.080166407 -0.10581616 0.574 4293189599
-0.079213932 -0.10599937 0.57499999 4293716199
-0.078665279 -0.10673559 0.579 4293519588
-0.077431671 -0.10655013 0.57800001 4293453538
-0.07633397 -0.10654899 0.57800001 4293124576
-0.3163788 -0.1097952 0.60299999 4278192384
-0.31629196 -0.11220776 0.616 4282860924
-0.31513909 -0.11221492 0.616 4280303412
-0.31551498 -0.1127685 0.61900002 4281553736
-0.3172437 -0.1142399 0.62699997 4278649638
-0.31639963 -0.1148001 0.63 4288518745
-0.31521809 -0.11480673 0.63 4291610303
-0.31715953 -0.11775467 0.64600003 4289699716
-0.31643462 -0.11794307 0.64700001 4289897663
-0.31570557 -0.11813138 0.648 4290095043
-0.31642833 -0.11886651 0.65200001 4287400094
-0.31616881 -0.11923698 0.65399998 4283452770
-0.31695563 -0.12144756 0.66600001 4278519334
-0.3157011 -0.12145296 0.66600001 4280090624
-0.3185645 -0.12715234 0.69700003 4294967295
-0.31777465 -0.12844299 0.704 4294967295
-0.31734332 -0.12881222 0.70599997 4294967295
-0.31645662 -0.12899898 0.70700002 4294967295
-0.31556574 -0.12918562 0.708 4293914353
-0.31511468 -0.12955463 0.70999998 4293717480
-0.3137719 -0.12955864 0.70999998 4293125343
-0.20425326 -0.10189462 0.55800003 4291676628
-0.20282809 -0.10171268 0.55699998 4291478213
-0.20140667 -0.10153071 0.55599999 4291938764
-0.19998902 -0.1013487 0.55500001 4291346632
-0.19893351 -0.10134925 0.55500001 4291544010
-0.1975214 -0.10116714 0.55400002 4291741391
-0.19540374 -0.10061976 0.551 4291609549
-0.19365022 -0.10025496 0.54900002 4291346113
-0.19225499 -0.1000727 0.54799998 4291609542
-0.19086359 -0.099890433 0.54699999 4291543493
-0.18947589 -0.099708118 0.546 4292135886
-0.18843709 -0.099708378 0.546 4291545543
-0.18739824 -0.099708587 0.546 4291677130
-0.18635933 -0.099708773 0.546 4291478985
-0.18498097 -0.099526286 0.54500002 4291807950
-0.18394388 -0.099526398 0.54500002 4291545030
-0.18257116 -0.099343851 0.54400003 4291413444
-0.18153588 -0.099343896 0.54400003 4291545032
-0.17950518 -0.098796047 0.54100001 4292136912
-0.17847553 -0.098795995 0.54100001 4291807435
-0.17744587 -0.098795936 0.54100001 4291741641
-0.17609009 -0.098613217 0.54000002 4291610053
-0.1750623 -0.098613091 0.54000002 4291807689
-0.17403442 -0.098612934 0.54000002 4291346884
-0.17268619 -0.098430112 0.53899997 4291610055
-0.17134169 -0.098247267 0.53799999 4291544260
-0.17031759 -0.098247021 0.53799999 4291807689
-0.16929345 -0.098246738 0.53799999 4291741891
-0.16826929 -0.098246425 0.53799999 4292005063
-0.16724513 -0.098246083 0.53799999 4292004548
-0.16622096 -0.098245718 0.53799999 4292136134
-0.16519676 -0.098245338 0.53799999 4291674563
-0.16386741 -0.098062299 0.537 4291608770
-0.16284506 -0.098061845 0.537 4291608518
-0.16182274 -0.098061375 0.537 4291608518
-0.16080044 -0.098060884 0.537 4291346884
-0.15948056 -0.097877756 0.53600001 4292004557
-0.15846013 -0.097877219 0.53600001 4291413953
-0.15743966 -0.097876646 0.53600001 4291480002
-0.15641922 -0.097876064 0.53600001 4291216831
-0.15510885 -0.09769284 0.53500003 4291480002
-0.15380232 -0.097509608 0.53399998 4291479487
-0.15278567 -0.097508967 0.53399998 4291808452
-0.15176904 -0.097508281 0.53399998 4291544260
-0.1507524 -0.097507581 0.53399998 4291807689
-0.14973581 -0.097506873 0.53399998 4291806916
-0.14871918 -0.097506143 0.53399998 4292267467
-0.1479792 -0.097687997 0.53500003 4291938754
-0.14723538 -0.097869806 0.53600001 4291938754
-0.14621501 -0.097869031 0.53600001 4291806414
-0.1451946 -0.097868204 0.53600001 4291675085
-0.14417423 -0.097867392 0.53600001 4291610053
-0.14288682 -0.097683966 0.53500003 4291939018
-0.1418684 -0.097683124 0.53500003 4291676361
-0.14111325 -0.097864822 0.53600001 4291742155
-0.13983157 -0.097681344 0.53500003 4291676609
-0.13881321 -0.097680449 0.53500003 4291808452
-0.13779484 -0.097679526 0.53500003 4291282885
-0.13677649 -0.097678609 0.53500003 4291546057
-0.13626565 -0.098042801 0.537 4291217092
-0.13549539 -0.098224401 0.53799999 4291611850
-0.13472135 -0.098406017 0.53899997 4291939268
-0.13369548 -0.098405026 0.53899997 4291610303
-0.13266964 -0.098404028 0.53899997 4291675846
-0.13164383 -0.098403014 0.53899997 4292136397
-0.13061805 -0.098401994 0.53899997 4291808450
-0.12959227 -0.098400958 0.53899997 4291940036
-0.12856655 -0.098399922 0.53899997 4291741891
-0.12754083 -0.098398864 0.53899997 4291807685
-0.12651515 -0.098397799 0.53899997 4291938503
-0.12548949 -0.098396719 0.53899997 4291938503
-0.12446386 -0.098395646 0.53899997 4292135112
-0.12343826 -0.09839455 0.53899997 4292529870
-0.12241271 -0.098393463 0.53899997 4292136649
-0.12138719 -0.098392375 0.53899997 4292136649
-0.12058501 -0.098573804 0.54000002 4292267467
-0.11955763 -0.098572679 0.54000002 4292333260
-0.1185303 -0.098571561 0.54000002 4292332749
-0.11750301 -0.098570436 0.54000002 4292200907
-0.11669146 -0.098751836 0.54100001 4292332749
-0.11587609 -0.098933212 0.542 4292661458
-0.11526889 -0.099297144 0.54400003 4292464847
-0.11423413 -0.099295989 0.54400003 4292530640
-0.11340747 -0.099477351 0.54500002 4292334031
-0.11237089 -0.099476174 0.54500002 4292334031
-0.11133432 -0.099474996 0.54500002 4292530640
-0.1102978 -0.099473834 0.54500002 4292859604
-0.10946181 -0.099655174 0.546 4292597200
-0.10842346 -0.099653989 0.546 4292531407
-0.10738515 -0.099652812 0.546 4292727757
-0.10654166 -0.099834129 0.54699999 4293188308
-0.10569439 -0.10001545 0.54799998 4292925400
-0.1046524 -0.10001425 0.54799998 4293188315
-0.10361045 -0.10001307 0.54799998 4292662743
-0.10275571 -0.10019439 0.54900002 4292925659
-0.10189721 -0.10037568 0.55000001 4293057238
-0.10103493 -0.10055698 0.551 4293057238
-0.10016891 -0.10073829 0.55199999 4293056986
-0.099299118 -0.10091958 0.55299997 4293385951
-0.098425567 -0.10110088 0.55400002 4293057501
-0.097548276 -0.10128219 0.55500001 4293452259
-0.096493326 -0.10128098 0.55500001 4293255644
-0.095438428 -0.10127977 0.55500001 4293255644
-0.094553642 -0.10146106 0.55599999 4292861403
-0.093665093 -0.10164236 0.55699998 4292992989
-0.092772812 -0.10182366 0.55800003 4293058010
-0.091712385 -0.10182247 0.55800003 4293124059
-0.090651996 -0.10182127 0.55800003 4293189853
-0.090715557 -0.10309739 0.565 4293518561
-0.089641973 -0.10309621 0.565 4293387486
-0.088568404 -0.10309501 0.565 4293518815
-0.08749491 -0.10309385 0.565 4293452509
-0.08642143 -0.10309266 0.565 4293518302
-0.085499048 -0.10327394 0.56599998 4293255646
-0.084572926 -0.10345525 0.56699997 4293189853
-0.083495781 -0.10345407 0.56699997 4293584095
-0.08241868 -0.10345291 0.56699997 4293715682
-0.08220239 -0.1045465 0.57300001 4293716199
-0.081397086 -0.10491022 0.57499999 4293781992
-0.080304913 -0.10490908 0.57499999 4293715684
-0.079212785 -0.10490794 0.57499999 4293912806
-0.078528285 -0.10545415 0.57800001 4293716199
-0.077430531 -0.10545301 0.57800001 4293650150
-0.07633283 -0.10545189 0.57800001 4293255907
-0.31578562 -0.11086232 0.61500001 4287660942
-0.31514612 -0.11104967 0.616 4287200391
-0.31501219 -0.11141718 0.61799997 4287463307
-0.31522459 -0.11361445 0.63 4289496678
-0.31618372 -0.11617092 0.64399999 4285041574
-0.31595156 -0.11653773 0.64600003 4284514959
-0.3157115 -0.11690446 0.648 4282080875
-0.31546354 -0.11727112 0.64999998 4283519064
-0.31520772 -0.11763771 0.65200001 4280689964
-0.31542557 -0.11818466 0.65499997 4280297759
-0.31634012 -0.12091859 0.67000002 4283261506
-0.31554756 -0.12110423 0.671 4287336056
-0.31428251 -0.1211093 0.671 4293981150
-0.31679764 -0.12565543 0.69599998 4294967039
-0.31734765 -0.12747402 0.70599997 4294967039
-0.31601313 -0.12747823 0.70599997 4293981433
-0.31512415 -0.12766291 0.70700002 4292007387
-0.31378725 -0.12766694 0.70700002 4287607987
-0.31377587 -0.1282126 0.70999998 4288594882
-0.31243274 -0.12821645 0.70999998 4291939256
-0.20282875 -0.10065544 0.55699998 4291216833
-0.20140728 -0.10047535 0.55599999 4291545541
-0.19998957 -0.10029522 0.55500001 4291150534
-0.19893403 -0.10029576 0.55500001 4291282376
-0.1968088 -0.09975411 0.55199999 4291609801
-0.19540416 -0.099573836 0.551 4291609801
-0.19400331 -0.099393517 0.55000001 4291214782
-0.19260621 -0.099213175 0.54900002 4291609540
-0.19086391 -0.098852061 0.54699999 4291609542
-0.18947616 -0.098671615 0.546 4291806664
-0.18843733 -0.098671876 0.546 4291084481
-0.18739843 -0.09867207 0.546 4291545032
-0.18635948 -0.098672234 0.546 4291543493
-0.18532051 -0.098672368 0.546 4292267215
-0.18428148 -0.098672464 0.546 4292005063
-0.18290681 -0.098491803 0.54500002 4291544512
-0.18153588 -0.098311111 0.54400003 4291215810
-0.18050058 -0.098311104 0.54400003 4291742155
-0.17913528 -0.098130338 0.54299998 4291216583
-0.17810181 -0.098130263 0.54299998 4291282376
-0.17608997 -0.097588003 0.54000002 4291413442
-0.17506213 -0.097587854 0.54000002 4291545028
-0.17403425 -0.097587697 0.54000002 4291347136
-0.17268594 -0.097406752 0.53899997 4291544258
-0.17165993 -0.097406536 0.53899997 4291544258
-0.17063391 -0.097406283 0.53899997 4291676100
-0.16929317 -0.097225264 0.53799999 4291479237
-0.16826899 -0.097224951 0.53799999 4291742153
-0.16724478 -0.097224608 0.53799999 4291151553
-0.16622059 -0.097224243 0.53799999 4291348932
-0.16519634 -0.097223833 0.53799999 4291215036
-0.16386697 -0.097042702 0.537 4291477952
-0.16284461 -0.09704224 0.537 4291608770
-0.16212364 -0.0972225 0.53799999 4291608770
-0.16079992 -0.097041279 0.537 4291083196
-0.15948002 -0.096860051 0.53600001 4291543747
-0.15845956 -0.0968595 0.53600001 4291347388
-0.15743907 -0.096858919 0.53600001 4291281594
-0.15641865 -0.096858352 0.53600001 4290887098
-0.15539816 -0.096857719 0.53600001 4291347649
-0.15408969 -0.096676387 0.53500003 4291282624
-0.15278502 -0.096495025 0.53399998 4291611589
-0.15176837 -0.096494362 0.53399998 4291151551
-0.15075171 -0.096493654 0.53399998 4291217344
-0.14973508 -0.096492946 0.53399998 4291411906
-0.14871845 -0.096492216 0.53399998 4291872457
-0.14825504 -0.096852846 0.53600001 4291740606
-0.14723462 -0.096852086 0.53600001 4291938241
-0.1462142 -0.096851289 0.53600001 4291544260
-0.14492291 -0.096669801 0.53500003 4291544260
-0.14390445 -0.096668974 0.53500003 4291609538
-0.142886 -0.096668139 0.53500003 4291806916
-0.14186753 -0.096667275 0.53500003 4291741641
-0.14111237 -0.096847095 0.53600001 4291610055
-0.13983068 -0.096665524 0.53500003 4291282624
-0.13881227 -0.096664622 0.53500003 4291480002
-0.1377939 -0.096663713 0.53500003 4290888381
-0.13677555 -0.096662782 0.53500003 4291217346
-0.1362647 -0.097023189 0.537 4291151551
-0.13549446 -0.097202905 0.53799999 4291546309
-0.13472037 -0.097382605 0.53899997 4291939268
-0.1336945 -0.097381622 0.53899997 4291807938
-0.13266864 -0.097380623 0.53899997 4291741891
-0.1316428 -0.097379602 0.53899997 4292005063
-0.13085936 -0.097559273 0.54000002 4291084729
-0.12959123 -0.097377561 0.53899997 4291216058
-0.12832697 -0.097195864 0.53799999 4291346111
-0.12730315 -0.097194828 0.53799999 4291938505
-0.12627935 -0.097193763 0.53799999 4291938503
-0.12548842 -0.097373351 0.53899997 4292004296
-0.12446279 -0.097372279 0.53899997 4292135366
-0.12343719 -0.097371198 0.53899997 4292135366
-0.12241162 -0.097370103 0.53899997 4291610051
-0.1216113 -0.097549669 0.54000002 4291807687
-0.1205839 -0.097548552 0.54000002 4291939016
-0.11955652 -0.097547434 0.54000002 4292136651
-0.11852918 -0.097546324 0.54000002 4292332745
-0.11750188 -0.097545199 0.54000002 4292332745
-0.11690598 -0.097905338 0.542 4292463563
-0.11608875 -0.09808483 0.54299998 4292529356
-0.11505582 -0.098083682 0.54299998 4292200907
-0.11423296 -0.098263167 0.54400003 4292595665
-0.11319822 -0.098262012 0.54400003 4292334029
-0.11236971 -0.098441474 0.54500002 4292465614
-0.11133315 -0.098440319 0.54500002 4292465612
-0.11029662 -0.098439142 0.54500002 4292662991
-0.10946062 -0.098618597 0.546 4292597202
-0.10842227 -0.09861742 0.546 4292597202
-0.10738397 -0.098616242 0.546 4292399305
-0.10654046 -0.098795675 0.54699999 4292794063
-0.1056932 -0.0989751 0.54799998 4292464847
-0.10465122 -0.098973922 0.54799998 4292793811
-0.10379833 -0.099153332 0.54900002 4292728018
-0.10294169 -0.099332757 0.55000001 4292925398
-0.10189603 -0.099331588 0.55000001 4292925652
-0.10103375 -0.099510975 0.551 4293057238
-0.10034919 -0.099870995 0.55299997 4293057240
-0.099297926 -0.099869788 0.55299997 4293188569
-0.098424383 -0.10004921 0.55400002 4292991706
-0.097547069 -0.10022859 0.55500001 4292991706
-0.096665986 -0.100408 0.55599999 4292861401
-0.095609196 -0.1004068 0.55599999 4293059037
-0.094722517 -0.10058621 0.55699998 4292730587
-0.093832061 -0.10076559 0.55800003 4292730587
-0.092771605 -0.10076442 0.55800003 4292796378
-0.091875553 -0.10094382 0.55900002 4292796378
-0.090813264 -0.10094263 0.55900002 4292992989
-0.09071438 -0.10202491 0.565 4293256161
-0.089640766 -0.10202371 0.565 4293189851
-0.088567235 -0.10202254 0.565 4293255644
-0.087648578 -0.10220192 0.56599998 4293518302
-0.086573198 -0.10220075 0.56599998 4293518302
-0.085648939 -0.10238015 0.56699997 4293452507
-0.084571771 -0.10237899 0.56699997 4293386714
-0.083494619 -0.10237784 0.56699997 4292991958
-0.082417533 -0.10237668 0.56699997 4293123544
-0.081770852 -0.10291722 0.56999999 4293056986
-0.081395932 -0.10381883 0.57499999 4293517537
-0.080303773 -0.1038177 0.57499999 4293518302
-0.079211652 -0.10381657 0.57499999 4293715682
-0.078391269 -0.10417653 0.57700002 4293255394
-0.077429414 -0.10435595 0.57800001 4293321187
-0.07633172 -0.10435483 0.57800001 4293387234
-0.31476575 -0.10934222 0.61299998 4294701808
-0.31474292 -0.11532043 0.64600003 4278460164
-0.31498399 -0.11586174 0.64899999 4278194944
-0.31424651 -0.11604591 0.64999998 4278191104
-0.31543112 -0.11694416 0.65499997 4279109383
-0.31540093 -0.11929213 0.66799998 4294766777
-0.31555259 -0.11983299 0.671 4294177263
-0.31475586 -0.12001657 0.67199999 4294769400
-0.31601727 -0.12613988 0.70599997 4282603689
-0.31468245 -0.12614395 0.70599997 4279379833
-0.31334731 -0.12614788 0.70599997 4278202145
-0.3128958 -0.12650913 0.708 4278201374
-0.31155637 -0.1265129 0.708 4284370470
-0.20355769 -0.09995582 0.55900002 4291479487
-0.20140789 -0.099419981 0.55599999 4291808452
-0.20035045 -0.09942054 0.55599999 4291478983
-0.19893453 -0.099242248 0.55500001 4291413190
-0.19680925 -0.098706275 0.55199999 4291282374
-0.19540457 -0.098527871 0.551 4292006096
-0.1940037 -0.098349459 0.55000001 4291545028
-0.19295733 -0.098349802 0.55000001 4291676613
-0.19121312 -0.097992465 0.54799998 4291478213
-0.18982345 -0.097813927 0.54699999 4291807435
-0.18878265 -0.097814165 0.54699999 4291545030
-0.18774185 -0.097814359 0.54699999 4292202704
-0.18670096 -0.097814508 0.54699999 4291939016
-0.18532063 -0.097635821 0.546 4292004809
-0.18428154 -0.097635888 0.546 4291938752
-0.18324243 -0.097635932 0.546 4291543995
-0.18186961 -0.097457148 0.54500002 4291479237
-0.18083234 -0.097457118 0.54500002 4291807946
-0.17946514 -0.097278252 0.54400003 4291282374
-0.17842968 -0.097278155 0.54400003 4291413703
-0.17674203 -0.096920401 0.542 4291479235
-0.17538613 -0.09674143 0.54100001 4291873993
-0.17403409 -0.096562453 0.54000002 4291742145
-0.17268573 -0.096383408 0.53899997 4291939268
-0.17165969 -0.096383177 0.53899997 4291676100
-0.17063363 -0.096382901 0.53899997 4291676100
-0.16960752 -0.096382603 0.53899997 4291479750
-0.16826865 -0.096203476 0.53799999 4291874508
-0.16724443 -0.096203126 0.53799999 4291611586
-0.1662202 -0.096202746 0.53799999 4291611586
-0.165503 -0.096381158 0.53899997 4291610053
-0.16417168 -0.096201912 0.53799999 4291939018
-0.1631474 -0.096201457 0.53799999 4291938241
-0.16212311 -0.096200973 0.53799999 4292069570
-0.16109885 -0.096200489 0.53799999 4291543745
-0.16007455 -0.096199937 0.53799999 4291609538
-0.15875463 -0.096020594 0.537 4291478455
-0.15773223 -0.096020013 0.537 4291478455
-0.15641803 -0.095840603 0.53600001 4291544512
-0.15539755 -0.095840007 0.53600001 4291807685
-0.15437707 -0.095839374 0.53600001 4291676863
-0.15335658 -0.095838718 0.53600001 4292006085
-0.15233612 -0.095838033 0.53600001 4291479487
-0.15131563 -0.09583734 0.53600001 4291545280
-0.1502952 -0.095836625 0.53600001 4291807435
-0.14927471 -0.095835887 0.53600001 4291675848
-0.14825426 -0.095835127 0.53600001 4291610040
-0.14723383 -0.095834367 0.53600001 4292333762
-0.1462134 -0.095833562 0.53600001 4292070845
-0.14492212 -0.095653981 0.53500003 4292136638
-0.14390361 -0.095653154 0.53500003 4291609538
-0.1428851 -0.095652305 0.53500003 4291543745
-0.14186667 -0.095651455 0.53500003 4291609540
-0.14111148 -0.095829375 0.53600001 4291543747
-0.13982977 -0.095649712 0.53500003 4291347647
-0.13881138 -0.095648803 0.53500003 4291873991
-0.13779297 -0.095647886 0.53500003 4291611586
-0.13677463 -0.095646977 0.53500003 4291677380
-0.13626376 -0.096003585 0.537 4291545282
-0.13574535 -0.096360177 0.53899997 4291808198
-0.1347194 -0.096359216 0.53899997 4291939268
-0.1336935 -0.096358232 0.53899997 4292005061
-0.13266763 -0.096357226 0.53899997 4292005061
-0.13164181 -0.096356228 0.53899997 4292070854
-0.13061599 -0.096355222 0.53899997 4291215547
-0.12959021 -0.096354187 0.53899997 4291281340
-0.12832594 -0.096174397 0.53799999 4291543493
-0.1273021 -0.096173353 0.53799999 4292004044
-0.12627831 -0.096172303 0.53799999 4291741893
-0.12525453 -0.096171238 0.53799999 4291610051
-0.1244617 -0.096348919 0.53899997 4291938754
-0.12343609 -0.096347846 0.53899997 4291938754
-0.12241054 -0.096346766 0.53899997 4291741639
-0.1216102 -0.096524432 0.54000002 4292267984
-0.1208061 -0.096702076 0.54100001 4292334283
-0.11977679 -0.096700944 0.54100001 4292729040
-0.11874755 -0.096699849 0.54100001 4292727753
-0.11771835 -0.096698724 0.54100001 4292859595
-0.11690486 -0.096876323 0.542 4292332749
-0.1160876 -0.097053923 0.54299998 4292266700
-0.11505469 -0.09705279 0.54299998 4292135886
-0.11423182 -0.097230397 0.54400003 4292464595
-0.11319708 -0.097229235 0.54400003 4292334283
-0.11216237 -0.097228087 0.54400003 4292794834
-0.111332 -0.097405657 0.54500002 4292597448
-0.11029547 -0.09740448 0.54500002 4292729290
-0.10945945 -0.09758205 0.546 4292926165
-0.1084211 -0.097580872 0.546 4293057751
-0.10738279 -0.097579703 0.546 4292794063
-0.10653928 -0.097757235 0.54699999 4292991443
-0.10569202 -0.09793479 0.54799998 4292596689
-0.104841 -0.098112315 0.54900002 4292793811
-0.10379715 -0.098111138 0.54900002 4292859602
-0.1029405 -0.098288663 0.55000001 4292925652
-0.1020801 -0.098466188 0.551 4292925652
-0.10103256 -0.098464996 0.551 4292991445
-0.10034799 -0.098821208 0.55299997 4292925911
-0.099476308 -0.09899874 0.55400002 4292991704
-0.098423183 -0.098997541 0.55400002 4292794580
-0.097545877 -0.099175051 0.55500001 4292926165
-0.096664794 -0.099352561 0.55599999 4293123546
-0.095608026 -0.099351391 0.55599999 4293452255
-0.094551273 -0.099350192 0.55599999 4292927196
-0.093662724 -0.099527702 0.55699998 4293124576
-0.092770427 -0.099705219 0.55800003 4292927961
-0.091710009 -0.099704035 0.55800003 4292927961
-0.090974554 -0.10006023 0.56 4293255394
-0.090713173 -0.10095243 0.565 4293255394
-0.089639589 -0.10095125 0.565 4293124059
-0.088722803 -0.10112876 0.56599998 4293058010
-0.087647416 -0.10112759 0.56599998 4293255131
-0.086572044 -0.10112642 0.56599998 4293452509
-0.085647777 -0.10130393 0.56699997 4293255637
-0.084570602 -0.10130278 0.56699997 4293386966
-0.083493471 -0.10130163 0.56699997 4293321693
-0.082561754 -0.10147915 0.56800002 4293321693
-0.081769712 -0.10183533 0.56999999 4292991708
-0.081394792 -0.10272748 0.57499999 4293386210
-0.080302641 -0.10272634 0.57499999 4293255644
-0.079348274 -0.10290385 0.57599998 4293650402
-0.078390151 -0.10308139 0.57700002 4293650404
-0.077428289 -0.10325892 0.57800001 4293255646
-0.07633061 -0.10325781 0.57800001 4293321441
-0.31373626 -0.11069997 0.62699997 4278194432
-0.3142924 -0.11856662 0.671 4293585129
-0.31379494 -0.12445191 0.704 4278662976
-0.31335118 -0.12480937 0.70599997 4280887593
-0.31201568 -0.12481318 0.70599997 4280229663
-0.31156006 -0.12517048 0.708 4281670144
-0.3102203 -0.12517411 0.708 4287854923
-0.20608555 -0.099601753 0.56300002 4291413192
-0.2035583 -0.098894738 0.55900002 4291215295
-0.20213298 -0.098718427 0.55800003 4291741639
-0.20071132 -0.098542035 0.55699998 4291413703
-0.19965187 -0.098542534 0.55699998 4291413703
-0.19823584 -0.098366089 0.55599999 4291020483
-0.19575962 -0.097658835 0.55199999 4291020483
-0.1943568 -0.097482294 0.551 4291217094
-0.19330849 -0.097482622 0.551 4291151301
-0.19156232 -0.097129092 0.54900002 4290689985
-0.19017071 -0.096952416 0.54799998 4291150536
-0.18912798 -0.09695264 0.54799998 4291084481
-0.1880852 -0.096952811 0.54799998 4291545032
-0.1870424 -0.096952967 0.54799998 4291413190
-0.18566012 -0.096776158 0.54699999 4291545032
-0.18428162 -0.096599311 0.546 4291413190
-0.18324247 -0.09659934 0.546 4291413190
-0.18220331 -0.09659937 0.546 4291413957
-0.18083228 -0.096422412 0.54500002 4291545543
-0.17946506 -0.096245423 0.54400003 4291085508
-0.17842959 -0.096245334 0.54400003 4291282887
-0.17706797 -0.096068293 0.54299998 4291413953
-0.17538598 -0.095714293 0.54100001 4291545795
-0.17403385 -0.095537178 0.54000002 4291807685
-0.17268552 -0.095360041 0.53899997 4291939014
-0.17165942 -0.095359795 0.53899997 4291347397
-0.17063332 -0.095359519 0.53899997 4291413190
-0.16960722 -0.095359229 0.53899997 4291084740
-0.16889384 -0.09553583 0.54000002 4291216583
-0.1678658 -0.095535472 0.54000002 4291413957
-0.16652875 -0.095358163 0.53899997 4291479750
-0.16550258 -0.095357746 0.53899997 4291215808
-0.16417123 -0.095180407 0.53799999 4291413444
-0.16314694 -0.095179953 0.53799999 4291675583
-0.16212262 -0.095179476 0.53799999 4291938754
-0.16109835 -0.095178977 0.53799999 4291806914
-0.16007403 -0.095178433 0.53799999 4291675585
-0.15875408 -0.095000975 0.537 4291806653
-0.15773165 -0.095000394 0.537 4291938239
-0.15641743 -0.094822899 0.53600001 4291807687
-0.15539692 -0.09482228 0.53600001 4291676100
-0.1543764 -0.094821639 0.53600001 4291215549
-0.15335591 -0.094820999 0.53600001 4291610051
-0.15261962 -0.094997205 0.537 4291281856
-0.15159722 -0.094996497 0.537 4291545028
-0.15057483 -0.094995797 0.537 4291743690
-0.14955245 -0.094995052 0.537 4291414725
-0.14853011 -0.094994314 0.537 4291282876
-0.14750773 -0.094993532 0.537 4291546047
-0.14621261 -0.094815858 0.53600001 4291610557
-0.14519216 -0.094815031 0.53600001 4291742143
-0.14417174 -0.094814219 0.53600001 4291543745
-0.14315134 -0.094813377 0.53600001 4291609538
-0.14213096 -0.094812535 0.53600001 4291609540
-0.14111061 -0.09481167 0.53600001 4291543747
-0.14009027 -0.094810791 0.53600001 4291149500
-0.13906993 -0.094809882 0.53600001 4291610051
-0.13804962 -0.094808966 0.53600001 4291676096
-0.13702933 -0.094808049 0.53600001 4291676096
-0.13651659 -0.095160872 0.53799999 4291478204
-0.13574435 -0.09533678 0.53899997 4291807168
-0.13471842 -0.095335826 0.53899997 4291610303
-0.13369253 -0.095334858 0.53899997 4291676096
-0.13266663 -0.095333852 0.53899997 4291216831
-0.13164079 -0.095332853 0.53899997 4291545795
-0.13061497 -0.09533184 0.53899997 4291148989
-0.12934877 -0.095153958 0.53799999 4291543747
-0.12832488 -0.095152922 0.53799999 4291609542
-0.12730105 -0.095151901 0.53799999 4291872457
-0.12627725 -0.095150851 0.53799999 4291281606
-0.12525347 -0.095149785 0.53799999 4291413192
-0.12446063 -0.095325582 0.53899997 4291676096
-0.12343502 -0.095324501 0.53899997 4291807938
-0.12240945 -0.095323443 0.53899997 4291610053
-0.12160911 -0.095499203 0.54000002 4291807689
-0.120805 -0.095674962 0.54100001 4291872709
-0.11977568 -0.095673837 0.54100001 4292267467
-0.11874645 -0.095672734 0.54100001 4291806914
-0.11771723 -0.095671616 0.54100001 4292136136
-0.11690374 -0.095847346 0.542 4292136136
-0.11608646 -0.096023045 0.54299998 4292333258
-0.11505356 -0.09602192 0.54299998 4292202444
-0.11423067 -0.09619762 0.54400003 4292070602
-0.11319593 -0.096196473 0.54400003 4291807938
-0.11216122 -0.096195318 0.54400003 4292334283
-0.11133083 -0.096370995 0.54500002 4292137160
-0.11029431 -0.096369848 0.54500002 4292137160
-0.1094583 -0.096545517 0.546 4292267984
-0.10841995 -0.096544355 0.546 4292596948
-0.10738163 -0.096543185 0.546 4292070343
-0.10634334 -0.096542023 0.546 4292399051
-0.10569085 -0.096894473 0.54799998 4292529870
-0.10483983 -0.097070128 0.54900002 4292859091
-0.10379598 -0.097068965 0.54900002 4292662993
-0.10293932 -0.097244591 0.55000001 4292728786
-0.10207891 -0.097420231 0.551 4292728535
-0.10121474 -0.097595856 0.55199999 4292728535
-0.1003468 -0.097771473 0.55299997 4292794330
-0.099475116 -0.097947098 0.55400002 4292794330
-0.098422021 -0.097945921 0.55400002 4292531153
-0.097544707 -0.098121554 0.55500001 4292991704
-0.096663624 -0.098297164 0.55599999 4293123544
-0.095606834 -0.098295979 0.55599999 4293255131
-0.094550103 -0.098294809 0.55599999 4292597202
-0.093661554 -0.09847042 0.55699998 4293255133
-0.092769273 -0.098646045 0.55800003 4292993241
-0.091708839 -0.098644868 0.55800003 4292993241
-0.090973385 -0.098997265 0.56 4293189599
-0.090712018 -0.099880002 0.565 4293321441
-0.089638434 -0.099878833 0.565 4293255133
-0.08856488 -0.099877663 0.565 4292991704
-0.087646253 -0.10005328 0.56599998 4293189085
-0.086570889 -0.10005211 0.56599998 4293452257
-0.085495569 -0.10005096 0.56599998 4292991956
-0.084420308 -0.10004983 0.56599998 4293452507
-0.083492346 -0.10022546 0.56699997 4293387999
-0.082415253 -0.10022432 0.56699997 4293124828
-0.082198948 -0.10128376 0.57300001 4292860890
-0.081393659 -0.10163613 0.57499999 4293189599
-0.080301508 -0.101635 0.57499999 4293057753
-0.079347156 -0.10181063 0.57599998 4293715684
-0.078389056 -0.10198629 0.57700002 4293585127
-0.077293225 -0.10198518 0.57700002 4293453540
-0.076329507 -0.10216083 0.57800001 4292860636
-0.31256565 -0.10951927 0.62699997 4280560207
-0.31246731 -0.123121 0.704 4282005572
-0.31201941 -0.12347452 0.70599997 4281939779
-0.31068355 -0.12347817 0.70599997 4282395714
-0.30934754 -0.12348176 0.70599997 4281014062
-0.20862861 -0.09923248 0.56699997 4291215558
-0.20608617 -0.098533086 0.56300002 4291412938
-0.20501551 -0.09853372 0.56300002 4291347399
-0.20285803 -0.098009251 0.56 4291742157
-0.20143253 -0.097834758 0.55900002 4291676611
-0.20001081 -0.097660236 0.55800003 4291742405
-0.19859283 -0.097485662 0.55699998 4291478717
-0.19611463 -0.096785977 0.55299997 4291544510
-0.19470985 -0.096611321 0.55199999 4291610053
-0.19365963 -0.096611641 0.55199999 4291478467
-0.19226044 -0.09643691 0.551 4291215306
-0.19086502 -0.096262135 0.55000001 4291675857
-0.18912818 -0.0959123 0.54799998 4291413190
-0.18808535 -0.095912457 0.54799998 4291676361
-0.1870425 -0.095912606 0.54799998 4291544008
-0.18566023 -0.095737688 0.54699999 4291609801
-0.18428166 -0.095562719 0.546 4291675344
-0.1832425 -0.095562756 0.546 4291609551
-0.18220329 -0.095562756 0.546 4291741639
-0.18083225 -0.095387705 0.54500002 4291741639
-0.17979485 -0.095387623 0.54500002 4291281604
-0.17875746 -0.095387526 0.54500002 4291676361
-0.17739394 -0.09521237 0.54400003 4291544510
-0.1753858 -0.094687149 0.54100001 4291610303
-0.17403363 -0.094511934 0.54000002 4291676100
-0.17268528 -0.094336689 0.53899997 4291939016
-0.17165916 -0.094336428 0.53899997 4291545032
-0.17063305 -0.094336167 0.53899997 4291676361
-0.16960689 -0.094335854 0.53899997 4291151049
-0.16858071 -0.094335519 0.53899997 4291151049
-0.16755454 -0.094335169 0.53899997 4291544260
-0.16652834 -0.094334774 0.53899997 4291610053
-0.16550216 -0.094334371 0.53899997 4291477700
-0.16447592 -0.094333932 0.53899997 4291675335
-0.1634497 -0.09433347 0.53899997 4291740606
-0.16242346 -0.094332978 0.53899997 4291806655
-0.16139723 -0.094332471 0.53899997 4291609538
-0.16007347 -0.094156928 0.53799999 4292004296
-0.15875353 -0.09398137 0.537 4291675585
-0.15773109 -0.093980789 0.537 4291675585
-0.15641683 -0.093805186 0.53600001 4291675846
-0.15539628 -0.093804561 0.53600001 4291675846
-0.15437576 -0.093803927 0.53600001 4291543745
-0.15335526 -0.093803287 0.53600001 4291543745
-0.15261894 -0.0939776 0.537 4291543747
-0.1515965 -0.0939769 0.537 4291872711
-0.15057413 -0.093976192 0.537 4291807938
-0.1495517 -0.093975455 0.537 4291742145
-0.14852934 -0.093974702 0.537 4291414205
-0.14750694 -0.093973912 0.537 4291282876
-0.14648458 -0.093973137 0.537 4291544510
-0.14519136 -0.093797334 0.53600001 4291742145
-0.14417091 -0.093796521 0.53600001 4291543747
-0.14315051 -0.09379568 0.53600001 4291872711
-0.14213012 -0.09379483 0.53600001 4291609542
-0.14110975 -0.093793973 0.53600001 4291609542
-0.14008936 -0.093793087 0.53600001 4291478213
-0.13906904 -0.093792208 0.53600001 4291544006
-0.13804869 -0.093791276 0.53600001 4291282624
-0.13728406 -0.093965352 0.537 4291413953
-0.13676937 -0.094314367 0.53899997 4291807168
-0.13599524 -0.094488397 0.54000002 4291938754
-0.13496743 -0.094487444 0.54000002 4291676098
-0.13369155 -0.094311476 0.53899997 4292136649
-0.13266565 -0.094310507 0.53899997 4291939268
-0.13163979 -0.094309501 0.53899997 4292070854
-0.13061395 -0.094308488 0.53899997 4291544006
-0.12934773 -0.094132513 0.53799999 4291675848
-0.12832385 -0.094131492 0.53799999 4291675848
-0.12730001 -0.094130456 0.53799999 4292136399
-0.12627621 -0.094129413 0.53799999 4291938766
-0.12548523 -0.094303325 0.53899997 4291675594
-0.12445956 -0.094302267 0.53899997 4291807166
-0.12366296 -0.094476148 0.54000002 4292333510
-0.12263548 -0.094475091 0.54000002 4292005063
-0.12160801 -0.094474003 0.54000002 4291741891
-0.12080389 -0.094647855 0.54100001 4291938503
-0.11999598 -0.094821706 0.542 4292333260
-0.11874533 -0.094645649 0.54100001 4291872457
-0.11771611 -0.094644539 0.54100001 4292135886
-0.11690261 -0.094818376 0.542 4292136136
-0.11587156 -0.094817251 0.542 4292465101
-0.11505242 -0.094991058 0.54299998 4292333512
-0.11422952 -0.095164873 0.54400003 4292136134
-0.11319479 -0.095163748 0.54400003 4292004550
-0.11216008 -0.0951626 0.54400003 4292530894
-0.11132967 -0.09533637 0.54500002 4292268238
-0.11029315 -0.09533523 0.54500002 4292268238
-0.10945713 -0.095509008 0.546 4292267984
-0.10841879 -0.09550786 0.546 4292794584
-0.10738046 -0.095506698 0.546 4292727757
-0.10634219 -0.095505528 0.546 4292530121
-0.1056897 -0.095854215 0.54799998 4292529872
-0.10483867 -0.09602797 0.54900002 4292793300
-0.10398387 -0.096201718 0.55000001 4292859343
-0.10312532 -0.096375458 0.551 4292990672
-0.10207773 -0.096374281 0.551 4292662995
-0.10121357 -0.096548028 0.55199999 4292597202
-0.10034563 -0.096721753 0.55299997 4292664027
-0.099473938 -0.096895494 0.55400002 4292598234
-0.098420836 -0.096894331 0.55400002 4292466134
-0.09754353 -0.097068049 0.55500001 4292860636
-0.096488595 -0.097066887 0.55500001 4293057751
-0.095605671 -0.097240619 0.55599999 4293452509
-0.094548926 -0.097239435 0.55599999 4292662743
-0.093660392 -0.09741316 0.55699998 4293254881
-0.092768103 -0.0975869 0.55800003 4292993241
