# .PCD v0.7 - Point Cloud Data file format
VERSION 0.7
FIELDS x y z rgba
SIZE 4 4 4 4
TYPE F F F U
COUNT 1 1 1 1
WIDTH 1029
HEIGHT 1
VIEWPOINT 0 0 0 1 0 0 0
POINTS 1029
DATA ascii
-0.053982336 -0.094578333 0.54100001 4292596948
-0.052955609 -0.094577506 0.54100001 4292268238
-0.051928904 -0.094576649 0.54100001 4292465360
-0.051278587 -0.095275097 0.54500002 4292465612
-0.050244361 -0.09527427 0.54500002 4292662991
-0.049300462 -0.095448263 0.546 4292465612
-0.048264407 -0.095447488 0.546 4292597198
-0.047228374 -0.095446691 0.546 4292597715
-0.046192382 -0.095445924 0.546 4292466130
-0.045156412 -0.095445156 0.546 4292465612
-0.044120479 -0.095444411 0.546 4292662991
-0.043084577 -0.095443666 0.546 4292531405
-0.042048693 -0.095442936 0.546 4292597198
-0.041163076 -0.095791839 0.54799998 4292729036
-0.040123463 -0.095791139 0.54799998 4292795086
-0.039083879 -0.095790461 0.54799998 4292663245
-0.038044319 -0.095789783 0.54799998 4292597452
-0.037072312 -0.095963925 0.54900002 4292531405
-0.036030907 -0.095963277 0.54900002 4292465612
-0.035053261 -0.096137434 0.55000001 4292530892
-0.034010012 -0.096136816 0.55000001 4292136134
-0.022000754 -0.098402686 0.56300002 4292926163
-0.020933125 -0.098402247 0.56300002 4292663245
-0.019900795 -0.098576605 0.56400001 4292729038
-0.018864688 -0.098750964 0.565 4292662991
-0.017824804 -0.09892536 0.56599998 4292531405
-0.016810741 -0.099274553 0.56800002 4292400841
-0.015761407 -0.099448964 0.56900001 4292466634
-0.014708295 -0.09962339 0.56999999 4292465864
-0.013651404 -0.099797837 0.57099998 4292136899
-0.012612747 -0.10014709 0.57300001 4292005833
-0.011566511 -0.10049631 0.57499999 4292268749
-0.010494486 -0.1006708 0.57599998 4292269003
-0.009402357 -0.10067054 0.57599998 4292137160
-0.0083823754 -0.10154415 0.58099997 4292137162
-0.0072807842 -0.10154391 0.58099997 4292005833
-0.0061792019 -0.10154369 0.58099997 4292070856
-0.005077627 -0.10154349 0.58099997 4292005063
-0.0039760601 -0.10154329 0.58099997 4292070341
-0.1370402 -0.098649278 0.56999999 4291281594
-0.13595542 -0.098648198 0.56999999 4290821303
-0.13487066 -0.09864711 0.56999999 4290952889
-0.13237768 -0.097607635 0.56400001 4291281856
-0.13107161 -0.097433478 0.56300002 4291216062
-0.12976936 -0.097259313 0.56199998 4290953404
-0.12824197 -0.096912108 0.56 4291019197
-0.1271764 -0.096910983 0.56 4291084992
-0.1258857 -0.096736826 0.55900002 4291084992
-0.12459882 -0.096562654 0.55800003 4291083196
-0.12353718 -0.096561521 0.55800003 4291214782
-0.12247557 -0.096560381 0.55800003 4290885049
-0.12032606 -0.095694028 0.55299997 4291608772
-0.11927402 -0.095692888 0.55299997 4291477950
-0.11800826 -0.095518701 0.55199999 4291477950
-0.11695822 -0.095517568 0.55199999 4291215810
-0.11569825 -0.095343389 0.551 4291018432
-0.11465017 -0.095342241 0.551 4291149500
-0.11318981 -0.094995044 0.54900002 4291610051
-0.11214564 -0.094993904 0.54900002 4291610305
-0.11110149 -0.094992749 0.54900002 4291544512
-0.10985692 -0.09481857 0.54799998 4291609538
-0.1086162 -0.094644397 0.54699999 4291675587
-0.1073793 -0.094470218 0.546 4291148987
-0.10634104 -0.094469063 0.546 4291477952
-0.10510996 -0.094294913 0.54500002 4291477952
-0.1038827 -0.094120748 0.54400003 4291609538
-0.10284836 -0.094119594 0.54400003 4291543745
-0.10181404 -0.094118446 0.54400003 4291675587
-0.10077977 -0.094117306 0.54400003 4290888379
-0.099745572 -0.094116166 0.54400003 4291151551
-0.098529913 -0.093942001 0.54299998 4291480002
-0.097497679 -0.093940862 0.54299998 4291545795
-0.096643142 -0.094112739 0.54400003 4291281340
-0.095609091 -0.094111599 0.54400003 4291939014
-0.094227359 -0.093764447 0.542 4292070593
-0.093197189 -0.093763322 0.542 4292070593
-0.091997005 -0.093589202 0.54100001 4291478715
-0.09096884 -0.093588077 0.54100001 4291939266
-0.089774452 -0.093413979 0.54000002 4291808452
-0.088748254 -0.093412861 0.54000002 4291742402
-0.087559648 -0.093238771 0.53899997 4291545282
-0.086535424 -0.093237653 0.53899997 4291940040
-0.08551126 -0.093236551 0.53899997 4291742407
-0.084487133 -0.093235478 0.53899997 4291939786
-0.083463043 -0.093234375 0.53899997 4292005831
-0.082438998 -0.093233287 0.53899997 4292005831
-0.081566036 -0.093405187 0.54000002 4291938754
-0.08054018 -0.093404099 0.54000002 4292267719
-0.079514377 -0.093403049 0.54000002 4291938754
-0.078488581 -0.093401983 0.54000002 4292070341
-0.077462845 -0.093400918 0.54000002 4292399305
-0.076437153 -0.093399867 0.54000002 4292333512
-0.075411506 -0.093398839 0.54000002 4292004548
-0.074385881 -0.093397781 0.54000002 4292267719
-0.073360294 -0.093396753 0.54000002 4292202442
-0.072334751 -0.093395732 0.54000002 4292136649
-0.071309261 -0.093394719 0.54000002 4291807938
-0.070283808 -0.093393721 0.54000002 4292136647
-0.069258392 -0.093392707 0.54000002 4292268489
-0.068233021 -0.093391724 0.54000002 4292202440
-0.067207687 -0.09339074 0.54000002 4291806653
-0.06618239 -0.093389772 0.54000002 4292530119
-0.065277785 -0.093561746 0.54100001 4292595401
-0.06425067 -0.0935608 0.54100001 4292858573
-0.063223585 -0.093559846 0.54100001 4292596685
-0.062196538 -0.0935589 0.54100001 4292596685
-0.061169527 -0.093557969 0.54100001 4292334544
-0.060031392 -0.093384117 0.54000002 4292334544
-0.059006356 -0.093383215 0.54000002 4292137931
-0.057981353 -0.093382329 0.54000002 4292335309
-0.056956384 -0.093381435 0.54000002 4292466632
-0.056138601 -0.093726404 0.542 4292466632
-0.055109914 -0.093725532 0.542 4292466384
-0.054081269 -0.09372469 0.542 4292400591
-0.053052645 -0.093723841 0.542 4292137164
-0.052120041 -0.093895935 0.54299998 4292334544
-0.051277768 -0.094240949 0.54500002 4292202955
-0.050243549 -0.094240129 0.54500002 4292334542
-0.049299665 -0.094412237 0.546 4292202953
-0.048263617 -0.094411448 0.546 4292334796
-0.047227595 -0.094410658 0.546 4292137160
-0.046191618 -0.094409898 0.546 4292400589
-0.045155663 -0.094409145 0.546 4292401102
-0.044119734 -0.0944084 0.546 4292401102
-0.043083847 -0.094407678 0.546 4292466382
-0.042047985 -0.094406962 0.546 4292466382
-0.041162375 -0.094752051 0.54799998 4292728016
-0.04012277 -0.094751358 0.54799998 4292859602
-0.039083201 -0.09475068 0.54799998 4292399305
-0.038043652 -0.094750017 0.54799998 4292530892
-0.03707166 -0.094922274 0.54900002 4292465612
-0.036030274 -0.094921634 0.54900002 4292334283
-0.035052642 -0.095093906 0.55000001 4292465612
-0.034009401 -0.095093273 0.55000001 4292334283
-0.021961233 -0.097161651 0.56199998 4292465614
-0.020895511 -0.097161204 0.56199998 4292334283
-0.01990038 -0.097506568 0.56400001 4292597198
-0.018864287 -0.097679049 0.565 4292400591
-0.017792929 -0.097678654 0.565 4292334542
-0.016780775 -0.09802404 0.56699997 4292071108
-0.015761053 -0.098369457 0.56900001 4292531659
-0.014707955 -0.098541997 0.56999999 4292465610
-0.013651079 -0.098714523 0.57099998 4292202694
-0.012590426 -0.098887116 0.57200003 4292005833
-0.011586334 -0.099578321 0.57599998 4292268749
-0.010494211 -0.099578038 0.57599998 4292268749
-0.0094020972 -0.099577777 0.57599998 4292202955
-0.0083677014 -0.10026902 0.57999998 4292137162
-0.0072805546 -0.10044166 0.58099997 4292202955
-0.0061789877 -0.10044144 0.58099997 4292202440
-0.00507743 -0.10044124 0.58099997 4292005061
-0.0039758799 -0.10044105 0.58099997 4292005061
-0.13703912 -0.097567081 0.56999999 4291412406
-0.13595434 -0.097566016 0.56999999 4291083707
-0.13486959 -0.097564943 0.56999999 4291017914
-0.13237658 -0.096536852 0.56400001 4290952893
-0.13083769 -0.096193448 0.56199998 4291281602
-0.12976828 -0.09619236 0.56199998 4290953402
-0.12824087 -0.09584894 0.56 4290887609
-0.1271753 -0.095847838 0.56 4290953406
-0.12588456 -0.095675573 0.55900002 4291019199
-0.1245977 -0.0955033 0.55800003 4291281340
-0.12353605 -0.095502198 0.55800003 4291544512
-0.12247443 -0.095501065 0.55800003 4291148991
-0.12032492 -0.094644181 0.55299997 4291543493
-0.11927289 -0.094643064 0.55299997 4291477950
-0.11800714 -0.094470799 0.55199999 4291477950
-0.1169571 -0.094469681 0.55199999 4291477700
-0.1156971 -0.094297387 0.551 4291346113
-0.1142329 -0.093953989 0.54900002 4291215032
-0.11318868 -0.093952864 0.54900002 4291346617
-0.11214449 -0.093951717 0.54900002 4291477952
-0.11110035 -0.093950585 0.54900002 4291609538
-0.10985577 -0.093778297 0.54799998 4291609538
-0.10861505 -0.093606032 0.54699999 4291675587
-0.10737817 -0.093433768 0.546 4291411906
-0.1063399 -0.093432635 0.546 4291938251
-0.10510881 -0.09326037 0.54500002 4291675585
-0.10407253 -0.09325923 0.54500002 4292004550
-0.10284721 -0.093086988 0.54400003 4291609792
-0.10181291 -0.093085833 0.54400003 4291872707
-0.10077864 -0.0930847 0.54400003 4291413694
-0.099744409 -0.093083553 0.54400003 4291347901
-0.098528795 -0.09291131 0.54299998 4291545280
-0.097496532 -0.092910163 0.54299998 4291742402
-0.096464366 -0.092909046 0.54299998 4291477700
-0.0954322 -0.092907906 0.54299998 4291872457
-0.094226241 -0.092735693 0.542 4292069822
-0.093196072 -0.09273459 0.542 4292201409
-0.091995902 -0.092562355 0.54100001 4291938752
-0.09096773 -0.09256126 0.54100001 4292004546
-0.089773357 -0.092389047 0.54000002 4292005061
-0.088747144 -0.092387937 0.54000002 4292005061
-0.087558538 -0.092215739 0.53899997 4291676611
-0.086534336 -0.092214651 0.53899997 4292202955
-0.085510157 -0.092213549 0.53899997 4292268489
-0.0843293 -0.092041388 0.53799999 4292531405
-0.08330711 -0.092040308 0.53799999 4292136901
-0.082284965 -0.092039235 0.53799999 4292202694
-0.08156497 -0.09238033 0.54000002 4292071108
-0.080539115 -0.092379257 0.54000002 4292136901
-0.079513311 -0.092378207 0.54000002 4291807685
-0.078487538 -0.092377141 0.54000002 4291807685
-0.077461794 -0.092376083 0.54000002 4292070856
-0.07643611 -0.092375048 0.54000002 4292268235
-0.075410455 -0.092374012 0.54000002 4292202440
-0.074384861 -0.092372991 0.54000002 4292202440
-0.073359273 -0.092371956 0.54000002 4292137160
-0.072333746 -0.092370965 0.54000002 4292005831
-0.071308263 -0.092369936 0.54000002 4291939014
-0.070282809 -0.092368923 0.54000002 4292202442
-0.069257408 -0.092367962 0.54000002 4292333510
-0.068232045 -0.092366971 0.54000002 4292333510
-0.067206703 -0.09236598 0.54000002 4292267719
-0.066181429 -0.092365041 0.54000002 4292333512
-0.065156169 -0.092364065 0.54000002 4292530121
-0.064130962 -0.092363127 0.54000002 4292530121
-0.063105777 -0.09236218 0.54000002 4292531146
-0.062195614 -0.092532299 0.54100001 4292531146
-0.061168611 -0.092531368 0.54100001 4292334542
-0.060030479 -0.092359431 0.54000002 4292334542
-0.05900545 -0.092358522 0.54000002 4292334796
-0.057980467 -0.092357643 0.54000002 4292400589
-0.056955513 -0.092356764 0.54000002 4292466112
-0.056137741 -0.092697956 0.542 4292597954
-0.055109061 -0.092697099 0.542 4292531657
-0.054180194 -0.092867255 0.54299998 4292268485
-0.053149685 -0.092866421 0.54299998 4292334283
-0.052119214 -0.092865609 0.54299998 4292794834
-0.051276956 -0.093206838 0.54500002 4292597198
-0.050242756 -0.093206026 0.54500002 4292597198
-0.049298871 -0.093376249 0.546 4292531659
-0.048262827 -0.093375452 0.546 4292597452
-0.047226824 -0.093374677 0.546 4292268739
-0.046190858 -0.093373924 0.546 4292465862
-0.045237616 -0.09354417 0.54699999 4292466634
-0.044280611 -0.093714446 0.54799998 4292729550
-0.043083128 -0.093371719 0.546 4292400589
-0.042047277 -0.093370996 0.546 4292400589
-0.041161671 -0.093712308 0.54799998 4292597200
-0.040122088 -0.093711622 0.54799998 4292662993
-0.039082527 -0.093710944 0.54799998 4292531405
-0.038042989 -0.093710288 0.54799998 4292465612
-0.037071019 -0.093880653 0.54900002 4292334283
-0.036095262 -0.094051011 0.55000001 4292334283
-0.035052016 -0.094050393 0.55000001 4292530892
-0.021960793 -0.096095443 0.56199998 4292268238
-0.020895086 -0.096095011 0.56199998 4292334031
-0.019864686 -0.096265592 0.56300002 4292662995
-0.018863892 -0.096607156 0.565 4292466130
-0.017792549 -0.096606769 0.565 4292334544
-0.01678041 -0.096948363 0.56699997 4292334533
-0.015760703 -0.097289979 0.56900001 4292465862
-0.014733421 -0.097631596 0.57099998 4292334281
-0.013674667 -0.097802266 0.57200003 4292334281
-0.012590121 -0.097801946 0.57200003 4292202440
-0.011586042 -0.098485567 0.57599998 4292531405
-0.010493935 -0.098485298 0.57599998 4292334029
-0.0094181607 -0.098656029 0.57700002 4292268235
-0.0083674574 -0.099168703 0.57999998 4292202440
-0.0072677955 -0.099168479 0.57999998 4292136647
-0.0061681424 -0.099168263 0.57999998 4292070854
-0.0050772354 -0.099339023 0.58099997 4291610303
-0.0039757011 -0.099338837 0.58099997 4291676100
-0.13703807 -0.096484922 0.56999999 4291674813
-0.13595326 -0.096483864 0.56999999 4291609790
-0.13486849 -0.096482776 0.56999999 4291412410
-0.13214082 -0.095296837 0.56300002 4290952889
-0.13083662 -0.095126502 0.56199998 4291216060
-0.12976715 -0.095125392 0.56199998 4290888633
-0.12823975 -0.094785787 0.56 4290822840
-0.1271742 -0.094784699 0.56 4290953402
-0.12610865 -0.094783589 0.56 4290953402
-0.12481987 -0.094613232 0.55900002 4290887611
-0.12375632 -0.094612114 0.55900002 4291151040
-0.12269279 -0.094610989 0.55900002 4290887100
-0.12162931 -0.094609886 0.55900002 4291215808
-0.11905609 -0.093424015 0.55199999 4291608508
-0.11800601 -0.093422897 0.55199999 4291937217
-0.11674408 -0.09325254 0.551 4291740610
-0.11569596 -0.093251415 0.551 4291477438
-0.11423176 -0.092911817 0.54900002 4291412410
-0.11318754 -0.092910685 0.54900002 4291412410
-0.11214336 -0.092909567 0.54900002 4291412410
-0.11109921 -0.092908412 0.54900002 4291412410
-0.10985463 -0.092738055 0.54799998 4291412149
-0.10861391 -0.092567682 0.54699999 4291675065
-0.10737704 -0.092397332 0.546 4291411897
-0.10633875 -0.092396192 0.546 4291674813
-0.10510767 -0.092225865 0.54500002 4291411643
-0.10388041 -0.0920555 0.54400003 4291674815
-0.10284609 -0.092054382 0.54400003 4291345850
-0.10181177 -0.092053235 0.54400003 4291806401
-0.10059223 -0.091882892 0.54299998 4291676096
-0.09955994 -0.091881774 0.54299998 4291610303
-0.098527655 -0.091880642 0.54299998 4291544510
-0.097495414 -0.091879524 0.54299998 4291676096
-0.096463218 -0.091878392 0.54299998 4291608768
-0.095431075 -0.091877274 0.54299998 4291806403
-0.09439896 -0.091876149 0.54299998 4291740599
-0.093194962 -0.091705844 0.542 4292398272
-0.091994785 -0.091535531 0.54100001 4292136386
-0.090798475 -0.091365248 0.54000002 4292004800
-0.089772239 -0.091364145 0.54000002 4292004546
-0.088746049 -0.09136305 0.54000002 4292004546
-0.087557442 -0.091192752 0.53899997 4291610303
-0.086533248 -0.091191664 0.53899997 4291939268
-0.085509084 -0.091190591 0.53899997 4292004548
-0.084328227 -0.091020331 0.53799999 4292136134
-0.083306037 -0.091019258 0.53799999 4291675837
-0.082283907 -0.091018185 0.53799999 4292136388
-0.081563905 -0.091355488 0.54000002 4292136899
-0.080538057 -0.091354422 0.54000002 4292136899
-0.079512239 -0.091353379 0.54000002 4291807938
-0.078486487 -0.091352336 0.54000002 4291939268
-0.077460751 -0.091351286 0.54000002 4292070341
-0.076435067 -0.091350257 0.54000002 4292465099
-0.075409427 -0.091349244 0.54000002 4292006598
-0.074383825 -0.091348201 0.54000002 4291874756
-0.073358253 -0.091347195 0.54000002 4291940553
-0.07233274 -0.091346182 0.54000002 4291940553
-0.071307257 -0.091345184 0.54000002 4292070341
-0.070281826 -0.091344193 0.54000002 4292333512
-0.069256417 -0.091343209 0.54000002 4292202694
-0.068231061 -0.091342241 0.54000002 4292136901
-0.067205742 -0.091341272 0.54000002 4292333512
-0.066180468 -0.091340326 0.54000002 4292333512
-0.065155216 -0.091339357 0.54000002 4292333512
-0.064130016 -0.091338433 0.54000002 4292333512
-0.063104853 -0.091337502 0.54000002 4292333510
-0.062194679 -0.091505714 0.54100001 4292465097
-0.061167702 -0.091504805 0.54100001 4292137162
-0.060140751 -0.091503911 0.54100001 4292005833
-0.059223108 -0.091672152 0.542 4292136649
-0.058194317 -0.091671251 0.542 4292268235
-0.057165582 -0.091670386 0.542 4292333760
-0.056136876 -0.091669515 0.542 4292399553
-0.055108212 -0.091668673 0.542 4292070341
-0.054179348 -0.091836944 0.54299998 4292136134
-0.053246748 -0.092005253 0.54400003 4292201157
-0.052310366 -0.092173561 0.54500002 4292332999
-0.051276136 -0.092172742 0.54500002 4292333258
-0.050241951 -0.092171945 0.54500002 4292530894
-0.049298082 -0.092340276 0.546 4292202953
-0.048262056 -0.092339501 0.546 4292334796
-0.04722606 -0.092338711 0.546 4292465864
-0.046190102 -0.092337966 0.546 4292531657
-0.04515418 -0.092337236 0.546 4292400587
-0.044279877 -0.092674717 0.54799998 4292334794
-0.043082409 -0.092335775 0.546 4292203980
-0.042046577 -0.092335083 0.546 4292203980
-0.041160982 -0.092672594 0.54799998 4292136647
-0.04012141 -0.092671923 0.54799998 4292597198
-0.039081868 -0.092671245 0.54799998 4292466636
-0.03804234 -0.092670597 0.54799998 4292400587
-0.029158963 -0.094187185 0.55699998 4292334281
-0.02810262 -0.094186656 0.55699998 4292465610
-0.024006056 -0.094691984 0.56 4292268235
-0.022944124 -0.094691537 0.56 4292465360
-0.021921283 -0.094860181 0.56099999 4292268238
-0.020857491 -0.094859749 0.56099999 4292202958
-0.01986428 -0.095197521 0.56300002 4292268751
-0.018830115 -0.095366217 0.56400001 4292202444
-0.017792173 -0.095534913 0.565 4292268238
-0.016780049 -0.095872723 0.56699997 4292400587
-0.015760353 -0.096210539 0.56900001 4292137414
-0.014707288 -0.096379295 0.56999999 4291872959
-0.01367435 -0.096717156 0.57200003 4292004546
-0.012611829 -0.096885927 0.57300001 4291872959
-0.011525411 -0.096885629 0.57300001 4292267717
-0.010511881 -0.09756168 0.57700002 4292070856
-0.0094179036 -0.097561434 0.57700002 4292136649
-0.0083672153 -0.098068431 0.57999998 4292136647
-0.0072675692 -0.098068178 0.57999998 4292070854
-0.0061679324 -0.098067969 0.57999998 4291940040
-0.0050770417 -0.098236844 0.58099997 4291742405
-0.0039755241 -0.098236673 0.58099997 4291872707
-0.13703702 -0.095402777 0.56999999 4291543493
-0.1359522 -0.095401719 0.56999999 4291477950
-0.13486743 -0.095400639 0.56999999 4291477950
-0.13213974 -0.094227999 0.56300002 4291084983
-0.13083552 -0.094059542 0.56199998 4291347899
-0.12976608 -0.094058476 0.56199998 4290888113
-0.12823868 -0.093722664 0.56 4290756784
-0.12717308 -0.093721569 0.56 4290887863
-0.12588236 -0.093553126 0.55900002 4290887863
-0.12459548 -0.093384668 0.55800003 4290887611
-0.12353381 -0.093383573 0.55800003 4291151040
-0.1224722 -0.093382463 0.55800003 4291083707
-0.1203227 -0.092544585 0.55299997 4291347136
-0.11905499 -0.092376143 0.55199999 4291346365
-0.1180049 -0.092375033 0.55199999 4291543745
-0.11674295 -0.09220656 0.551 4291478204
-0.11569485 -0.092205465 0.551 4291346617
-0.11443872 -0.092037 0.55000001 4291412156
-0.11339258 -0.092035867 0.55000001 4291543999
-0.11255076 -0.09220209 0.551 4291478204
-0.11109807 -0.091866285 0.54900002 4291609790
-0.10985351 -0.091697834 0.54799998 4291478705
-0.1086128 -0.091529384 0.54699999 4291939256
-0.10737591 -0.091360934 0.546 4291675837
-0.10633764 -0.091359809 0.546 4292004546
-0.10510654 -0.091191351 0.54500002 4291543999
-0.1038793 -0.091022916 0.54400003 4291806914
-0.10284495 -0.091021799 0.54400003 4291346111
-0.1019978 -0.091187999 0.54500002 4291609540
-0.10059112 -0.090852231 0.54299998 4291479489
-0.099558793 -0.090851106 0.54299998 4291742405
-0.098526537 -0.090849996 0.54299998 4291808450
-0.097494289 -0.090848885 0.54299998 4291808450
-0.096462116 -0.090847768 0.54299998 4291939014
-0.095429964 -0.090846665 0.54299998 4292005063
-0.094223998 -0.090678237 0.542 4291676089
-0.093021899 -0.090509832 0.54100001 4292004798
-0.091993697 -0.090508752 0.54100001 4292070593
-0.090797387 -0.090340354 0.54000002 4292004800
-0.089771144 -0.090339266 0.54000002 4292005059
-0.088744961 -0.090338185 0.54000002 4292136901
-0.08755637 -0.090169787 0.53899997 4291939268
-0.086532161 -0.090168715 0.53899997 4292005061
-0.085508011 -0.090167642 0.53899997 4291939268
-0.084483884 -0.090166561 0.53899997 4292136647
-0.083459809 -0.090165511 0.53899997 4291807685
-0.082435794 -0.090164445 0.53899997 4292070856
-0.081562847 -0.090330675 0.54000002 4292136636
-0.080537006 -0.090329625 0.54000002 4292399807
-0.079511195 -0.090328582 0.54000002 4291742402
-0.078485437 -0.090327546 0.54000002 4291808452
-0.077459723 -0.090326518 0.54000002 4292005061
-0.076434046 -0.090325497 0.54000002 4292268489
-0.075408407 -0.090324454 0.54000002 4292137160
-0.074382819 -0.090323463 0.54000002 4292005831
-0.073357247 -0.09032245 0.54000002 4291940040
-0.072331741 -0.090321459 0.54000002 4291873991
-0.071174219 -0.090153202 0.53899997 4292005063
-0.070280835 -0.090319499 0.54000002 4292005063
-0.069255449 -0.090318508 0.54000002 4292070854
-0.068230107 -0.090317555 0.54000002 4292136647
-0.067204788 -0.090316594 0.54000002 4292136647
-0.066179514 -0.09031564 0.54000002 4292202440
-0.065154277 -0.090314701 0.54000002 4292333510
-0.064247847 -0.090481013 0.54100001 4292267717
-0.063220784 -0.090480082 0.54100001 4292333249
-0.062193774 -0.090479173 0.54100001 4292596165
-0.061166797 -0.090478271 0.54100001 4292333512
-0.060139857 -0.090477377 0.54100001 4292267719
-0.059003692 -0.090309262 0.54000002 4292202442
-0.057978716 -0.090308383 0.54000002 4292268235
-0.05695378 -0.090307511 0.54000002 4292399305
-0.056136031 -0.090641126 0.542 4292465099
-0.055107366 -0.090640292 0.542 4292333512
-0.054178521 -0.090806678 0.54299998 4292333512
-0.053245921 -0.090973087 0.54400003 4292464067
-0.052309547 -0.091139503 0.54500002 4292464067
-0.051275335 -0.091138691 0.54500002 4292333258
-0.050333343 -0.091305129 0.546 4292596687
-0.049297292 -0.091304332 0.546 4292334283
-0.048261285 -0.091303572 0.546 4292268489
-0.0472253 -0.091302812 0.546 4292465097
-0.046189364 -0.09130206 0.546 4292531146
-0.045153446 -0.091301337 0.546 4292334283
-0.044279154 -0.091635026 0.54799998 4292268489
-0.04316061 -0.091467112 0.54699999 4292268749
-0.042122882 -0.091466404 0.54699999 4292268749
-0.041160297 -0.091632932 0.54799998 4292136647
-0.040120739 -0.091632262 0.54799998 4292597198
-0.039081205 -0.091631584 0.54799998 4292466634
-0.0380417 -0.091630936 0.54799998 4292335048
-0.02915843 -0.093130507 0.55699998 4292268235
-0.0281021 -0.093129985 0.55699998 4292268235
-0.023962723 -0.09346243 0.55900002 4292661710
-0.022902705 -0.093461983 0.55900002 4292596435
-0.021920851 -0.09379594 0.56099999 4292596435
-0.020857072 -0.093795508 0.56099999 4292334029
-0.019863876 -0.094129503 0.56300002 4292268235
-0.01879634 -0.094129108 0.56300002 4292268235
-0.017728822 -0.094128728 0.56300002 4292268235
-0.016779687 -0.094797119 0.56699997 4292202953
-0.01576001 -0.095131159 0.56900001 4291940038
-0.014706957 -0.095298 0.56999999 4291873991
-0.013674035 -0.095632091 0.57200003 4291940040
-0.012589517 -0.095631756 0.57200003 4292136134
-0.011505014 -0.095631473 0.57200003 4292465099
-0.010511612 -0.096467137 0.57700002 4292136136
-0.0094176494 -0.096466862 0.57700002 4292136136
-0.0083525507 -0.096801005 0.579 4292136136
-0.0072548171 -0.096800767 0.579 4292070343
-0.0061570923 -0.096800551 0.579 4292136136
-0.0050768508 -0.097134724 0.58099997 4292070343
-0.13812082 -0.094321676 0.56999999 4291083455
-0.13655514 -0.093989693 0.56800002 4291083455
-0.13547413 -0.093988642 0.56800002 4291017401
-0.13368331 -0.093491159 0.565 4291148987
-0.13237338 -0.093324639 0.56400001 4290887611
-0.13106726 -0.093158104 0.56300002 4291019197
-0.129765 -0.092991561 0.56199998 4290493877
-0.12823759 -0.092659563 0.56 4290691000
-0.12717201 -0.092658482 0.56 4290427830
-0.12588128 -0.09249194 0.55900002 4290296244
-0.12459438 -0.092325389 0.55800003 4290427830
-0.12353273 -0.092324294 0.55800003 4290888381
-0.12247109 -0.092323184 0.55800003 4290755507
-0.12032159 -0.091494814 0.55299997 4290953143
-0.11905389 -0.091328286 0.55199999 4291148989
-0.11800377 -0.091327175 0.55199999 4291477954
-0.11674186 -0.091160625 0.551 4291281594
-0.11569375 -0.091159523 0.551 4291215545
-0.11422953 -0.090827532 0.54900002 4291347136
-0.11318529 -0.090826415 0.54900002 4291478465
-0.11254963 -0.09115617 0.551 4291215799
-0.11129932 -0.090989627 0.55000001 4291478715
-0.10985239 -0.090657644 0.54799998 4291084981
-0.10841309 -0.090325646 0.546 4291282103
-0.1073748 -0.090324551 0.546 4291281592
-0.10633652 -0.090323426 0.546 4291610557
-0.10510543 -0.09015689 0.54500002 4291018684
-0.10387819 -0.089990363 0.54400003 4291084477
-0.10284383 -0.089989237 0.54400003 4291215547
-0.10199668 -0.090153545 0.54500002 4291544512
-0.10059001 -0.089821599 0.54299998 4291216829
-0.099557683 -0.089820482 0.54299998 4291414207
-0.098343976 -0.089653969 0.542 4291283391
-0.097313657 -0.089652874 0.542 4291349184
-0.096461013 -0.089817181 0.54299998 4291676098
-0.095253125 -0.089650676 0.542 4291676098
-0.094222911 -0.08964958 0.542 4291478455
-0.093020804 -0.089483067 0.54100001 4291807164
-0.091992594 -0.089481972 0.54100001 4291609790
-0.090796292 -0.089315504 0.54000002 4291675583
-0.089770064 -0.089314416 0.54000002 4291610305
-0.088743888 -0.089313336 0.54000002 4291939014
-0.087555297 -0.08914686 0.53899997 4291676609
-0.086531095 -0.089145795 0.53899997 4291676609
-0.085665584 -0.089310132 0.54000002 4291742145
-0.084482819 -0.089143664 0.53899997 4292070854
-0.083458751 -0.089142613 0.53899997 4291742143
-0.082434729 -0.089141563 0.53899997 4291742143
-0.081561796 -0.089305915 0.54000002 4291675835
-0.080535963 -0.089304864 0.54000002 4291872957
-0.07951016 -0.089303829 0.54000002 4291216831
-0.078484409 -0.089302801 0.54000002 4291545795
-0.077458709 -0.089301787 0.54000002 4291611589
-0.076433025 -0.089300774 0.54000002 4291874504
-0.075407401 -0.089299753 0.54000002 4291808452
-0.074381806 -0.089298762 0.54000002 4291940038
-0.073356263 -0.089297757 0.54000002 4291742405
-0.072196804 -0.089131393 0.53899997 4291873991
-0.071173243 -0.089130409 0.53899997 4292005061
-0.070149712 -0.089129433 0.53899997 4291939268
-0.069126226 -0.089128472 0.53899997 4291939268
-0.068229139 -0.089292891 0.54000002 4292005061
-0.06720385 -0.089291945 0.54000002 4291872961
-0.066178575 -0.089290999 0.54000002 4292267719
-0.065153353 -0.089290068 0.54000002 4292202694
-0.064246923 -0.089454509 0.54100001 4292136901
-0.063219875 -0.089453571 0.54100001 4292331714
-0.062192868 -0.089452669 0.54100001 4292660678
-0.061165895 -0.089451775 0.54100001 4292398022
-0.060138967 -0.089450888 0.54100001 4292529608
-0.059002813 -0.089284681 0.54000002 4292334283
-0.057977844 -0.089283802 0.54000002 4292202440
-0.056952927 -0.089282952 0.54000002 4292004548
-0.05592804 -0.08928211 0.54000002 4292465099
-0.055004869 -0.089446612 0.54100001 4292267465
-0.05417769 -0.089776434 0.54299998 4292267465
-0.053245101 -0.089940965 0.54400003 4292529608
-0.052308735 -0.090105481 0.54500002 4292529608
-0.051368624 -0.090270013 0.546 4292267719
-0.050332557 -0.090269223 0.546 4292530892
-0.049296524 -0.090268455 0.546 4292268487
-0.048260514 -0.090267681 0.546 4292334281
-0.047224555 -0.090266936 0.546 4292727244
-0.046273213 -0.090431511 0.54699999 4292858573
-0.045235414 -0.090430789 0.54699999 4292398790
-0.044278447 -0.090595387 0.54799998 4292596169
-0.043238807 -0.090594672 0.54799998 4292334029
-0.042199198 -0.090593971 0.54799998 4292334029
-0.041159622 -0.090593301 0.54799998 4292202440
-0.040120073 -0.090592623 0.54799998 4292334283
-0.029157907 -0.092073865 0.55699998 4292268751
-0.02810159 -0.092073351 0.55699998 4292202958
-0.024977535 -0.092237197 0.55800003 4292136134
-0.023919404 -0.092236735 0.55800003 4292267719
-0.022902265 -0.092401586 0.55900002 4292463815
-0.021881348 -0.092566453 0.56 4292924366
-0.020856658 -0.092731327 0.56099999 4292728270
-0.019863477 -0.093061522 0.56300002 4292530892
-0.018795958 -0.093061127 0.56300002 4292465612
-0.01772845 -0.093060754 0.56300002 4292268489
-0.016779333 -0.093721569 0.56699997 4292137160
-0.015759669 -0.094051808 0.56900001 4292137160
-0.01468083 -0.09405148 0.56900001 4292137160
-0.013649818 -0.09438175 0.57099998 4292137160
-0.012589222 -0.094546743 0.57200003 4292202694
-0.01154496 -0.094877027 0.574 4292202694
-0.010474908 -0.095042028 0.57499999 4292333510
-0.0094010765 -0.09520708 0.57599998 4292399303
-0.0083523141 -0.095702715 0.579 4292332999
-0.0072545959 -0.095702469 0.579 4292201157
-0.0061568874 -0.095702268 0.579 4291939016
-0.0050766612 -0.096032642 0.58099997 4291939016
-0.13811979 -0.093239553 0.56999999 4291478465
-0.13655412 -0.09291137 0.56800002 4291478465
-0.13547309 -0.09291032 0.56800002 4291148991
-0.13368227 -0.092418551 0.565 4291346113
-0.13237233 -0.092253931 0.56400001 4291084479
-0.1310662 -0.092089295 0.56300002 4291347395
-0.12976393 -0.09192466 0.56199998 4290952893
-0.12823652 -0.091596462 0.56 4291018686
-0.12717092 -0.091595389 0.56 4290821053
-0.12588021 -0.091430768 0.55900002 4290557881
-0.1245933 -0.091266111 0.55800003 4290755257
-0.12353164 -0.09126503 0.55800003 4291479237
-0.12246999 -0.091263942 0.55800003 4291215538
-0.1203205 -0.090445071 0.55299997 4291346867
-0.1190528 -0.090280436 0.55199999 4291346111
-0.11800269 -0.090279333 0.55199999 4291675333
-0.11674076 -0.090114698 0.551 4291347385
-0.11569262 -0.090113588 0.551 4291281592
-0.11422843 -0.089785405 0.54900002 4291478465
-0.1131842 -0.089784309 0.54900002 4291939016
-0.11254852 -0.09011028 0.551 4291544508
-0.11129821 -0.089945637 0.55000001 4291742143
-0.10985129 -0.089617461 0.54799998 4291216058
-0.10841201 -0.089289285 0.546 4291018936
-0.10737368 -0.089288183 0.546 4291347388
-0.10633539 -0.089287072 0.546 4291742145
-0.10510432 -0.089122444 0.54500002 4291346365
-0.10387708 -0.088957801 0.54400003 4291215036
-0.10284272 -0.088956706 0.54400003 4291346363
-0.10180843 -0.088955604 0.54400003 4291806914
-0.1005889 -0.088790976 0.54299998 4291675837
-0.099556588 -0.088789873 0.54299998 4291807166
-0.098342866 -0.08862526 0.542 4291610557
-0.097312555 -0.088624179 0.542 4291676350
-0.09645991 -0.088786595 0.54299998 4291610303
-0.095252037 -0.088622004 0.542 4291610303
-0.09422183 -0.088620916 0.542 4291544512
-0.093191653 -0.088619821 0.542 4291939014
-0.091991514 -0.08845523 0.54100001 4291610305
-0.090795204 -0.088290654 0.54000002 4291610305
-0.089768991 -0.088289589 0.54000002 4291675846
-0.0887428 -0.088288516 0.54000002 4291939018
-0.087554216 -0.08812394 0.53899997 4291545280
-0.086530037 -0.088122889 0.53899997 4291545280
-0.085664533 -0.088285342 0.54000002 4291676609
-0.084638521 -0.088284284 0.54000002 4292137160
-0.083612554 -0.088283233 0.54000002 4291676609
-0.082586639 -0.088282205 0.54000002 4291545280
-0.081560761 -0.088281155 0.54000002 4291479489
-0.080534928 -0.088280126 0.54000002 4291676611
-0.079509147 -0.088279098 0.54000002 4291545795
-0.077457689 -0.088277072 0.54000002 4291808452
-0.076432019 -0.088276051 0.54000002 4291874245
-0.075406402 -0.08827506 0.54000002 4292070854
-0.074243061 -0.088110581 0.53899997 4292334283
-0.073219419 -0.088109605 0.53899997 4292136134
-0.072061874 -0.087945156 0.53799999 4292136134
-0.071040228 -0.087944187 0.53799999 4292005061
-0.070018619 -0.087943234 0.53799999 4291939268
-0.06912528 -0.088105738 0.53899997 4292005061
-0.0682282 -0.088268258 0.54000002 4292070854
-0.067202896 -0.088267319 0.54000002 4292005061
-0.066177644 -0.08826638 0.54000002 4292136647
-0.065273084 -0.088428915 0.54100001 4292267719
-0.064246006 -0.088427998 0.54100001 4292399305
-0.063218966 -0.088427082 0.54100001 4292266439
-0.062191971 -0.088426188 0.54100001 4292397768
-0.061165012 -0.088425301 0.54100001 4292201159
-0.060138091 -0.088424429 0.54100001 4292530123
-0.059001949 -0.088260114 0.54000002 4292268489
-0.057976991 -0.08825925 0.54000002 4292202440
-0.056952085 -0.088258415 0.54000002 4292136134
-0.055927202 -0.088257574 0.54000002 4292794063
-0.05500403 -0.088420175 0.54100001 4292266952
-0.054176874 -0.088746235 0.54299998 4292201159
-0.053244293 -0.088908873 0.54400003 4292267206
-0.052307937 -0.089071497 0.54500002 4292267206
-0.051367827 -0.089234136 0.546 4292136134
-0.050331775 -0.089233354 0.546 4292530892
-0.049295753 -0.089232586 0.546 4292268485
-0.048259769 -0.089231834 0.546 4292202692
-0.04722381 -0.089231081 0.546 4292268235
-0.046272479 -0.089393772 0.54699999 4292334029
-0.045234695 -0.089393057 0.54699999 4292465099
-0.044277735 -0.089555755 0.54799998 4292530892
-0.043238107 -0.089555047 0.54799998 4292334029
-0.042198513 -0.089554369 0.54799998 4292268235
-0.041158948 -0.089553684 0.54799998 4292202440
-0.040119417 -0.089553036 0.54799998 4292202440
-0.034377411 -0.090856627 0.55599999 4292269003
-0.033322886 -0.090856038 0.55599999 4292334281
-0.03226839 -0.090855464 0.55599999 4292663245
-0.031213915 -0.090854913 0.55599999 4292202953
-0.030159462 -0.090854362 0.55599999 4292269003
-0.029105037 -0.090853848 0.55599999 4292465360
-0.028050633 -0.090853348 0.55599999 4292268238
-0.026996251 -0.090852842 0.55599999 4292268489
-0.025941886 -0.090852357 0.55599999 4292465612
-0.024977069 -0.091178708 0.55800003 4292267719
-0.023918957 -0.091178261 0.55800003 4292530892
-0.022901827 -0.091341205 0.55900002 4292399303
-0.021880928 -0.091504179 0.56 4292728268
-0.020893428 -0.091830574 0.56199998 4292531659
-0.019863084 -0.091993563 0.56300002 4292531659
-0.01882896 -0.092156582 0.56400001 4292334281
-0.017759576 -0.092156209 0.56400001 4292268487
-0.016778979 -0.092646033 0.56699997 4292268487
-0.01575933 -0.092972495 0.56900001 4292268487
-0.014680507 -0.092972167 0.56900001 4292070854
-0.013649506 -0.093298636 0.57099998 4292070854
-0.012588928 -0.093461744 0.57200003 4292136386
-0.01154468 -0.093788244 0.574 4292267715
-0.010474645 -0.093951359 0.57499999 4292267717
-0.0094008269 -0.094114497 0.57599998 4292531146
-0.13631263 -0.091671348 0.56699997 4291281092
-0.13523352 -0.091670327 0.56699997 4291082942
-0.13368121 -0.091345951 0.565 4291411906
-0.13260597 -0.091344893 0.565 4291347138
-0.13106517 -0.091020517 0.56300002 4291478467
-0.12999377 -0.091019452 0.56300002 4290821053
-0.12823547 -0.090533406 0.56 4290952639
-0.12694277 -0.090370655 0.55900002 4291148989
-0.12587912 -0.090369597 0.55900002 4291017403
-0.12436893 -0.090045199 0.55699998 4290951605
-0.12308779 -0.089882471 0.55599999 4291477950
-0.12202993 -0.089881368 0.55599999 4291083446
-0.12031943 -0.089395329 0.55299997 4291149239
-0.11926737 -0.089394249 0.55299997 4291148989
-0.11800158 -0.089231499 0.55199999 4291609540
-0.11673965 -0.089068763 0.551 4291478715
-0.11569153 -0.089067683 0.551 4291347385
-0.11464345 -0.089066595 0.551 4291017914
-0.11359541 -0.089065507 0.551 4291281342
-0.11254742 -0.089064404 0.551 4291018166
-0.1112971 -0.088901669 0.55000001 4291478717
-0.11005063 -0.088738933 0.54900002 4290954428
-0.10841089 -0.088252917 0.546 4290822586
-0.10737258 -0.088251829 0.546 4291281854
-0.10613955 -0.088089094 0.54500002 4291479489
-0.10510322 -0.088088013 0.54500002 4291477952
-0.10406693 -0.088086911 0.54500002 4291412158
-0.10284163 -0.08792419 0.54400003 4291608506
-0.10180732 -0.087923095 0.54400003 4292003264
-0.10058781 -0.087760374 0.54299998 4291872446
-0.0995555 -0.087759286 0.54299998 4291872446
-0.098523222 -0.087758206 0.54299998 4291149493
-0.097491004 -0.087757125 0.54299998 4291215286
-0.096458815 -0.087756045 0.54299998 4291215032
-0.095250942 -0.087593347 0.542 4291675583
-0.094220728 -0.087592266 0.542 4291610303
-0.093018644 -0.087429598 0.54100001 4291676096
-0.091990434 -0.087428518 0.54100001 4291479487
-0.090962276 -0.087427445 0.54100001 4291545280
-0.089767911 -0.087264784 0.54000002 4291742405
-0.088741742 -0.087263718 0.54000002 4291742405
-0.087715626 -0.087262683 0.54000002 4291283389
-0.086689524 -0.087261617 0.54000002 4291217596
-0.085663475 -0.087260574 0.54000002 4291216829
-0.084637478 -0.087259524 0.54000002 4291414207
-0.083611526 -0.087258495 0.54000002 4291545280
-0.082585603 -0.08725746 0.54000002 4291545280
-0.081710756 -0.087418012 0.54100001 4291349184
-0.080683038 -0.087416992 0.54100001 4291546306
-0.079802588 -0.087577552 0.542 4291546306
-0.078773052 -0.087576553 0.542 4291546306
-0.077743545 -0.08757554 0.542 4291281594
-0.076714091 -0.087574534 0.542 4291742145
-0.075265758 -0.087088808 0.53899997 4292004548
-0.07424207 -0.087087825 0.53899997 4292070341
-0.073218435 -0.087086849 0.53899997 4292004548
-0.072060905 -0.086924314 0.53799999 4292004548
-0.071039252 -0.086923353 0.53799999 4291938754
-0.070017658 -0.0869224 0.53799999 4292004548
-0.069124326 -0.087083012 0.53899997 4292005061
-0.068227246 -0.087243654 0.54000002 4291939268
-0.067201965 -0.087242708 0.54000002 4291939266
-0.06617672 -0.087241799 0.54000002 4291939266
-0.06527216 -0.087402441 0.54100001 4291872959
-0.064245097 -0.087401539 0.54100001 4292136388
-0.063334927 -0.087562196 0.542 4292135112
-0.062306039 -0.087561294 0.542 4292135112
-0.061277185 -0.087560408 0.542 4292069570
-0.060137227 -0.087398 0.54100001 4292267206
-0.059110347 -0.087397136 0.54100001 4292070341
-0.058083508 -0.087396286 0.54100001 4292136134
-0.057056703 -0.087395437 0.54100001 4292200896
-0.056133505 -0.087556139 0.542 4292727240
-0.055206548 -0.087716855 0.54299998 4292201159
-0.054275837 -0.087877594 0.54400003 4292201159
-0.053243492 -0.087876804 0.54400003 4292267717
-0.052307151 -0.088037536 0.54500002 4292136388
-0.051367041 -0.088198297 0.546 4291939268
-0.050331004 -0.088197514 0.546 4292268489
-0.04929499 -0.088196747 0.546 4291874243
-0.048259016 -0.088196009 0.546 4291940036
-0.047223072 -0.088195257 0.546 4292202440
-0.046271753 -0.08835607 0.54699999 4292268489
-0.045399368 -0.088678405 0.54900002 4292202953
-0.044357833 -0.088677704 0.54900002 4292202953
-0.043316316 -0.088676997 0.54900002 4292137162
-0.042274844 -0.088676319 0.54900002 4292202955
-0.041233391 -0.088675655 0.54900002 4292202953
-0.040191974 -0.088674992 0.54900002 4292137160
-0.034376822 -0.089801908 0.55599999 4292071108
-0.033322319 -0.089801334 0.55599999 4292070856
-0.032267835 -0.089800783 0.55599999 4292531407
-0.031213373 -0.089800231 0.55599999 4292202953
-0.030158939 -0.089799702 0.55599999 4292334796
-0.029104521 -0.089799173 0.55599999 4292465612
-0.028050132 -0.089798667 0.55599999 4292268489
-0.026995763 -0.089798182 0.55599999 4292268487
-0.025941413 -0.089797705 0.55599999 4292334281
-0.025021371 -0.090281762 0.55900002 4292070595
-0.023961373 -0.090281315 0.55900002 4292399303
-0.022901397 -0.090280876 0.55900002 4292268487
-0.021919584 -0.090603456 0.56099999 4292268487
-0.020893022 -0.090764552 0.56199998 4291940040
-0.019862693 -0.090925664 0.56300002 4292268749
-0.018861968 -0.091248281 0.565 4292268489
-0.017790699 -0.091247909 0.565 4292334283
-0.016808225 -0.09173207 0.56800002 4292334281
-0.015758995 -0.091893226 0.56900001 4292268487
-0.014705989 -0.092054397 0.56999999 4291742402
-0.013625297 -0.092054076 0.56999999 4291874245
-0.012654661 -0.09286128 0.57499999 4292136388
-0.011564516 -0.092860997 0.57499999 4292070595
-0.010474386 -0.092860729 0.57499999 4291938752
-0.0094169034 -0.093183473 0.57700002 4292070595
-0.13787542 -0.090915531 0.56900001 4291280840
-0.13631162 -0.09059494 0.56699997 4291543756
-0.13523248 -0.090593919 0.56699997 4291147969
-0.1339168 -0.090433136 0.56599998 4291477190
-0.13260491 -0.090272315 0.565 4291412160
-0.1312969 -0.090111509 0.56400001 4291543747
-0.12999274 -0.089950696 0.56300002 4291083455
-0.1282344 -0.089470334 0.56 4291281090
-0.12694173 -0.089309514 0.55900002 4291478204
-0.12587805 -0.089308456 0.55900002 4291478204
-0.12436786 -0.088987842 0.55699998 4291215032
-0.12308671 -0.088827021 0.55599999 4291543997
-0.12202887 -0.088825971 0.55599999 4291346617
-0.12053593 -0.088505365 0.55400002 4291412410
-0.11926629 -0.088344537 0.55299997 4291214782
-0.11800052 -0.088183708 0.55199999 4291609540
-0.11695044 -0.088182628 0.55199999 4291543997
-0.11590041 -0.088181548 0.55199999 4291543997
-0.11485041 -0.08818046 0.55199999 4291083455
-0.11380049 -0.088179387 0.55199999 4291346884
-0.11254633 -0.088018551 0.551 4291346365
-0.11129601 -0.087857731 0.55000001 4291543745
-0.11004954 -0.087696895 0.54900002 4291084992
-0.10840981 -0.087216586 0.546 4291019199
-0.10737149 -0.087215498 0.546 4291347134
-0.10613847 -0.087054692 0.54500002 4291478463
-0.10510213 -0.087053612 0.54500002 4291477952
-0.10406585 -0.087052524 0.54500002 4291806916
-0.10302959 -0.087051436 0.54500002 4291609020
-0.10199339 -0.087050356 0.54500002 4291740606
-0.10077199 -0.086889558 0.54400003 4291610042
-0.099737763 -0.086888455 0.54400003 4292070593
-0.0987036 -0.086887389 0.54400003 4291412406
-0.097489923 -0.086726576 0.54299998 4291346613
-0.096280098 -0.086565793 0.542 4291215547
-0.095074125 -0.086405009 0.54100001 4291741891
-0.094045833 -0.086403944 0.54100001 4291676350
-0.093017571 -0.086402878 0.54100001 4291610557
-0.091989383 -0.086401828 0.54100001 4291610557
-0.090961225 -0.086400777 0.54100001 4291807936
-0.089766875 -0.086240008 0.54000002 4291742143
-0.088740699 -0.086238965 0.54000002 4291807936
-0.08771456 -0.086237915 0.54000002 4291544760
-0.086688481 -0.086236872 0.54000002 4291478967
-0.085662432 -0.086235836 0.54000002 4291347136
-0.084636435 -0.086234801 0.54000002 4291347136
-0.083610483 -0.086233772 0.54000002 4291281854
-0.082584575 -0.086232744 0.54000002 4291873991
-0.081558719 -0.086231738 0.54000002 4291545793
-0.080980271 -0.086709768 0.54299998 4291545793
-0.079801574 -0.086549081 0.542 4291414975
-0.078772038 -0.086548075 0.542 4291414975
-0.077742554 -0.086547069 0.542 4291479487
-0.0767131 -0.086546093 0.542 4291545280
-0.075823337 -0.086704776 0.54299998 4291938754
-0.074792065 -0.0867038 0.54299998 4292004548
-0.073081642 -0.085904457 0.53799999 4291938754
-0.072059959 -0.085903496 0.53799999 4292004548
-0.071038306 -0.085902549 0.53799999 4291938754
-0.070146851 -0.086061262 0.53899997 4292004548
-0.069251642 -0.086220011 0.54000002 4291939268
-0.068226323 -0.086219072 0.54000002 4291939268
-0.067201041 -0.086218163 0.54000002 4291938752
-0.066298358 -0.086376913 0.54100001 4292070595
-0.065271258 -0.086375996 0.54100001 4291872709
-0.064362943 -0.086534746 0.542 4292464847
-0.063334033 -0.086533859 0.542 4292465099
-0.062305156 -0.08653298 0.542 4292399305
-0.061276313 -0.086532108 0.542 4292267719
-0.060247514 -0.086531237 0.542 4292465099
-0.059218746 -0.08653038 0.542 4292465349
-0.058190025 -0.086529538 0.542 4292597191
-0.057161335 -0.086528718 0.542 4292530112
-0.056132685 -0.086527891 0.542 4292858821
-0.05520574 -0.086686708 0.54299998 4292332747
-0.05427504 -0.086845562 0.54400003 4292266954
-0.053242695 -0.086844772 0.54400003 4292136640
-0.052306358 -0.087003618 0.54500002 4292333762
-0.051366277 -0.087162487 0.546 4292202692
-0.05033024 -0.087161705 0.546 4292268485
-0.049294241 -0.08716096 0.546 4292136386
-0.048258275 -0.087160215 0.546 4292136386
-0.047222342 -0.087159485 0.546 4292268489
-0.046271037 -0.087318398 0.54699999 4292334283
-0.045398656 -0.08763694 0.54900002 4292268489
-0.044357132 -0.087636255 0.54900002 4292202440
-0.043315634 -0.087635562 0.54900002 4292202694
-0.042274166 -0.087634884 0.54900002 4292268487
-0.041232735 -0.087634221 0.54900002 4292268489
-0.040191326 -0.087633573 0.54900002 4292136647
-0.034438081 -0.088906869 0.55699998 4291609790
-0.033261824 -0.088587068 0.55500001 4292136649
-0.032209247 -0.088586502 0.55500001 4292531407
-0.031156696 -0.088585958 0.55500001 4292268487
-0.030212656 -0.088904671 0.55699998 4292268487
-0.029156359 -0.088904157 0.55699998 4292268489
-0.028100085 -0.088903651 0.55699998 4292005061
-0.027043838 -0.088903166 0.55699998 4292267717
-0.025987603 -0.08890269 0.55699998 4292465097
-0.024931394 -0.088902235 0.55699998 4292332995
-0.024046658 -0.089540213 0.56099999 4292530373
-0.022982905 -0.089539781 0.56099999 4292268487
-0.02191917 -0.089539371 0.56099999 4292334281
-0.020929798 -0.089858182 0.56300002 4292202190
-0.019897586 -0.090017393 0.56400001 4292531155
-0.018861596 -0.090176612 0.565 4292334281
-0.017790344 -0.090176247 0.565 4292334281
-0.016807882 -0.090654716 0.56800002 4292334535
-0.015758665 -0.090813987 0.56900001 4292334535
-0.014679871 -0.090813667 0.56900001 4292005061
-0.013696707 -0.091451764 0.57300001 4292136647
-0.012654372 -0.091770664 0.57499999 4292136134
-0.011564244 -0.091770388 0.57499999 4292136134
-0.010474125 -0.09177012 0.57499999 4292070856
-0.0094166584 -0.092089072 0.57700002 4292005063
-0.13787442 -0.089835346 0.56900001 4291411906
-0.13631061 -0.089518569 0.56699997 4291609542
-0.13523147 -0.089517549 0.56699997 4291082942
-0.13391575 -0.08935865 0.56599998 4291346113
-0.1326039 -0.089199752 0.565 4291346113
-0.13152866 -0.089198716 0.565 4291346113
-0.13022257 -0.08903981 0.56400001 4291147969
-0.12869132 -0.088723011 0.56199998 4291279555
-0.12694067 -0.088248372 0.55900002 4291148987
-0.12587699 -0.088247322 0.55900002 4291412158
-0.12481338 -0.088246264 0.55900002 4290886837
-0.12374979 -0.088245213 0.55900002 4291149752
-0.12202781 -0.087770566 0.55599999 4291412410
-0.12075244 -0.087611638 0.55500001 4291412410
-0.11926522 -0.087294854 0.55299997 4291083194
-0.11799944 -0.087135926 0.55199999 4291148987
-0.11694936 -0.087134868 0.55199999 4290885551
-0.11589933 -0.087133795 0.55199999 4291411895
-0.11484934 -0.087132715 0.55199999 4291215036
-0.11379939 -0.087131634 0.55199999 4291477952
-0.11254524 -0.086972721 0.551 4291347388
-0.11129493 -0.086813785 0.55000001 4291478717
-0.11004846 -0.086654872 0.54900002 4291149500
-0.10880583 -0.086495951 0.54799998 4291281342
-0.10737041 -0.086179204 0.546 4291543997
-0.10633212 -0.086178124 0.546 4291215032
-0.1052939 -0.086177044 0.546 4291149493
-0.10425569 -0.086175971 0.546 4291412408
-0.10321754 -0.086174898 0.546 4291083961
-0.10143087 -0.085542507 0.542 4291149754
-0.10040042 -0.085541442 0.542 4291215286
-0.09937001 -0.085540384 0.542 4291807166
-0.098339647 -0.085539311 0.542 4291216060
-0.097309321 -0.085538246 0.542 4291216060
-0.095923774 -0.085221551 0.54000002 4291347134
-0.094897337 -0.085220501 0.54000002 4291676098
-0.09387093 -0.08521945 0.54000002 4291742145
-0.092844591 -0.085218392 0.54000002 4291676096
-0.091988318 -0.08537516 0.54100001 4291346617
-0.09096016 -0.085374102 0.54100001 4291609790
-0.089765817 -0.085215248 0.54000002 4291675583
-0.088739648 -0.08521422 0.54000002 4292004548
-0.087713532 -0.085213177 0.54000002 4291807164
-0.086687446 -0.085212149 0.54000002 4291675835
-0.085661411 -0.085211128 0.54000002 4291215295
-0.084635414 -0.0852101 0.54000002 4291478467
-0.083609469 -0.085209094 0.54000002 4291281594
-0.082583569 -0.085208073 0.54000002 4291610303
-0.081859767 -0.085522644 0.542 4291216829
-0.080979288 -0.085679427 0.54299998 4291282878
-0.079800591 -0.08552064 0.542 4291085244
-0.078771047 -0.085519649 0.542 4291216831
-0.077741563 -0.085518658 0.542 4291545280
-0.076853648 -0.085675448 0.54299998 4291676609
-0.075822353 -0.08567448 0.54299998 4291676100
-0.074791096 -0.085673496 0.54299998 4291544258
-0.073624037 -0.085514762 0.542 4291543997
-0.072594762 -0.085513815 0.542 4291807168
-0.07130146 -0.08519733 0.54000002 4291807166
-0.070276067 -0.085196383 0.54000002 4291675837
-0.06925071 -0.085195459 0.54000002 4291676350
-0.068225406 -0.085194536 0.54000002 4291807936
-0.067200132 -0.085193619 0.54000002 4291872959
-0.066297449 -0.085350484 0.54100001 4291938752
-0.065270364 -0.08534959 0.54100001 4291477952
-0.064362064 -0.085506454 0.542 4292070089
-0.063333154 -0.085505575 0.542 4292136649
-0.062304284 -0.085504703 0.542 4292202442
-0.06127546 -0.085503839 0.542 4291807938
-0.060246665 -0.085502982 0.542 4292005061
-0.059217907 -0.085502133 0.542 4292004546
-0.058189191 -0.085501306 0.542 4292267717
-0.057160515 -0.085500464 0.542 4292201409
-0.056235433 -0.085657403 0.54299998 4292201409
-0.055204928 -0.085656591 0.54299998 4292136136
-0.054274242 -0.08581356 0.54400003 4292004550
-0.053241916 -0.08581277 0.54400003 4291543997
-0.05230559 -0.085969739 0.54500002 4291938754
-0.051365506 -0.0861267 0.546 4292070341
-0.050329488 -0.08612594 0.546 4292136134
-0.049293499 -0.086125195 0.546 4292136388
-0.048257541 -0.086124457 0.546 4292136388
-0.047221623 -0.086123735 0.546 4292333512
-0.046524093 -0.086753957 0.55000001 4292267719
-0.045480654 -0.086753272 0.55000001 4292069568
