# .PCD v0.7 - Point Cloud Data file format
VERSION 0.7
FIELDS x y z rgba
SIZE 4 4 4 4
TYPE F F F U
COUNT 1 1 1 1
WIDTH 1033
HEIGHT 1
VIEWPOINT 0 0 0 1 0 0 0
POINTS 1033
DATA ascii
-0.089803226 -0.10251402 0.53399998 4291807685
-0.088788353 -0.10251284 0.53399998 4292005063
-0.087773517 -0.10251167 0.53399998 4292268235
-0.087571084 -0.10347035 0.53899997 4292333258
-0.086546823 -0.10346918 0.53899997 4292333258
-0.085522607 -0.10346801 0.53899997 4292267465
-0.084498428 -0.10346684 0.53899997 4292333258
-0.083629169 -0.10365765 0.54000002 4292267465
-0.082603171 -0.10365648 0.54000002 4292267465
-0.081577204 -0.10365533 0.54000002 4292399051
-0.080551282 -0.10365418 0.54000002 4292728016
-0.18809094 -0.10366403 0.54500002 4290888129
-0.18705411 -0.10366428 0.54500002 4290953922
-0.18499331 -0.1030939 0.542 4290624705
-0.18328331 -0.10271367 0.54000002 4290690498
-0.18191837 -0.10252361 0.53899997 4290690750
-0.18055722 -0.10233352 0.53799999 4290493371
-0.17919978 -0.10214338 0.537 4290886594
-0.17784615 -0.10195323 0.53600001 4291018436
-0.17649627 -0.10176302 0.53500003 4290886846
-0.17515017 -0.10157278 0.53399998 4291084481
-0.17413393 -0.10157271 0.53399998 4290888379
-0.17279346 -0.10138243 0.53299999 4291414979
-0.17145678 -0.10119209 0.53200001 4290822586
-0.17012388 -0.10100172 0.53100002 4290822586
-0.16911322 -0.10100153 0.53100002 4291019197
-0.16778599 -0.10081109 0.52999997 4291084990
-0.16677718 -0.10081086 0.52999997 4290624443
-0.1657684 -0.10081057 0.52999997 4290624443
-0.16475958 -0.10081027 0.52999997 4290755507
-0.16344176 -0.10061973 0.52899998 4290887350
-0.1624348 -0.10061938 0.52899998 4290691002
-0.16051237 -0.10004836 0.52600002 4291151553
-0.15951112 -0.10004796 0.52600002 4290690750
-0.15820846 -0.099857293 0.52499998 4290822336
-0.15720907 -0.099856824 0.52499998 4290952891
-0.15620968 -0.099856347 0.52499998 4291347649
-0.15491466 -0.099665642 0.52399999 4291347388
-0.15391713 -0.099665098 0.52399999 4291544510
-0.15291964 -0.099664524 0.52399999 4291149252
-0.15192211 -0.099663951 0.52399999 4291346632
-0.15092462 -0.099663347 0.52399999 4291149502
-0.14964098 -0.099472515 0.523 4291347138
-0.14864539 -0.099471875 0.523 4290886846
-0.14764977 -0.099471204 0.523 4291084481
-0.14665416 -0.099470504 0.523 4291018945
-0.1459371 -0.099659987 0.52399999 4290953152
-0.1449396 -0.099659257 0.52399999 4290822336
-0.14421682 -0.09984868 0.52499998 4290953922
-0.14321744 -0.099847913 0.52499998 4291347136
-0.13743088 -0.099273279 0.52200001 4291806916
-0.13617592 -0.099082224 0.52100003 4291282878
-0.13518424 -0.09908136 0.52100003 4291151036
-0.13419259 -0.099080458 0.52100003 4290888383
-0.13422361 -0.099840224 0.52499998 4291151299
-0.13297059 -0.099649124 0.52399999 4291281854
-0.1319733 -0.099648185 0.52399999 4291413440
-0.13122596 -0.099837393 0.52499998 4291675335
-0.13022678 -0.099836424 0.52499998 4291675335
-0.12824306 -0.099074796 0.52100003 4291215810
-0.12725154 -0.09907382 0.52100003 4291676361
-0.12626003 -0.099072814 0.52100003 4291217344
-0.12526856 -0.099071808 0.52100003 4291283137
-0.12451565 -0.099260941 0.52200001 4291479235
-0.12352234 -0.099259906 0.52200001 4291676613
-0.12276375 -0.099449009 0.523 4291676100
-0.12200142 -0.099638119 0.52399999 4291610051
-0.12100437 -0.099637046 0.52399999 4291610051
-0.12000736 -0.099635981 0.52399999 4291544258
-0.11901035 -0.099634893 0.52399999 4291281340
-0.11823861 -0.099823952 0.52499998 4291676098
-0.11723977 -0.099822849 0.52499998 4291676100
-0.11624098 -0.099821746 0.52499998 4291807687
-0.11524221 -0.099820636 0.52499998 4291742402
-0.11424347 -0.099819519 0.52499998 4291676609
-0.11324476 -0.099818394 0.52499998 4291676611
-0.1124599 -0.10000741 0.52600002 4291808198
-0.11145935 -0.10000627 0.52600002 4291544512
-0.11087881 -0.10038538 0.528 4292268235
-0.10987455 -0.10038425 0.528 4291741639
-0.10887031 -0.10038309 0.528 4291741639
-0.1074575 -0.10000169 0.52600002 4291938764
-0.10645714 -0.10000055 0.52600002 4292267986
-0.10585776 -0.10037959 0.528 4291872711
-0.10485366 -0.10037845 0.528 4291872711
-0.1038496 -0.10037728 0.528 4291872709
-0.10284556 -0.10037611 0.528 4292070089
-0.10203444 -0.10056504 0.52899998 4291939006
-0.10102858 -0.10056388 0.52899998 4292267715
-0.10002276 -0.1005627 0.52899998 4292004298
-0.099016987 -0.10056154 0.52899998 4291938505
-0.097188897 -0.10074928 0.52999997 4292267467
-0.095999852 -0.10055802 0.52899998 4291742155
-0.094994225 -0.10055685 0.52899998 4291939534
-0.094521634 -0.10112593 0.53200001 4291743688
-0.093510389 -0.10112476 0.53200001 4292138446
-0.092673019 -0.10131367 0.53299999 4291742407
-0.091659926 -0.10131247 0.53299999 4291742407
-0.090816952 -0.10150139 0.53399998 4291807685
-0.089802064 -0.10150023 0.53399998 4292070856
-0.088787176 -0.10149905 0.53399998 4291939016
-0.088101089 -0.10187802 0.53600001 4292070602
-0.086920045 -0.10168681 0.53500003 4292136136
-0.085903399 -0.10168564 0.53500003 4292267465
-0.084886767 -0.10168449 0.53500003 4292136138
-0.084497266 -0.10244357 0.53899997 4292136138
-0.083628006 -0.10263249 0.54000002 4292136136
-0.082602017 -0.10263135 0.54000002 4292267465
-0.081727132 -0.10282025 0.54100001 4292136649
-0.18705438 -0.10262974 0.54500002 4290756543
-0.18533483 -0.10225331 0.54299998 4290361787
-0.18430172 -0.1022535 0.54299998 4290690496
-0.18191849 -0.10150039 0.53899997 4290690748
-0.1808929 -0.1015005 0.53899997 4290624955
-0.17919983 -0.10112394 0.537 4291083455
-0.17817795 -0.10112397 0.537 4291281090
-0.17682615 -0.10093567 0.53600001 4291017662
-0.17515008 -0.100559 0.53399998 4291149504
-0.17413382 -0.10055894 0.53399998 4290626236
-0.17279336 -0.10037053 0.53299999 4291020994
-0.17145662 -0.10018208 0.53200001 4289772467
-0.1701237 -0.099993601 0.53100002 4289903796
-0.16911303 -0.099993408 0.53100002 4290557365
-0.16810232 -0.099993184 0.53100002 4291083709
-0.16709161 -0.099992923 0.53100002 4290886587
-0.16608086 -0.099992633 0.53100002 4290886587
-0.16475922 -0.099803999 0.52999997 4290821043
-0.16375038 -0.099803664 0.52999997 4291018166
-0.16243444 -0.099614985 0.52899998 4290559932
-0.16112225 -0.09942627 0.528 4290625725
-0.15981393 -0.099237554 0.52700001 4290165689
-0.15850937 -0.099048816 0.52600002 4290560447
-0.15720858 -0.098860011 0.52499998 4290952889
-0.15620916 -0.098859526 0.52499998 4290952889
-0.15520974 -0.098859005 0.52499998 4291017914
-0.1542103 -0.098858453 0.52499998 4291149500
-0.15291905 -0.098669596 0.52399999 4290754744
-0.15192151 -0.098669007 0.52399999 4291149502
-0.15092398 -0.098668396 0.52399999 4291215036
-0.14992647 -0.098667771 0.52399999 4291477952
-0.14892893 -0.098667122 0.52399999 4290886846
-0.14793141 -0.098666452 0.52399999 4291084481
-0.1469339 -0.098665744 0.52399999 4290822849
-0.14593638 -0.098665044 0.52399999 4290625727
-0.14521547 -0.098852582 0.52499998 4290888383
-0.14421606 -0.09885183 0.52499998 4290954176
-0.14321665 -0.098851062 0.52499998 4291347136
-0.1416755 -0.098473698 0.523 4291478465
-0.14067991 -0.098472886 0.523 4291345852
-0.13968438 -0.098472089 0.523 4291280059
-0.1386888 -0.098471239 0.523 4291083448
-0.13795656 -0.098658659 0.52399999 4291806914
-0.13695914 -0.098657787 0.52399999 4291216833
-0.13544282 -0.098280355 0.52200001 4291019197
-0.13444924 -0.098279461 0.52200001 4290822588
-0.13422266 -0.098843358 0.52499998 4291085504
-0.13296966 -0.098654158 0.52399999 4291151289
-0.13197234 -0.098653212 0.52399999 4291151289
-0.13097504 -0.098652273 0.52399999 4291215297
-0.12997775 -0.098651312 0.52399999 4291215297
-0.12898049 -0.098650321 0.52399999 4290886585
-0.12725054 -0.098084547 0.52100003 4291347136
-0.12625903 -0.098083556 0.52100003 4291151299
-0.12526755 -0.098082542 0.52100003 4291282885
-0.12475316 -0.098458037 0.523 4291479748
-0.12375792 -0.098457009 0.523 4291479748
-0.12299745 -0.098644219 0.52399999 4291479237
-0.12200035 -0.098643161 0.52399999 4291479237
-0.12123422 -0.09883035 0.52499998 4291347395
-0.12023529 -0.098829284 0.52499998 4291413444
-0.11923639 -0.098828204 0.52499998 4291148989
-0.11823752 -0.098827116 0.52499998 4291412160
-0.11723868 -0.098826021 0.52499998 4290953152
-0.11623988 -0.098824926 0.52499998 4291084994
-0.1152411 -0.098823823 0.52499998 4291085756
-0.11424236 -0.09882272 0.52499998 4291283391
-0.11324365 -0.098821595 0.52499998 4291282624
-0.1112463 -0.098819338 0.52499998 4291084479
-0.11087768 -0.099382877 0.528 4291676359
-0.10886915 -0.099380597 0.528 4291741893
-0.10745636 -0.099003017 0.52600002 4291938505
-0.10645597 -0.099001855 0.52600002 4291872711
-0.10585662 -0.099377133 0.528 4291675587
-0.1048525 -0.099375971 0.528 4291806916
-0.10384843 -0.099374816 0.528 4291806662
-0.10303918 -0.099561863 0.52899998 4292004298
-0.10203327 -0.099560685 0.52899998 4291939266
-0.10102741 -0.099559531 0.52899998 4291939266
-0.1000216 -0.099558368 0.52899998 4291807687
-0.099202983 -0.099745385 0.52999997 4291807687
-0.098195337 -0.099744223 0.52999997 4291478213
-0.097187728 -0.099743046 0.52999997 4291807435
-0.09599869 -0.099553704 0.52899998 4291479750
-0.09499304 -0.09955252 0.52899998 4291742923
-0.09452045 -0.10011591 0.53200001 4291547079
-0.09350919 -0.10011474 0.53200001 4291481286
-0.092671849 -0.10030176 0.53299999 4291414979
-0.091658756 -0.10030059 0.53299999 4291612102
-0.09081579 -0.1004876 0.53399998 4291873991
-0.089800879 -0.10048643 0.53399998 4291742405
-0.088786013 -0.10048527 0.53399998 4291741893
-0.088099934 -0.10086048 0.53600001 4292004809
-0.086918876 -0.10067115 0.53500003 4291741893
-0.085902229 -0.10066998 0.53500003 4292070602
-0.08488562 -0.10066883 0.53500003 4291939786
-0.08386907 -0.1006677 0.53500003 4291939786
-0.083626859 -0.10160736 0.54000002 4291742405
-0.082600869 -0.10160623 0.54000002 4291808198
-0.081725992 -0.10179324 0.54100001 4291741891
-0.1870546 -0.10159517 0.54500002 4291018945
-0.18567632 -0.10140895 0.54400003 4290822336
-0.18294422 -0.10047705 0.53899997 4291085508
-0.18191862 -0.10047717 0.53899997 4290822334
-0.18089297 -0.10047726 0.53899997 4290888383
-0.17919989 -0.1001045 0.537 4290952639
-0.17817798 -0.10010452 0.537 4290952639
-0.17682612 -0.09991809 0.53600001 4291017662
-0.17515005 -0.099545211 0.53399998 4291149504
-0.17413376 -0.099545144 0.53399998 4290822334
-0.17279322 -0.099358618 0.53299999 4291546057
-0.1711342 -0.098985657 0.53100002 4290692022
-0.17012352 -0.098985456 0.53100002 4290692022
-0.16911282 -0.09898527 0.53100002 4290756543
-0.1681021 -0.098985039 0.53100002 4291085508
-0.16709134 -0.098984763 0.53100002 4291084477
-0.16608058 -0.09898448 0.53100002 4291281856
-0.16506977 -0.098984152 0.53100002 4290952889
-0.16375002 -0.098797388 0.52999997 4291018938
-0.16274109 -0.098797016 0.52999997 4290822588
-0.16112185 -0.098423794 0.528 4290954174
-0.15981348 -0.098236956 0.52700001 4290888129
-0.15850891 -0.098050103 0.52600002 4291348680
-0.15720811 -0.09786322 0.52499998 4290887350
-0.15620865 -0.097862713 0.52499998 4290755507
-0.1552092 -0.097862177 0.52499998 4290887100
-0.15420973 -0.097861625 0.52499998 4291281602
-0.15321031 -0.097861074 0.52499998 4290887096
-0.15221083 -0.09786047 0.52499998 4291347647
-0.15121141 -0.097859859 0.52499998 4291347388
-0.1499258 -0.09767282 0.52399999 4291347388
-0.14892827 -0.097672172 0.52399999 4291149502
-0.14793071 -0.097671486 0.52399999 4291281088
-0.14693317 -0.097670786 0.52399999 4290822334
-0.14593565 -0.097670071 0.52399999 4290756541
-0.14521471 -0.097855724 0.52499998 4291019197
-0.1439406 -0.097668588 0.52399999 4291084990
-0.14294308 -0.097667821 0.52399999 4291347136
-0.14194559 -0.097667038 0.52399999 4291544258
-0.14041011 -0.097293451 0.52200001 4291478465
-0.13941649 -0.097292639 0.52200001 4291347136
-0.13868798 -0.097478174 0.523 4291281342
-0.13795571 -0.097663701 0.52399999 4291807687
-0.13695829 -0.097662829 0.52399999 4291282372
-0.13544191 -0.09728919 0.52200001 4291019199
-0.13444833 -0.097288303 0.52200001 4291019197
-0.13422176 -0.097846508 0.52499998 4291282626
-0.13322249 -0.097845584 0.52499998 4291216310
-0.13222323 -0.097844638 0.52499998 4291282103
-0.13097407 -0.097657308 0.52399999 4291281602
-0.12997676 -0.097656339 0.52399999 4291215808
-0.12897952 -0.097655378 0.52399999 4290888379
-0.12749377 -0.09728165 0.52200001 4290954428
-0.12650037 -0.097280666 0.52200001 4291085506
-0.12550697 -0.09727966 0.52200001 4291217092
-0.12475213 -0.097464986 0.523 4291413953
-0.12375689 -0.097463973 0.523 4291480002
-0.12299639 -0.097649284 0.52399999 4291545030
-0.12223213 -0.097834595 0.52499998 4291413444
-0.12123317 -0.097833537 0.52499998 4291282372
-0.12023422 -0.097832464 0.52499998 4291545543
-0.11923531 -0.097831383 0.52499998 4291018695
-0.11823643 -0.097830303 0.52499998 4291150538
-0.11723758 -0.097829208 0.52499998 4291216583
-0.11623879 -0.09782812 0.52499998 4291545291
-0.11523999 -0.097827017 0.52499998 4291283389
-0.11424123 -0.0978259 0.52499998 4291612354
-0.11324252 -0.09782479 0.52499998 4291743427
-0.11224385 -0.097823672 0.52499998 4291743427
-0.10685959 -0.09837582 0.528 4291676100
-0.10585545 -0.098374672 0.528 4291675846
-0.10564568 -0.099118777 0.53200001 4291939018
-0.104634 -0.099117607 0.53200001 4291939018
-0.1032328 -0.098743834 0.52999997 4292334033
-0.10222499 -0.098742671 0.52999997 4291807938
-0.10121723 -0.098741509 0.52999997 4291742145
-0.1002095 -0.098740324 0.52999997 4291742153
-0.099201798 -0.098739155 0.52999997 4291545030
-0.098194167 -0.098738007 0.52999997 4291479500
-0.097186558 -0.098736845 0.52999997 4292005844
-0.096178979 -0.098735675 0.52999997 4291611591
-0.095171444 -0.098734505 0.52999997 4291874506
-0.094696961 -0.099292219 0.53299999 4291677893
-0.093683787 -0.099291049 0.53299999 4291612100
-0.092844553 -0.099476181 0.53399998 4291874245
-0.091829553 -0.099475019 0.53399998 4292269003
-0.091154762 -0.099846423 0.53600001 4291808198
-0.090472378 -0.1002178 0.53799999 4291676611
-0.089449905 -0.10021663 0.53799999 4291939016
-0.088427499 -0.10021549 0.53799999 4292334031
-0.087405115 -0.10021432 0.53799999 4292070856
-0.086382776 -0.10021317 0.53799999 4292202442
-0.08536046 -0.10021202 0.53799999 4292005581
-0.084808484 -0.10076967 0.54100001 4292268497
-0.083625712 -0.10058226 0.54000002 4292005833
-0.082599722 -0.10058112 0.54000002 4292005833
-0.081724837 -0.10076626 0.54100001 4291808200
-0.080995373 -0.10113763 0.54299998 4292005579
-0.079963803 -0.10113651 0.54299998 4292136647
-0.078932278 -0.10113539 0.54299998 4292202440
-0.077900797 -0.10113426 0.54299998 4291873995
-0.18294433 -0.099453822 0.53899997 4290953406
-0.18191871 -0.099453934 0.53899997 4290295992
-0.18089303 -0.099454023 0.53899997 4290690750
-0.17953362 -0.099269554 0.53799999 4291083709
-0.17817798 -0.099085055 0.537 4291083709
-0.17682609 -0.098900512 0.53600001 4291017662
-0.17547798 -0.098715946 0.53500003 4291017662
-0.17445974 -0.098715857 0.53500003 4290557883
-0.17279309 -0.098346703 0.53299999 4291084227
-0.17113402 -0.097977519 0.53100002 4290954428
-0.17012334 -0.09797734 0.53100002 4290888379
-0.170068 -0.098530665 0.53399998 4290887359
-0.16810185 -0.097976893 0.53100002 4291018945
-0.16709106 -0.097976603 0.53100002 4290821051
-0.16608027 -0.097976312 0.53100002 4290952893
-0.16506945 -0.097975992 0.53100002 4290886585
-0.16374964 -0.097791106 0.52999997 4291215549
-0.16274072 -0.097790726 0.52999997 4290953406
-0.1614266 -0.097605817 0.52899998 4290756028
-0.16011629 -0.097420864 0.528 4290690496
-0.15850843 -0.097051397 0.52600002 4291085254
-0.15720761 -0.096866399 0.52499998 4290691002
-0.15620816 -0.0968659 0.52499998 4290624953
-0.15520869 -0.096865378 0.52499998 4290755259
-0.1542092 -0.096864805 0.52499998 4290952639
-0.15320975 -0.096864246 0.52499998 4290624441
-0.15221024 -0.096863642 0.52499998 4290953406
-0.15121077 -0.096863031 0.52499998 4290690748
-0.15021129 -0.096862383 0.52499998 4290954176
-0.14921181 -0.09686172 0.52499998 4290690237
-0.14821234 -0.096861042 0.52499998 4290953152
-0.14721288 -0.096860342 0.52499998 4290886333
-0.14621341 -0.096859626 0.52499998 4291149504
-0.14521398 -0.096858889 0.52499998 4291149500
-0.14393982 -0.096673653 0.52399999 4291215549
-0.14294231 -0.096672878 0.52399999 4290887100
-0.14140303 -0.096303113 0.52200001 4291281602
-0.14040929 -0.096302293 0.52200001 4291085504
-0.13941562 -0.096301489 0.52200001 4290888381
-0.1386871 -0.096485123 0.523 4290756541
-0.13795485 -0.096668757 0.52399999 4290954176
-0.13695739 -0.096667893 0.52399999 4291347395
-0.13595997 -0.096667014 0.52399999 4291215808
-0.13522013 -0.096850589 0.52499998 4290756282
-0.13422082 -0.096849665 0.52499998 4290953404
-0.13322155 -0.096848741 0.52499998 4290951859
-0.13222229 -0.096847795 0.52499998 4291412410
-0.13097312 -0.096662372 0.52399999 4291413444
-0.1299758 -0.096661411 0.52399999 4291281602
-0.12897854 -0.096660443 0.52399999 4290888894
-0.12773702 -0.096474975 0.523 4290823101
-0.12674171 -0.096473999 0.523 4290560195
-0.1257464 -0.096472993 0.523 4290757574
-0.12475111 -0.096471965 0.523 4291018686
-0.12375586 -0.096470959 0.523 4291479237
-0.12299534 -0.09665437 0.52399999 4291479237
-0.12223107 -0.096837781 0.52499998 4291413444
-0.12123211 -0.096836723 0.52499998 4291085506
-0.12023315 -0.096835651 0.52499998 4290954176
-0.11923423 -0.096834585 0.52499998 4290887107
-0.11823536 -0.096833512 0.52499998 4291282122
-0.1172365 -0.096832417 0.52499998 4291282887
-0.11623768 -0.096831314 0.52499998 4291282887
-0.11523889 -0.096830241 0.52499998 4290954426
-0.11445775 -0.09701357 0.52600002 4291414977
-0.11245652 -0.097011335 0.52600002 4291414979
-0.10786264 -0.097374544 0.528 4291413442
-0.10685846 -0.097373404 0.528 4291676613
-0.1058543 -0.097372249 0.528 4291741639
-0.10564451 -0.098108761 0.53200001 4291675846
-0.10463284 -0.098107606 0.53200001 4291413190
-0.10362121 -0.098106459 0.53200001 4291873741
-0.10241672 -0.09792088 0.53100002 4291479748
-0.10121607 -0.097735301 0.52999997 4291545541
-0.10020834 -0.097734146 0.52999997 4291414727
-0.099200666 -0.097732991 0.52999997 4291282885
-0.098192997 -0.097731821 0.52999997 4291348680
-0.097368754 -0.097915061 0.53100002 4291677645
-0.096540771 -0.098098315 0.53200001 4291216831
-0.095529422 -0.098097146 0.53200001 4291545795
-0.094695799 -0.098280363 0.53299999 4291544260
-0.093858398 -0.098463587 0.53399998 4291741639
-0.092843384 -0.098462448 0.53399998 4292005061
-0.092172332 -0.098830059 0.53600001 4292070854
-0.091153599 -0.098828897 0.53600001 4291939014
-0.090471223 -0.099196501 0.53799999 4291939014
-0.089448757 -0.099195346 0.53799999 4291939016
-0.088426344 -0.099194184 0.53799999 4292004809
-0.087403961 -0.099193029 0.53799999 4292070343
-0.086381629 -0.099191889 0.53799999 4292136136
-0.085676648 -0.099559486 0.54000002 4291545028
-0.084650591 -0.099558346 0.54000002 4292137164
-0.083779424 -0.099741563 0.54100001 4291743688
-0.082904503 -0.09992478 0.542 4291743688
-0.081874773 -0.09992367 0.542 4291742405
-0.080994233 -0.10010689 0.54299998 4291808198
-0.079962678 -0.10010577 0.54299998 4292004548
-0.07893116 -0.10010465 0.54299998 4292333512
-0.077899687 -0.10010354 0.54299998 4291940040
-0.18328391 -0.098613203 0.54000002 4291084479
-0.18191878 -0.098430686 0.53899997 4290491838
-0.18089309 -0.098430753 0.53899997 4290886596
-0.17953365 -0.098248184 0.53799999 4290952893
-0.17850977 -0.098248191 0.53799999 4291807946
-0.17748582 -0.098248139 0.53799999 4291478717
-0.17646189 -0.098248079 0.53799999 4291544510
-0.1754379 -0.098247983 0.53799999 4290887107
-0.1744139 -0.098247856 0.53799999 4290887107
-0.17210069 -0.097517222 0.53399998 4290756543
-0.17108428 -0.097517036 0.53399998 4291085508
-0.17006776 -0.097516805 0.53399998 4290888131
-0.16841815 -0.097151332 0.53200001 4290953924
-0.16740543 -0.097151056 0.53200001 4290953406
-0.1663927 -0.097150743 0.53200001 4290953406
-0.16506909 -0.096967794 0.53100002 4291019451
-0.16405825 -0.096967436 0.53100002 4291085244
-0.16304736 -0.096967056 0.53100002 4290624957
-0.16173132 -0.096784018 0.52999997 4290493371
-0.16072232 -0.096783563 0.52999997 4290689983
-0.15911062 -0.096417889 0.528 4291150534
-0.15810546 -0.096417405 0.528 4291085244
-0.15680271 -0.096234292 0.52700001 4291151038
-0.15550379 -0.096051149 0.52600002 4290821053
-0.15450236 -0.09605059 0.52600002 4290886846
-0.15320912 -0.09586741 0.52499998 4290821055
-0.15220961 -0.095866799 0.52499998 4291084227
-0.15121014 -0.095866188 0.52499998 4290756030
-0.15021063 -0.095865555 0.52499998 4291216581
-0.14921114 -0.095864885 0.52499998 4291084477
-0.14821163 -0.095864192 0.52499998 4291084477
-0.14721218 -0.095863499 0.52499998 4291017664
-0.14621268 -0.095862776 0.52499998 4291215043
-0.14521323 -0.095862038 0.52499998 4291018938
-0.14393906 -0.095678687 0.52399999 4291347647
-0.14294153 -0.095677927 0.52399999 4291018686
-0.1414022 -0.095311947 0.52200001 4291281602
-0.1404085 -0.095311157 0.52200001 4291085242
-0.1394148 -0.095310338 0.52200001 4291151036
-0.13895147 -0.095674679 0.52399999 4291018686
-0.13821726 -0.095856391 0.52499998 4291018686
-0.13721788 -0.095855519 0.52499998 4291281854
-0.13621856 -0.09585464 0.52499998 4291545282
-0.13521922 -0.095853731 0.52499998 4291216060
-0.13421991 -0.095852837 0.52499998 4291347647
-0.1332206 -0.095851898 0.52499998 4290821055
-0.13222134 -0.095850952 0.52499998 4290952641
-0.1312221 -0.095850021 0.52499998 4291347395
-0.13022287 -0.095849045 0.52499998 4291413444
-0.12897755 -0.095665514 0.52399999 4290954176
-0.12798028 -0.095664531 0.52399999 4290888383
-0.12674071 -0.095480978 0.523 4291085002
-0.12574539 -0.095479973 0.523 4291282637
-0.12475011 -0.095478967 0.523 4291018434
-0.12375483 -0.095477939 0.523 4291413192
-0.12299433 -0.095659457 0.52399999 4291347649
-0.12223002 -0.095840961 0.52499998 4291413442
-0.12123103 -0.095839918 0.52499998 4290953404
-0.12023208 -0.095838845 0.52499998 4290887611
-0.11923316 -0.095837787 0.52499998 4291084994
-0.11823428 -0.095836729 0.52499998 4291479496
-0.11745873 -0.09601818 0.52600002 4291413442
-0.11645799 -0.096017092 0.52600002 4291413442
-0.1154573 -0.096016005 0.52600002 4291085504
-0.11445663 -0.096014909 0.52600002 4291546055
-0.11345602 -0.096013799 0.52600002 4291676609
-0.10886573 -0.096373245 0.528 4291151551
-0.1078615 -0.096372105 0.528 4291282372
-0.10685731 -0.09637098 0.528 4291611337
-0.10685557 -0.097282432 0.53299999 4291676100
-0.10584194 -0.09728127 0.53299999 4291610051
-0.10463169 -0.097097613 0.53200001 4291478983
-0.10362004 -0.097096451 0.53200001 4291873741
-0.10241556 -0.096912786 0.53100002 4291545028
-0.10140589 -0.096911632 0.53100002 4291479235
-0.10039626 -0.096910484 0.53100002 4291479235
-0.099199496 -0.096726812 0.52999997 4291479235
-0.09819185 -0.09672565 0.52999997 4291479750
-0.0973676 -0.096907005 0.53100002 4291940301
-0.096721075 -0.097270854 0.53299999 4291742908
-0.095887393 -0.097452179 0.53399998 4291874495
-0.094872296 -0.097451031 0.53399998 4291478983
-0.093857251 -0.097449884 0.53399998 4291545032
-0.093016095 -0.097631216 0.53500003 4291807938
-0.09217117 -0.097812541 0.53600001 4292005061
-0.091152437 -0.097811386 0.53600001 4291873993
-0.090470061 -0.098175205 0.53799999 4292268751
-0.089447618 -0.098174058 0.53799999 4291939014
-0.088425197 -0.098172911 0.53799999 4291807685
-0.087402813 -0.098171748 0.53799999 4291939016
-0.086380474 -0.098170608 0.53799999 4292202444
-0.085675515 -0.098534435 0.54000002 4291873991
-0.084649451 -0.098533288 0.54000002 4292202955
-0.083623454 -0.098532178 0.54000002 4291743429
-0.082750432 -0.098713502 0.54100001 4291743429
-0.081873648 -0.098894835 0.542 4291939268
-0.080993123 -0.099076189 0.54299998 4291807938
-0.079961568 -0.099075064 0.54299998 4291939268
-0.078784704 -0.098891497 0.542 4292531405
-0.077755138 -0.098890409 0.542 4292005061
-0.18225642 -0.097588152 0.54000002 4290557881
-0.18122877 -0.097588211 0.54000002 4290886846
-0.17953365 -0.097226791 0.53799999 4290887096
-0.17850976 -0.097226784 0.53799999 4291281854
-0.17748578 -0.097226739 0.53799999 4290756282
-0.17646183 -0.097226672 0.53799999 4291151040
-0.17543778 -0.09722656 0.53799999 4291018432
-0.17441374 -0.097226411 0.53799999 4291018432
-0.17236556 -0.097226039 0.53799999 4290954176
-0.1694306 -0.096141517 0.53200001 4290822849
-0.1684179 -0.096141271 0.53200001 4290888642
-0.16740514 -0.096140973 0.53200001 4290822334
-0.1663924 -0.09614066 0.53200001 4290954176
-0.1653796 -0.096140325 0.53200001 4291085504
-0.16405787 -0.095959246 0.53100002 4290888381
-0.16273989 -0.095778123 0.52999997 4290493371
-0.16173089 -0.095777713 0.52999997 4290493371
-0.16072187 -0.095777251 0.52999997 4290623676
-0.15971287 -0.095776811 0.52999997 4291281606
-0.15870382 -0.095776305 0.52999997 4291151038
-0.15769479 -0.095775791 0.52999997 4291019451
-0.15579885 -0.095233127 0.52700001 4290624439
-0.1547955 -0.095232554 0.52700001 4290756282
-0.15350039 -0.095051296 0.52600002 4290688699
-0.15249895 -0.095050678 0.52600002 4290820541
-0.15149753 -0.095050059 0.52600002 4290557365
-0.15020999 -0.094868705 0.52499998 4291215295
-0.14921048 -0.094868056 0.52499998 4291018686
-0.14821094 -0.094867356 0.52499998 4291018686
-0.14721145 -0.094866663 0.52499998 4290886333
-0.14621195 -0.094865941 0.52499998 4291149504
-0.14521247 -0.094865188 0.52499998 4290558133
-0.1439383 -0.094683751 0.52399999 4290755511
-0.14294074 -0.094682977 0.52399999 4290755257
-0.14221406 -0.094862886 0.52499998 4290952893
-0.14094566 -0.094681382 0.52399999 4291018938
-0.13994814 -0.094680563 0.52399999 4291281854
-0.13895063 -0.094679721 0.52399999 4291084479
-0.13821639 -0.094859555 0.52499998 4291215808
-0.13721702 -0.094858684 0.52499998 4291281340
-0.13621764 -0.094857797 0.52499998 4291215547
-0.13521829 -0.094856903 0.52499998 4290953143
-0.13421899 -0.094855987 0.52499998 4291216058
-0.13321966 -0.09485507 0.52499998 4290624443
-0.13222042 -0.094854139 0.52499998 4290953152
-0.13122115 -0.094853193 0.52499998 4291282372
-0.13022192 -0.094852224 0.52499998 4291150786
-0.12897657 -0.094670594 0.52399999 4290427830
-0.12797928 -0.094669595 0.52399999 4290888381
-0.12698203 -0.094668619 0.52399999 4291018945
-0.12598479 -0.094667614 0.52399999 4291150788
-0.1249876 -0.0946666 0.52399999 4290755259
-0.12399043 -0.094665594 0.52399999 4291084481
-0.12299328 -0.094664551 0.52399999 4291215549
-0.12222897 -0.094844177 0.52499998 4291347136
-0.12122999 -0.094843127 0.52499998 4291018684
-0.12046005 -0.095022731 0.52600002 4291216062
-0.11945921 -0.095021665 0.52600002 4291478213
-0.11845842 -0.0950206 0.52600002 4291346884
-0.11745765 -0.095019519 0.52600002 4291084479
-0.11667831 -0.095199071 0.52700001 4291281602
-0.1156757 -0.095197991 0.52700001 4291084992
-0.11467313 -0.095196888 0.52700001 4291216579
-0.1116656 -0.095193557 0.52700001 4291149500
-0.11066318 -0.09519244 0.52700001 4291544258
-0.10786037 -0.095369704 0.528 4291085504
-0.10685617 -0.095368564 0.528 4291414725
-0.1060525 -0.095548049 0.52899998 4291480002
-0.10544364 -0.095908158 0.53100002 4291413953
-0.10443386 -0.09590701 0.53100002 4291413442
-0.10361888 -0.096086472 0.53200001 4291479235
-0.10260727 -0.096085325 0.53200001 4291676098
-0.10140475 -0.095903575 0.53100002 4291676098
-0.10039511 -0.095902406 0.53100002 4291676098
-0.099572688 -0.096081868 0.53200001 4291676098
-0.098561242 -0.096080735 0.53200001 4291347395
-0.097549826 -0.096079566 0.53200001 4292005581
-0.096719921 -0.096259028 0.53299999 4291743425
-0.095706679 -0.096257865 0.53299999 4291677632
-0.094871148 -0.09643732 0.53399998 4291282372
-0.093856089 -0.096436158 0.53399998 4291479750
-0.093014933 -0.09661562 0.53500003 4291675583
-0.092170015 -0.096795052 0.53600001 4291675583
-0.091321349 -0.096974492 0.537 4291544258
-0.090468898 -0.097153917 0.53799999 4292004809
-0.089446455 -0.097152777 0.53799999 4291676100
-0.088424049 -0.097151645 0.53799999 4291807687
-0.087401673 -0.097150512 0.53799999 4291741639
-0.086379349 -0.09714938 0.53799999 4291939018
-0.0855157 -0.097328804 0.53899997 4291478983
-0.084491566 -0.097327694 0.53899997 4291676361
-0.083622321 -0.097507142 0.54000002 4291215545
-0.082596347 -0.097506031 0.54000002 4291544510
-0.08187253 -0.097866036 0.542 4291610305
-0.080992013 -0.098045498 0.54299998 4291741891
-0.079960458 -0.098044388 0.54299998 4291872959
-0.078783609 -0.09786272 0.542 4291938752
-0.077754036 -0.09786164 0.542 4291807938
-0.06817773 -0.10200137 0.565 4292004296
-0.06710501 -0.10200035 0.565 4292004296
-0.18225648 -0.096562974 0.54000002 4290689983
-0.18089315 -0.096384183 0.53899997 4290887361
-0.17986736 -0.096384212 0.53899997 4290887861
-0.17850971 -0.096205376 0.53799999 4291151289
-0.17748573 -0.096205324 0.53799999 4291019197
-0.1764617 -0.096205227 0.53799999 4291282626
-0.17543766 -0.096205115 0.53799999 4291018945
-0.17441355 -0.096204966 0.53799999 4291216581
-0.17338949 -0.096204802 0.53799999 4291216833
-0.16873418 -0.095309995 0.53299999 4291282878
-0.1677195 -0.095309697 0.53299999 4290954176
-0.16639206 -0.095130578 0.53200001 4291151299
-0.16537926 -0.095130235 0.53200001 4291085506
-0.16405749 -0.094951041 0.53100002 4290954176
-0.16273949 -0.094771825 0.52999997 4290822334
-0.16173045 -0.094771393 0.52999997 4291085506
-0.16072141 -0.094770946 0.52999997 4290756030
-0.15971236 -0.094770469 0.52999997 4291150788
-0.15870333 -0.094769999 0.52999997 4290888379
-0.15769425 -0.094769455 0.52999997 4290822586
-0.1557983 -0.0942325 0.52700001 4290953654
-0.15479496 -0.094231933 0.52700001 4291085496
-0.15349978 -0.094052538 0.52600002 4291281604
-0.15249835 -0.09405195 0.52600002 4291413190
-0.1514969 -0.094051331 0.52600002 4291018432
-0.15020934 -0.093871877 0.52499998 4291676361
-0.1492098 -0.093871199 0.52499998 4291149502
-0.14821026 -0.093870521 0.52499998 4291149502
-0.14721076 -0.093869828 0.52499998 4291478465
-0.14621122 -0.093869098 0.52499998 4291807687
-0.14521173 -0.093868352 0.52499998 4291149500
-0.14421223 -0.093867607 0.52499998 4291215549
-0.14321274 -0.093866818 0.52499998 4290820801
-0.14248417 -0.094044849 0.52600002 4291084229
-0.14148282 -0.09404403 0.52600002 4291018684
-0.14021434 -0.093864404 0.52499998 4291281856
-0.13921493 -0.093863569 0.52499998 4291084481
-0.13821551 -0.09386272 0.52499998 4291215810
-0.13721612 -0.093861863 0.52499998 4291215547
-0.13621676 -0.093860969 0.52499998 4291083961
-0.13521738 -0.093860067 0.52499998 4290821555
-0.13421808 -0.093859181 0.52499998 4291347899
-0.13321875 -0.093858249 0.52499998 4291018684
-0.13221949 -0.093857318 0.52499998 4291281856
-0.13122019 -0.093856379 0.52499998 4291282374
-0.13022095 -0.093855426 0.52499998 4291150788
-0.12922171 -0.093854442 0.52499998 4291019701
-0.12797831 -0.093674697 0.52399999 4290953908
-0.12698103 -0.093673721 0.52399999 4291019197
-0.1259838 -0.093672715 0.52399999 4291282626
-0.1249866 -0.093671717 0.52399999 4290952639
-0.1239894 -0.093670703 0.52399999 4291215810
-0.12299225 -0.093669683 0.52399999 4291216062
-0.12222793 -0.093847394 0.52499998 4291347649
-0.12122893 -0.093846351 0.52499998 4291084990
-0.12045898 -0.09402407 0.52600002 4291479748
-0.11945815 -0.094023012 0.52600002 4291215808
-0.11845735 -0.094021946 0.52600002 4291084479
-0.11767988 -0.09419962 0.52700001 4291018945
-0.11667721 -0.094198518 0.52700001 4291413703
-0.11567461 -0.094197445 0.52700001 4291018945
-0.11488963 -0.094375096 0.528 4291150788
-0.11388518 -0.094373986 0.528 4291347397
-0.1116645 -0.094193041 0.52700001 4291281856
-0.11066207 -0.094191946 0.52700001 4291676613
-0.10965966 -0.094190821 0.52700001 4291282878
-0.10886347 -0.094368428 0.528 4291480000
-0.10785925 -0.09436731 0.528 4291413953
-0.10685505 -0.09436617 0.528 4291743175
-0.10605137 -0.094543777 0.52899998 4291545280
-0.10524392 -0.094721355 0.52999997 4291545280
-0.10443271 -0.094898947 0.53100002 4291282105
-0.10342296 -0.094897799 0.53100002 4291282105
-0.10241327 -0.094896674 0.53100002 4291610305
-0.10140359 -0.094895519 0.53100002 4292005063
-0.10039396 -0.094894379 0.53100002 4291807168
-0.099571541 -0.095071942 0.53200001 4291807168
-0.098560095 -0.095070802 0.53200001 4291413190
-0.097548679 -0.095069654 0.53200001 4292005583
-0.096718773 -0.095247209 0.53299999 4291743427
-0.095705539 -0.095246077 0.53299999 4291677634
-0.094869994 -0.095423616 0.53399998 4291480002
-0.093854949 -0.095422477 0.53399998 4291743175
-0.093187645 -0.095778726 0.53600001 4291872959
-0.092340849 -0.095956288 0.537 4292004546
-0.091320209 -0.095955133 0.537 4291479237
-0.090467766 -0.096132688 0.53799999 4291939788
-0.089445315 -0.096131548 0.53799999 4291741893
-0.088422902 -0.096130408 0.53799999 4291807687
-0.087400548 -0.096129291 0.53799999 4291741641
-0.086378209 -0.096128158 0.53799999 4292004557
-0.085355923 -0.096127026 0.53799999 4291677132
-0.084333688 -0.096125916 0.53799999 4291874254
-0.083621211 -0.096482158 0.54000002 4291545282
-0.082595244 -0.096481048 0.54000002 4291413440
-0.081569321 -0.096479937 0.54000002 4291479235
-0.080543444 -0.096478842 0.54000002 4291676613
-0.079517603 -0.096477747 0.54000002 4291676096
-0.079363935 -0.097548619 0.546 4291676096
-0.069126889 -0.10075146 0.56400001 4291808452
-0.068056032 -0.10075043 0.56400001 4291742407
-0.067103989 -0.10092805 0.565 4291413442
-0.065303594 -0.10146192 0.56800002 4291676100
-0.064225286 -0.10146092 0.56800002 4291544258
-0.18225655 -0.095537782 0.54000002 4290362300
-0.1808932 -0.095360883 0.53899997 4290822851
-0.17986736 -0.095360912 0.53899997 4290954426
-0.17850965 -0.095183954 0.53799999 4291151549
-0.17748564 -0.095183887 0.53799999 4290822588
-0.17646159 -0.095183797 0.53799999 4290954174
-0.17543751 -0.095183685 0.53799999 4290756030
-0.17441341 -0.095183529 0.53799999 4291084994
-0.17338927 -0.095183335 0.53799999 4291347136
-0.17204477 -0.095006205 0.537 4291741893
-0.17102247 -0.095005959 0.537 4291084992
-0.16905046 -0.094474927 0.53399998 4291019199
-0.16803387 -0.094474636 0.53399998 4290624953
-0.16701724 -0.094474308 0.53399998 4290822588
-0.16568975 -0.094297044 0.53299999 4290690748
-0.16405709 -0.093942836 0.53100002 4290756541
-0.16304615 -0.093942426 0.53100002 4290690235
-0.16203518 -0.093942009 0.53100002 4290887357
-0.16072097 -0.093764633 0.52999997 4290623930
-0.15971187 -0.093764164 0.52999997 4291018432
-0.15870282 -0.093763679 0.52999997 4290887359
-0.15769373 -0.093763135 0.52999997 4291018945
-0.15550214 -0.093054958 0.52600002 4290888633
-0.15450065 -0.093054399 0.52600002 4290954426
-0.1534992 -0.093053818 0.52600002 4291085506
-0.15249772 -0.093053214 0.52600002 4290954176
-0.15149625 -0.093052581 0.52600002 4290886333
-0.1504948 -0.093051948 0.52600002 4291610055
-0.14920911 -0.092874356 0.52499998 4291215549
-0.14820956 -0.09287367 0.52499998 4291215549
-0.14721003 -0.092872977 0.52499998 4291347138
-0.14621049 -0.092872255 0.52499998 4291281088
-0.145211 -0.092871532 0.52499998 4291412156
-0.14421146 -0.092870764 0.52499998 4291412156
-0.14348476 -0.093046904 0.52600002 4290951355
-0.14248335 -0.093046099 0.52600002 4291346113
-0.14148198 -0.093045294 0.52600002 4291085244
-0.14074768 -0.093221359 0.52700001 4291019451
-0.13974443 -0.093220532 0.52700001 4290821305
-0.13821468 -0.092865899 0.52499998 4290952891
-0.13721527 -0.092865042 0.52499998 4290886585
-0.13621587 -0.092864148 0.52499998 4290886585
-0.1352165 -0.092863254 0.52499998 4290624180
-0.13421716 -0.09286236 0.52499998 4291018938
-0.13321786 -0.092861444 0.52499998 4290887098
-0.13221852 -0.092860505 0.52499998 4291084477
-0.13121924 -0.092859574 0.52499998 4291149502
-0.13022 -0.092858627 0.52499998 4291478467
-0.12922075 -0.092857644 0.52499998 4291347899
-0.12822156 -0.092856675 0.52499998 4291216312
-0.12722237 -0.092855692 0.52499998 4290295731
-0.12622324 -0.092854701 0.52499998 4290953404
-0.12522408 -0.092853688 0.52499998 4291017916
-0.12422501 -0.092852689 0.52499998 4291149502
-0.12322594 -0.092851661 0.52499998 4290952893
-0.12222689 -0.092850626 0.52499998 4291084479
-0.12145881 -0.093026452 0.52600002 4290624955
-0.12045793 -0.093025401 0.52600002 4290954176
-0.1194571 -0.093024366 0.52600002 4290954176
-0.11868148 -0.09320014 0.52700001 4290822334
-0.1176788 -0.093199082 0.52700001 4290756030
-0.11667613 -0.093197994 0.52700001 4291084994
-0.11589302 -0.093373761 0.528 4291018686
-0.11488853 -0.093372665 0.528 4291281602
-0.11388409 -0.093371585 0.528 4290953922
-0.11266587 -0.093193643 0.52700001 4290888129
-0.1116634 -0.093192548 0.52700001 4291085506
-0.11066096 -0.093191445 0.52700001 4291151299
-0.10965855 -0.093190327 0.52700001 4290952891
-0.10886235 -0.093366042 0.528 4291084477
-0.10785812 -0.093364924 0.528 4291215295
-0.10685393 -0.093363814 0.528 4291610053
-0.10605026 -0.093539514 0.52899998 4291479235
-0.10504423 -0.093538389 0.52899998 4291545028
-0.10403825 -0.093537264 0.52899998 4291414205
-0.10322705 -0.093712948 0.52999997 4291217083
-0.10241213 -0.093888626 0.53100002 4291347134
-0.10121148 -0.093710676 0.52999997 4291807685
-0.10020375 -0.093709551 0.52999997 4291807168
-0.097180814 -0.093706168 0.52999997 4291610053
-0.097443461 -0.094942644 0.537 4291283391
-0.094381094 -0.094939232 0.537 4291216833
-0.093360372 -0.094938084 0.537 4291543997
-0.092339694 -0.094936945 0.537 4291938754
-0.091319069 -0.094935812 0.537 4291413442
-0.090466633 -0.095111459 0.53799999 4291742407
-0.089444198 -0.095110342 0.53799999 4291742405
-0.088421777 -0.095109202 0.53799999 4291742405
-0.087399431 -0.095108084 0.53799999 4291610053
-0.086377107 -0.095106974 0.53799999 4291807689
-0.085354827 -0.095105857 0.53799999 4291479496
-0.084332578 -0.095104747 0.53799999 4291545545
-0.083310403 -0.095103644 0.53799999 4291546306
-0.08290004 -0.095809624 0.542 4291283391
-0.081870317 -0.095808513 0.542 4291216833
-0.070072278 -0.099505372 0.56300002 4291676611
-0.068880722 -0.099327594 0.56199998 4291676611
-0.06781368 -0.099326573 0.56199998 4291414473
-0.067102969 -0.099855781 0.565 4291348680
-0.066030301 -0.099854767 0.565 4291546309
-0.065302588 -0.10038398 0.56800002 4291414979
-0.064224303 -0.10038298 0.56800002 4291479487
-0.18225659 -0.094512582 0.54000002 4290756293
-0.18089323 -0.09433759 0.53899997 4291151051
-0.17986734 -0.09433759 0.53899997 4291151549
-0.17884143 -0.094337553 0.53899997 4291283391
-0.17748556 -0.094162457 0.53799999 4291085504
-0.17646149 -0.09416236 0.53799999 4291217346
-0.17543738 -0.094162233 0.53799999 4290953154
-0.17441323 -0.094162077 0.53799999 4291413705
-0.17338905 -0.094161883 0.53799999 4291347647
-0.17204453 -0.093986653 0.537 4291413440
-0.17102222 -0.093986392 0.537 4291084994
-0.16999991 -0.093986131 0.537 4291084994
-0.16897756 -0.093985818 0.537 4291086009
-0.16701689 -0.093460418 0.53399998 4291217596
-0.16600025 -0.093460076 0.53399998 4290822336
-0.1640567 -0.092934638 0.53100002 4291085508
-0.16304573 -0.092934243 0.53100002 4290756795
-0.16203474 -0.092933811 0.53100002 4290822588
-0.1607205 -0.092758328 0.52999997 4291083709
-0.15971139 -0.092757843 0.52999997 4291149502
-0.15870228 -0.092757344 0.52999997 4291018436
-0.15769319 -0.092756823 0.52999997 4291084229
-0.15550159 -0.092056245 0.52600002 4290888379
-0.1545001 -0.092055678 0.52600002 4291085758
-0.1534986 -0.09205509 0.52600002 4291019199
-0.1524971 -0.092054479 0.52600002 4290953406
-0.15149562 -0.09205386 0.52600002 4291083455
-0.15049416 -0.092053227 0.52600002 4291478213
-0.14920846 -0.091877535 0.52499998 4291149500
-0.14820887 -0.091876857 0.52499998 4291149500
-0.14720935 -0.091876157 0.52499998 4291149500
-0.14620976 -0.091875441 0.52499998 4291149500
-0.14521024 -0.091874704 0.52499998 4291149241
-0.14421068 -0.091873929 0.52499998 4291083448
-0.14348398 -0.092048176 0.52600002 4291017149
-0.14248256 -0.092047386 0.52600002 4291346113
-0.14175014 -0.092221573 0.52700001 4291084729
-0.14074686 -0.092220753 0.52700001 4291084729
-0.13974361 -0.092219919 0.52700001 4290887350
-0.13874036 -0.09221907 0.52700001 4291084729
-0.13773711 -0.092218198 0.52700001 4291149754
-0.13647446 -0.092042349 0.52600002 4291281340
-0.13547316 -0.09204144 0.52600002 4290952641
-0.13447191 -0.092040546 0.52600002 4291281606
-0.13321692 -0.091864645 0.52499998 4291215547
-0.13221759 -0.091863714 0.52499998 4291347134
-0.13121831 -0.091862783 0.52499998 4291018686
-0.13021904 -0.091861829 0.52499998 4291281602
-0.1292198 -0.091860883 0.52499998 4291151036
-0.12822057 -0.091859907 0.52499998 4291216829
-0.12722139 -0.091858916 0.52499998 4290822586
-0.12622222 -0.091857933 0.52499998 4291283137
-0.1252231 -0.091856942 0.52499998 4290953406
-0.12422398 -0.091855928 0.52499998 4291084992
-0.12322492 -0.091854915 0.52499998 4291216062
-0.12222587 -0.091853887 0.52499998 4291413442
-0.12145776 -0.092027821 0.52600002 4291018432
-0.12045688 -0.09202677 0.52600002 4291215810
-0.11945604 -0.092025734 0.52600002 4291084990
-0.11868041 -0.092199631 0.52700001 4291216833
-0.11767773 -0.092198558 0.52700001 4291018432
-0.11667506 -0.092197493 0.52700001 4291281604
-0.11567244 -0.092196405 0.52700001 4291281088
-0.11488745 -0.092370264 0.528 4291741639
-0.11366731 -0.092194259 0.52700001 4291150786
-0.11266478 -0.092193156 0.52700001 4291084992
-0.11166229 -0.092192069 0.52700001 4291150786
-0.11065985 -0.092190966 0.52700001 4291216579
-0.10986552 -0.092364803 0.528 4291347136
-0.10886125 -0.092363693 0.528 4291347136
-0.10826554 -0.092712425 0.52999997 4291346884
-0.10705518 -0.092536397 0.52899998 4291675848
-0.10604911 -0.09253528 0.52899998 4291676100
-0.10504311 -0.09253417 0.52899998 4292202444
-0.10403711 -0.092533045 0.52899998 4291742143
-0.10303117 -0.092531912 0.52899998 4291676350
-0.10241101 -0.092880644 0.53100002 4291675583
-0.10121036 -0.092704587 0.52999997 4291807168
-0.10020263 -0.092703469 0.52999997 4291675837
-0.094555706 -0.094094791 0.53799999 4291544258
-0.093533084 -0.094093665 0.53799999 4291676098
-0.092510521 -0.09409254 0.53799999 4292334029
-0.091487989 -0.094091393 0.53799999 4291874245
-0.090465508 -0.094090268 0.53799999 4291940038
-0.089609325 -0.094264038 0.53899997 4291742402
-0.088585019 -0.094262928 0.53899997 4291808452
-0.087398306 -0.094086923 0.53799999 4291741893
-0.086375982 -0.094085813 0.53799999 4291741893
-0.085353717 -0.094084717 0.53799999 4291216579
-0.08433149 -0.094083607 0.53799999 4291150786
-0.083928689 -0.09478201 0.542 4291347901
-0.082898937 -0.094780914 0.542 4291479487
-0.081869215 -0.094779812 0.542 4291281856
-0.08143615 -0.095478199 0.546 4291281856
-0.080398932 -0.095477112 0.546 4291347136
-0.079361759 -0.095476031 0.546 4291347136
-0.070887551 -0.09808825 0.56099999 4291807418
-0.069822334 -0.098087229 0.56099999 4291676098
-0.068879709 -0.098261051 0.56199998 4291741891
-0.067812674 -0.098260038 0.56199998 4291807946
-0.06710197 -0.09878356 0.565 4291676359
-0.066029318 -0.098782554 0.565 4291545793
-0.064956695 -0.098781563 0.565 4291545793
-0.063884109 -0.098780587 0.565 4291610555
-0.18122886 -0.093487404 0.54000002 4291150536
-0.17986731 -0.09331426 0.53899997 4291020735
-0.17884135 -0.093314201 0.53899997 4291020735
-0.17781536 -0.093314134 0.53899997 4290756541
-0.17646135 -0.0931409 0.53799999 4290888383
-0.17543723 -0.093140766 0.53799999 4290624441
-0.17473724 -0.093313716 0.53899997 4291150786
-0.17371114 -0.09331353 0.53899997 4291150786
-0.17204431 -0.092967071 0.537 4291150786
-0.17102198 -0.09296681 0.537 4290822336
-0.16999961 -0.092966534 0.537 4291151301
-0.16897726 -0.092966236 0.537 4291217344
-0.16701657 -0.092446528 0.53399998 4291283137
-0.16599986 -0.092446163 0.53399998 4290493885
-0.16498318 -0.092445776 0.53399998 4290625727
-0.1630453 -0.091926016 0.53100002 4290559934
-0.16203427 -0.091925576 0.53100002 4290691520
-0.16072002 -0.091752 0.52999997 4291215295
-0.15971088 -0.091751516 0.52999997 4291281088
-0.15870178 -0.091751032 0.52999997 4290820539
-0.15769266 -0.091750495 0.52999997 4291017662
-0.15697916 -0.091923065 0.53100002 4290624439
-0.15596814 -0.091922492 0.53100002 4290953404
-0.15378982 -0.091229454 0.52700001 4291083709
-0.1524965 -0.091055758 0.52600002 4291149502
-0.15149501 -0.091055132 0.52600002 4291018432
-0.15077959 -0.091227591 0.52700001 4291084481
-0.14949201 -0.091053821 0.52600002 4290887100
-0.14820822 -0.090880029 0.52499998 4291018686
-0.1472086 -0.090879314 0.52499998 4291149500
-0.14648755 -0.09105172 0.52600002 4291149500
-0.1454861 -0.091050982 0.52600002 4291083444
-0.14448462 -0.091050223 0.52600002 4291083444
-0.14375597 -0.091222547 0.52700001 4291017655
-0.14275265 -0.091221757 0.52700001 4291083448
-0.14174931 -0.09122096 0.52700001 4290426032
-0.14074603 -0.09122014 0.52700001 4291017912
-0.13974275 -0.091219299 0.52700001 4290887100
-0.13926604 -0.091564648 0.52899998 4290952893
-0.13773625 -0.091217592 0.52700001 4290886585
-0.13647358 -0.091043644 0.52600002 4291017914
-0.13547228 -0.091042742 0.52600002 4290885047
-0.13472663 -0.091214918 0.52700001 4291214012
-0.13346976 -0.091040947 0.52600002 4291017914
-0.13221668 -0.090866938 0.52499998 4291149500
-0.13121736 -0.090865992 0.52499998 4290624443
-0.13021807 -0.090865046 0.52499998 4290624443
-0.12921883 -0.090864092 0.52499998 4290690487
-0.1282196 -0.090863124 0.52499998 4291019451
-0.12722041 -0.090862162 0.52499998 4290822586
-0.12622124 -0.090861171 0.52499998 4290888379
-0.12522209 -0.090860181 0.52499998 4290361783
-0.12422297 -0.090859182 0.52499998 4290888383
-0.1232239 -0.090858161 0.52499998 4291215295
-0.12222484 -0.090857148 0.52499998 4291215295
-0.12145673 -0.09102919 0.52600002 4291149502
-0.12045585 -0.091028161 0.52600002 4291149502
-0.11945498 -0.091027103 0.52600002 4291347136
-0.11867936 -0.091199122 0.52700001 4291347136
-0.11767667 -0.091198057 0.52700001 4291083194
-0.116674 -0.091196992 0.52700001 4291477952
-0.11567137 -0.091195919 0.52700001 4291412158
-0.11488637 -0.0913679 0.528 4291477952
-0.11366621 -0.091193773 0.52700001 4291018686
-0.11266369 -0.091192678 0.52700001 4291084479
-0.1116612 -0.091191597 0.52700001 4291149504
-0.11065876 -0.091190502 0.52700001 4291478213
-0.10986441 -0.091362439 0.528 4291544258
-0.10886014 -0.091361351 0.528 4291347136
-0.10826445 -0.091706306 0.52999997 4291478465
-0.10705407 -0.091532171 0.52899998 4291478465
-0.10604801 -0.091531061 0.52899998 4291411645
-0.10504199 -0.09152995 0.52899998 4291806403
-0.10403599 -0.091528833 0.52899998 4291543997
-0.10303006 -0.091527715 0.52899998 4291807168
-0.10240988 -0.091872662 0.53100002 4291807166
-0.10140021 -0.091871537 0.53100002 4291610044
-0.10039058 -0.091870412 0.53100002 4291281594
-0.094730325 -0.093246587 0.53899997 4291806914
-0.093705803 -0.093245447 0.53899997 4291741891
-0.092681333 -0.093244337 0.53899997 4291741891
-0.091656901 -0.093243212 0.53899997 4291545028
-0.090632536 -0.093242094 0.53899997 4291676613
-0.089608192 -0.093240984 0.53899997 4291676609
-0.088583902 -0.093239866 0.53899997 4291742402
-0.087397203 -0.093065783 0.53799999 4291676611
-0.086374879 -0.093064673 0.53799999 4291545282
-0.085352615 -0.093063571 0.53799999 4291085244
-0.084330387 -0.093062498 0.53799999 4291282624
-0.083927587 -0.093753308 0.542 4291413694
-0.082897842 -0.09375222 0.542 4291479487
-0.081868134 -0.093751125 0.542 4291347388
-0.081435069 -0.094441921 0.546 4291478717
-0.080397867 -0.094440855 0.546 4291347134
-0.079360671 -0.094439782 0.546 4291478463
-0.070886523 -0.097023621 0.56099999 4292068796
-0.069821313 -0.0970226 0.56099999 4291807168
-0.068878703 -0.09719453 0.56199998 4292004548
-0.067811668 -0.097193524 0.56199998 4291939014
-0.067100972 -0.097711369 0.565 4291676098
-0.066028327 -0.097710378 0.565 4291084731
-0.064955719 -0.09770938 0.565 4291545282
-0.063883148 -0.097708412 0.565 4291676096
-0.18122888 -0.092462167 0.54000002 4291282376
-0.18020098 -0.092462137 0.54000002 4291216833
-0.17884132 -0.092290871 0.53899997 4291216833
-0.17781527 -0.092290774 0.53899997 4291018947
-0.17678924 -0.09229067 0.53899997 4291413705
-0.17576315 -0.092290528 0.53899997 4291019199
-0.17473708 -0.092290357 0.53899997 4291479750
-0.17403325 -0.092461392 0.54000002 4290954176
-0.17300519 -0.092461154 0.54000002 4290888383
-0.17134015 -0.092118442 0.53799999 4290888131
-0.17031589 -0.092118166 0.53799999 4291085254
