# .PCD v0.7 - Point Cloud Data file format
VERSION 0.7
FIELDS x y z rgba
SIZE 4 4 4 4
TYPE F F F U
COUNT 1 1 1 1
WIDTH 1085
HEIGHT 1
VIEWPOINT 0 0 0 1 0 0 0
POINTS 1085
DATA ascii
0.22949418 -0.15674338 0.69300002 4291809481
0.23081031 -0.15674251 0.69300002 4291809481
0.23212634 -0.1567416 0.69300002 4291611337
0.2337791 -0.15696678 0.69400001 4291874508
0.23509684 -0.15696573 0.69400001 4292005833
0.2370958 -0.15741697 0.69599998 4292202955
0.23841722 -0.15741581 0.69599998 4292006092
0.24008295 -0.15764074 0.69700003 4292006092
0.24140605 -0.15763944 0.69700003 4291678930
0.24272904 -0.15763807 0.69700003 4291744724
0.2444021 -0.15786284 0.69800001 4291678926
0.24572679 -0.15786134 0.69800001 4291678926
0.24775928 -0.1583121 0.69999999 4291678928
0.24944335 -0.1585366 0.70099998 4291678928
0.25077343 -0.15853491 0.70099998 4291809998
0.2528227 -0.15898544 0.70300001 4291809998
0.25451782 -0.15920971 0.704 4291743438
0.25658005 -0.15966007 0.70599997 4291809231
0.25828451 -0.15988423 0.70700002 4291875538
0.25999254 -0.16010828 0.708 4291875538
0.26207343 -0.16055842 0.70999998 4291481295
0.26341963 -0.16055614 0.70999998 4291415502
0.2647658 -0.16055383 0.70999998 4291874254
0.26948506 -0.1625866 0.71899998 4292598234
0.27084795 -0.16258408 0.71899998 4291874508
0.13547617 -0.16435534 0.73299998 4290821041
0.13686877 -0.16435662 0.73299998 4290624691
0.13788415 -0.16390945 0.73100001 4290493105
0.13927302 -0.16391072 0.73100001 4290624180
0.14066191 -0.163912 0.73100001 4290624180
0.14205082 -0.16391326 0.73100001 4290689201
0.14343981 -0.16391455 0.73100001 4290689201
0.1448288 -0.1639158 0.73100001 4290886055
0.14621782 -0.16391703 0.73100001 4290951848
0.14760685 -0.16391829 0.73100001 4290886062
0.15295522 -0.16078612 0.71700001 4290689201
0.15431786 -0.16078727 0.71700001 4290689201
0.15568052 -0.16078843 0.71700001 4290689201
0.15641756 -0.15877239 0.708 4290755761
0.1577632 -0.1587735 0.708 4290821555
0.15888412 -0.15855034 0.70700002 4290821804
0.16000125 -0.15832715 0.70599997 4290756011
0.16134314 -0.15832819 0.70599997 4290558385
0.16222419 -0.15788072 0.704 4290558385
0.16333 -0.1576575 0.70300001 4290623926
0.16466622 -0.15765849 0.70300001 4291018684
0.1660025 -0.15765949 0.70300001 4291216051
0.1668627 -0.15721191 0.70099998 4291281844
0.16819517 -0.15721285 0.70099998 4291347383
0.16928585 -0.15698951 0.69999999 4291478969
0.17061646 -0.15699042 0.69999999 4291347383
0.17121017 -0.15631852 0.69700003 4291478969
0.17253509 -0.15631938 0.69700003 4291413944
0.17410949 -0.15654451 0.69800001 4291479737
0.17593899 -0.15699388 0.69999999 4291414459
0.17625669 -0.15609756 0.69599998 4291480252
0.17757976 -0.15609835 0.69599998 4291545280
0.17838873 -0.15565054 0.69400001 4291676609
0.17970797 -0.15565126 0.69400001 4291545793
0.1807664 -0.15542768 0.69300002 4291545793
0.18155827 -0.15497977 0.69099998 4291545795
0.1828718 -0.15498041 0.69099998 4291545795
0.18471847 -0.1554296 0.69300002 4291676611
0.18603581 -0.15543018 0.69300002 4291676611
0.18735318 -0.15543076 0.69300002 4291742656
0.188126 -0.15498269 0.69099998 4291808450
0.18943955 -0.15498321 0.69099998 4291742656
0.19075304 -0.15498365 0.69099998 4291742656
0.19178857 -0.15475981 0.69 4291611591
0.1931002 -0.15476023 0.69 4291743177
0.1944118 -0.1547606 0.69 4291677380
0.19572334 -0.15476093 0.69 4291677380
0.19703488 -0.15476122 0.69 4291612102
0.19834639 -0.15476149 0.69 4291612102
0.19965792 -0.15476172 0.69 4291677384
0.20096937 -0.1547619 0.69 4291743177
0.20228086 -0.15476209 0.69 4291873993
0.20359227 -0.15476218 0.69 4291808200
0.20490368 -0.15476225 0.69 4291677130
0.20621505 -0.15476228 0.69 4292006094
0.20752637 -0.15476228 0.69 4291874758
0.20883767 -0.15476222 0.69 4291874758
0.20953982 -0.15431358 0.68800002 4291809733
0.21084724 -0.15431345 0.68800002 4291875526
0.21307971 -0.15498611 0.69099998 4291809735
0.21439274 -0.1549859 0.69099998 4291743942
0.21570574 -0.15498565 0.69099998 4291743688
0.21701874 -0.15498534 0.69099998 4291677895
0.21833161 -0.15498497 0.69099998 4291677895
0.22028017 -0.15543313 0.69300002 4291743688
0.22159678 -0.15543267 0.69300002 4291743690
0.22291331 -0.15543216 0.69300002 4291743690
0.22358263 -0.15498303 0.69099998 4291677645
0.22489527 -0.1549824 0.69099998 4291677645
0.22686253 -0.15543032 0.69300002 4291743436
0.22817883 -0.1554296 0.69300002 4291875278
0.22949503 -0.15542883 0.69300002 4291940553
0.23081121 -0.15542799 0.69300002 4291940553
0.23246221 -0.15565135 0.69400001 4291677132
0.23445378 -0.15609896 0.69599998 4291677132
0.23577541 -0.15609795 0.69599998 4291742925
0.23709695 -0.15609688 0.69599998 4291940047
0.2391035 -0.1565443 0.69800001 4291809485
0.24042866 -0.15654312 0.69800001 4291875278
0.24244641 -0.15699039 0.69999999 4291875278
0.24377519 -0.15698908 0.69999999 4292006608
0.24545394 -0.15721193 0.70099998 4291875276
0.24678442 -0.15721047 0.70099998 4291743690
0.24882266 -0.15765746 0.70300001 4291743949
0.25015673 -0.15765591 0.70300001 4291743949
0.25184837 -0.15787849 0.704 4291744203
0.25318411 -0.15787676 0.704 4291744203
0.25524276 -0.15832344 0.70599997 4291481036
0.25658199 -0.15832154 0.70599997 4291481036
0.25828651 -0.15854383 0.70700002 4291546829
0.25999469 -0.15876606 0.708 4291809744
0.2620756 -0.15921241 0.70999998 4291481295
0.26342192 -0.15921022 0.70999998 4291415502
0.26514107 -0.15943219 0.71100003 4291808979
0.13565971 -0.16318588 0.73400003 4290755507
0.13686748 -0.16296487 0.73299998 4290624691
0.13788287 -0.1625215 0.73100001 4290624691
0.13927175 -0.16252278 0.73100001 4290492851
0.14066064 -0.16252404 0.73100001 4290492851
0.14204957 -0.16252533 0.73100001 4290689201
0.14324231 -0.16230427 0.73000002 4290689201
0.14462943 -0.16230553 0.73000002 4290754987
0.14621656 -0.16252911 0.73100001 4290886316
0.14760563 -0.16253036 0.73100001 4291016367
0.15338071 -0.15986954 0.71899998 4290623408
0.15474716 -0.1598707 0.71899998 4290623408
0.15611362 -0.15987186 0.71899998 4290492590
0.15641648 -0.15742825 0.708 4290558896
0.15776211 -0.15742935 0.708 4290558896
0.15888305 -0.15720809 0.70700002 4290624943
0.16000021 -0.1569868 0.70599997 4290624943
0.16134208 -0.15698785 0.70599997 4290558383
0.16222316 -0.15654419 0.704 4290492590
0.16332899 -0.15632285 0.70300001 4290492590
0.16466525 -0.15632388 0.70300001 4290953141
0.16600151 -0.15632488 0.70300001 4291084981
0.16686173 -0.15588111 0.70099998 4291019188
0.16819423 -0.15588209 0.70099998 4291150004
0.16928491 -0.15566063 0.69999999 4291150004
0.16988435 -0.15499446 0.69700003 4291215284
0.17120931 -0.15499535 0.69700003 4291478455
0.17253424 -0.15499622 0.69700003 4291544762
0.17460752 -0.15566421 0.69999999 4291478969
0.17618953 -0.15588744 0.70099998 4291085494
0.17650913 -0.15499872 0.69700003 4291282874
0.17757897 -0.15477712 0.69599998 4291413694
0.17890204 -0.15477788 0.69599998 4291545280
0.18022512 -0.15477863 0.69599998 4291349182
0.18154824 -0.15477936 0.69599998 4291349182
0.18234584 -0.15433528 0.69400001 4291349182
0.18366513 -0.15433595 0.69400001 4291414975
0.18471788 -0.15411419 0.69300002 4291480000
0.18603525 -0.1541148 0.69300002 4291480000
0.18735263 -0.15411538 0.69300002 4291479487
0.18867002 -0.15411593 0.69300002 4291545280
0.18998735 -0.15411642 0.69300002 4291610557
0.19075258 -0.15367216 0.69099998 4291610557
0.19206616 -0.15367259 0.69099998 4291545282
0.19337964 -0.15367301 0.69099998 4291742405
0.19469318 -0.1536734 0.69099998 4291546306
0.19572301 -0.15345135 0.69 4291546306
0.19703461 -0.1534517 0.69 4291546306
0.19834614 -0.15345198 0.69 4291546306
0.19965771 -0.15345222 0.69 4291546055
0.20126048 -0.15367483 0.69099998 4291611848
0.20257387 -0.15367499 0.69099998 4291677132
0.20388722 -0.15367514 0.69099998 4291611339
0.2049036 -0.15345286 0.69 4291742407
0.20621504 -0.15345292 0.69 4291939786
0.20752642 -0.15345292 0.69 4291545793
0.20823242 -0.15300812 0.68800002 4291611586
0.20953992 -0.15300806 0.68800002 4291677380
0.21084739 -0.15300794 0.68800002 4291743429
0.21277155 -0.15345259 0.69 4291743942
0.214393 -0.15367478 0.69099998 4291677893
0.21570602 -0.15367453 0.69099998 4291414725
0.21764717 -0.15411904 0.69300002 4291546055
0.21896389 -0.1541187 0.69300002 4291743175
0.2202806 -0.15411831 0.69300002 4291743175
0.22159721 -0.1541179 0.69300002 4291677897
0.22291382 -0.15411741 0.69300002 4291677897
0.22423033 -0.15411688 0.69300002 4291677897
0.22554681 -0.15411629 0.69300002 4291677897
0.22719054 -0.15433802 0.69400001 4291677897
0.22850882 -0.15433733 0.69400001 4291677897
0.22982696 -0.15433659 0.69400001 4291479748
0.23114508 -0.15433578 0.69400001 4291611591
0.23313303 -0.1547797 0.69599998 4291873993
0.23445474 -0.15477876 0.69599998 4291873993
0.23611522 -0.15500019 0.69700003 4291546057
0.23743871 -0.15499917 0.69700003 4291743436
0.23910463 -0.15522043 0.69800001 4291612874
0.24111874 -0.15566403 0.69999999 4291809996
0.24279402 -0.15588517 0.70099998 4291612620
0.24412474 -0.15588388 0.70099998 4291546827
0.24545537 -0.15588254 0.70099998 4291677645
0.24749 -0.15632588 0.70300001 4291677645
0.24882419 -0.15632436 0.70300001 4291743438
0.25015831 -0.15632281 0.70300001 4291743438
0.25149235 -0.15632121 0.70300001 4291612874
0.25318584 -0.15654185 0.704 4291546825
0.25524458 -0.15698479 0.70599997 4291481032
0.25694737 -0.15720533 0.70700002 4291546825
0.25865385 -0.15742576 0.708 4291546827
0.25999671 -0.15742376 0.708 4291546827
0.26207772 -0.1578664 0.70999998 4291415500
0.26342413 -0.15786423 0.70999998 4291547342
0.26514333 -0.15808435 0.71100003 4291940051
0.13705294 -0.16179354 0.73400003 4290558896
0.13788161 -0.16113354 0.73100001 4290558896
0.13927047 -0.16113484 0.73100001 4290558383
0.14065936 -0.16113612 0.73100001 4290492590
0.14185399 -0.16091697 0.73000002 4290622897
0.14324105 -0.16091822 0.73000002 4290688690
0.14462815 -0.16091949 0.73000002 4290688942
0.14621529 -0.16114119 0.73100001 4290688942
0.14760439 -0.16114245 0.73100001 4290622895
0.14817819 -0.16026193 0.727 4290622895
0.14955972 -0.16026318 0.727 4290820010
0.15094127 -0.1602644 0.727 4290951596
0.15190381 -0.15982473 0.72500002 4290623912
0.15337951 -0.15850444 0.71899998 4290557613
0.15474598 -0.15850559 0.71899998 4290623406
0.15611248 -0.1585068 0.71899998 4290492590
0.15682191 -0.15784657 0.71600002 4290492590
0.15641536 -0.15608406 0.708 4290492592
0.15776098 -0.15608515 0.708 4290426799
0.15910667 -0.15608628 0.708 4290492590
0.16022573 -0.15586689 0.70700002 4290558383
0.16156957 -0.15586798 0.70700002 4290689451
0.16222212 -0.15520765 0.704 4290689451
0.16356029 -0.15520871 0.704 4290558385
0.16489846 -0.15520974 0.704 4290953143
0.16600053 -0.15499027 0.70300001 4290821806
0.16686074 -0.15455028 0.70099998 4290756013
0.16819327 -0.15455127 0.70099998 4291018164
0.16880032 -0.15389082 0.69800001 4291083957
0.16988346 -0.15367128 0.69700003 4291083959
0.17120841 -0.15367219 0.69700003 4291149752
0.17253338 -0.15367308 0.69700003 4291347637
0.17460665 -0.15433536 0.69999999 4291478967
0.17618865 -0.15455669 0.70099998 4291282105
0.17726803 -0.15433703 0.69999999 4291347899
0.17859873 -0.15433787 0.69999999 4291413692
0.17992948 -0.15433864 0.69999999 4291413692
0.18151909 -0.15455987 0.70099998 4291545532
0.18180837 -0.15367867 0.69700003 4291545532
0.18313341 -0.15367939 0.69700003 4291480252
0.18445843 -0.15368007 0.69700003 4291546045
0.18551686 -0.15346022 0.69599998 4291479998
0.18684001 -0.15346086 0.69599998 4291414205
0.1876224 -0.15302047 0.69400001 4291479487
0.1889417 -0.15302102 0.69400001 4291479487
0.18998682 -0.15280107 0.69300002 4291413694
0.19130425 -0.15280159 0.69300002 4291413694
0.1926216 -0.15280207 0.69300002 4291480000
0.19393893 -0.15280248 0.69300002 4291480000
0.19469279 -0.1523619 0.69099998 4291545793
0.19600633 -0.15236229 0.69099998 4291611586
0.19731984 -0.15236261 0.69099998 4291546560
0.19863331 -0.15236291 0.69099998 4291414975
0.19994681 -0.15236318 0.69099998 4291611586
0.20126027 -0.15236343 0.69099998 4291677380
0.20257369 -0.15236364 0.69099998 4291676880
0.20388712 -0.15236379 0.69099998 4291611087
0.20490351 -0.1521434 0.69 4291742407
0.20621495 -0.15214348 0.69 4291939786
0.20752637 -0.15214352 0.69 4291742405
0.20823243 -0.15170255 0.68800002 4291742405
0.20953999 -0.15170251 0.68800002 4291611586
0.21146044 -0.1521434 0.69 4291677380
0.2127717 -0.1521433 0.69 4291677380
0.21439321 -0.15236361 0.69099998 4291677380
0.21570627 -0.15236339 0.69099998 4291546057
0.21764745 -0.15280414 0.69300002 4291414727
0.21928021 -0.1530243 0.69400001 4291546055
0.2212346 -0.15346494 0.69599998 4291611848
0.22191745 -0.15302356 0.69400001 4291612102
0.22323599 -0.15302311 0.69400001 4291612102
0.22423087 -0.15280209 0.69300002 4291677895
0.22554742 -0.15280154 0.69300002 4291743688
0.22719121 -0.15302143 0.69400001 4291677895
0.22916804 -0.15346175 0.69599998 4291677895
0.23049006 -0.15346102 0.69599998 4291545545
0.23181202 -0.15346025 0.69599998 4291479496
0.23313387 -0.15345941 0.69599998 4291479748
0.23445569 -0.15345854 0.69599998 4291677384
0.23611625 -0.15367812 0.69700003 4291611850
0.23743974 -0.15367709 0.69700003 4291743436
0.23910578 -0.15389651 0.69800001 4291743688
0.24111992 -0.15433635 0.69999999 4291875530
0.24279524 -0.15455562 0.70099998 4291677897
0.24412604 -0.15455438 0.70099998 4291677897
0.24545674 -0.15455309 0.70099998 4291545805
0.24749145 -0.15499265 0.70300001 4291545805
0.24882571 -0.15499119 0.70300001 4291611852
0.25015989 -0.15498967 0.70300001 4291677645
0.25149396 -0.15498811 0.70300001 4291546825
0.25318757 -0.15520692 0.704 4291481032
0.25524637 -0.15564612 0.70599997 4291481032
0.25694922 -0.15586478 0.70700002 4291612874
0.25865576 -0.15608338 0.708 4291546825
0.26073319 -0.15652232 0.70999998 4291546825
0.26244894 -0.15674075 0.71100003 4291677897
0.26453936 -0.15717955 0.713 4292006606
0.1378803 -0.1597456 0.73100001 4290624178
0.13926919 -0.15974693 0.73100001 4290886064
0.1406581 -0.1597482 0.73100001 4290688942
0.14185271 -0.15953094 0.73000002 4290688688
0.14323978 -0.1595322 0.73000002 4290688688
0.14462689 -0.1595335 0.73000002 4290622893
0.145614 -0.15909769 0.72799999 4290622893
0.14699735 -0.15909892 0.72799999 4290688167
0.14817695 -0.15888165 0.727 4290753961
0.14914705 -0.15844579 0.72500002 4290688170
0.15052481 -0.15844704 0.72500002 4290688170
0.1519026 -0.15844825 0.72500002 4290491560
0.15201187 -0.15713814 0.71899998 4290491560
0.15231173 -0.15604658 0.71399999 4290426538
0.15366869 -0.15604776 0.71399999 4290557867
0.15545994 -0.15648606 0.71600002 4290557867
0.15682076 -0.1564872 0.71600002 4290426538
0.15775988 -0.154741 0.708 4290426286
0.15910557 -0.15474212 0.708 4290557613
0.16022465 -0.15452464 0.70700002 4290557613
0.16156849 -0.15452577 0.70700002 4290426538
0.16268191 -0.15430824 0.70599997 4290623660
0.16402391 -0.1543093 0.70599997 4290558383
0.16536589 -0.15431033 0.70599997 4290755761
0.16623566 -0.15387423 0.704 4290624682
0.16733584 -0.15365665 0.70300001 4290821804
0.16867216 -0.15365763 0.70300001 4291018418
0.1687994 -0.15256573 0.69800001 4291084211
0.17012626 -0.15256667 0.69800001 4290953141
0.17145313 -0.1525676 0.69800001 4290953141
0.17278002 -0.15256849 0.69800001 4291216051
0.17460579 -0.15300652 0.69999999 4291281844
0.17618781 -0.15322596 0.70099998 4291019447
0.17726722 -0.15300821 0.69999999 4291151289
0.17859794 -0.15300906 0.69999999 4291347901
0.18018572 -0.15322843 0.70099998 4291347901
0.18151836 -0.15322919 0.70099998 4291347901
0.18285099 -0.15322995 0.70099998 4291347901
0.18339545 -0.15257491 0.69800001 4291347899
0.18445775 -0.15235703 0.69700003 4291413692
0.18551625 -0.15213911 0.69599998 4291413694
0.18683934 -0.15213972 0.69599998 4291479487
0.18816252 -0.15214033 0.69599998 4291479487
0.18948562 -0.15214093 0.69599998 4291479487
0.19026048 -0.1517043 0.69400001 4291479487
0.1915798 -0.15170483 0.69400001 4291479487
0.19262114 -0.15148672 0.69300002 4291414207
0.19393854 -0.15148719 0.69300002 4291414207
0.19525589 -0.1514876 0.69300002 4291216829
0.19657329 -0.15148801 0.69300002 4291480000
0.19817618 -0.15170695 0.69400001 4291414975
0.1994954 -0.15170728 0.69400001 4291414975
0.2008146 -0.15170756 0.69400001 4291611589
0.20271634 -0.15214503 0.69599998 4291677382
0.20403931 -0.15214522 0.69599998 4291742153
0.20477213 -0.15170823 0.69400001 4291676359
0.20579429 -0.15148975 0.69300002 4291676611
0.20711148 -0.15148987 0.69300002 4291676611
0.20752633 -0.15083411 0.69 4291676609
0.20883778 -0.15083414 0.69 4291676609
0.21014915 -0.15083411 0.69 4291545280
0.21146052 -0.15083407 0.69 4291676609
0.21277185 -0.15083398 0.69 4291414207
0.21439338 -0.15105243 0.69099998 4291545793
0.21664302 -0.15170804 0.69400001 4291414725
0.21796177 -0.15170778 0.69400001 4291348932
0.21991245 -0.1521447 0.69599998 4291414979
0.22123496 -0.15214437 0.69599998 4291546309
0.22255737 -0.15214399 0.69599998 4291546309
0.22387978 -0.15214357 0.69599998 4291612102
0.22455497 -0.15170592 0.69400001 4291546309
0.22587343 -0.15170537 0.69400001 4291612102
0.22817396 -0.15236059 0.69700003 4291612102
0.22949803 -0.15235995 0.69700003 4291612102
0.23082197 -0.15235926 0.69700003 4291611337
0.23214588 -0.15235853 0.69700003 4291611337
0.23346971 -0.15235771 0.69700003 4291414979
0.23479348 -0.15235689 0.69700003 4291612102
0.23611715 -0.15235598 0.69700003 4291677897
0.23778139 -0.15257359 0.69800001 4291677897
0.23979197 -0.15300973 0.69999999 4291547079
0.24146552 -0.15322721 0.70099998 4291547079
0.24279647 -0.15322606 0.70099998 4291481032
0.24412729 -0.15322484 0.70099998 4291546825
0.24545805 -0.15322357 0.70099998 4291611850
0.24749283 -0.15365939 0.70300001 4291414727
0.24882719 -0.153658 0.70300001 4291545545
0.25016141 -0.15365648 0.70300001 4291611339
0.25185332 -0.15387353 0.704 4291415239
0.25318924 -0.15387192 0.704 4291481032
0.25560966 -0.15452594 0.70700002 4291481032
0.25731444 -0.15474273 0.708 4291415239
0.2593883 -0.15517803 0.70999998 4291348932
0.26183683 -0.1558318 0.713 4291546055
0.26318923 -0.15582982 0.713 4291677897
0.26454148 -0.15582775 0.713 4292138448
0.13964891 -0.15879226 0.73299998 4290689451
0.1406568 -0.15836029 0.73100001 4290623658
0.14204575 -0.15836157 0.73100001 4290557615
0.1432385 -0.15814622 0.73000002 4290557615
0.1446256 -0.15814748 0.73000002 4290557867
0.14561272 -0.15771547 0.72799999 4290426538
0.1469961 -0.15771674 0.72799999 4290557088
0.14817569 -0.15750135 0.727 4290688417
0.14873436 -0.15663601 0.72299999 4290557349
0.15010832 -0.15663724 0.72299999 4290425763
0.15148231 -0.15663847 0.72299999 4290491560
0.15201068 -0.15577309 0.71899998 4290491560
0.15231052 -0.154691 0.71399999 4290491558
0.15366749 -0.15469217 0.71399999 4290491558
0.15545878 -0.15512669 0.71600002 4290360488
0.1568196 -0.15512787 0.71600002 4290360488
0.15685493 -0.15382904 0.70999998 4290360492
0.15775874 -0.15339684 0.708 4290360492
0.15910447 -0.15339798 0.708 4290360492
0.16045019 -0.15339909 0.708 4290360492
0.16179594 -0.1534002 0.708 4290360492
0.16314171 -0.15340126 0.708 4290623408
0.1644875 -0.15340233 0.708 4290689451
0.16559908 -0.15318672 0.70700002 4290755500
0.16694301 -0.15318775 0.70700002 4290624430
0.16733484 -0.15232205 0.70300001 4290755759
0.16867118 -0.15232304 0.70300001 4290821552
0.17000759 -0.15232404 0.70300001 4290821552
0.17012534 -0.1512416 0.69800001 4290821557
0.17145221 -0.15124252 0.69800001 4290953143
0.17277913 -0.15124343 0.69800001 4291150002
0.17460491 -0.15167768 0.69999999 4291281844
0.17668968 -0.15232863 0.70300001 4291018936
0.17751959 -0.1518961 0.70099998 4290953143
0.17885226 -0.15189694 0.70099998 4291216058
0.18018493 -0.15189773 0.70099998 4291347901
0.18151759 -0.15189853 0.70099998 4291347899
0.18285027 -0.15189929 0.70099998 4291216312
0.18339474 -0.15124995 0.69800001 4291216058
0.18445703 -0.15103398 0.69700003 4291413694
0.18551557 -0.15081795 0.69599998 4291413694
0.18683875 -0.15081863 0.69599998 4291413694
0.18816189 -0.15081924 0.69599998 4291479485
0.18948504 -0.15081982 0.69599998 4291479485
0.19080822 -0.1508204 0.69599998 4291413692
0.19157924 -0.15038756 0.69400001 4291479485
0.1928986 -0.15038806 0.69400001 4291479485
0.19393806 -0.15017183 0.69300002 4291479485
0.1952555 -0.15017229 0.69300002 4291216829
0.19657288 -0.15017271 0.69300002 4291282878
0.19817582 -0.15038976 0.69400001 4291216829
0.20006999 -0.1508235 0.69599998 4291216829
0.20197175 -0.15125722 0.69800001 4291282624
0.20300734 -0.15104081 0.69700003 4291545795
0.20403908 -0.15082434 0.69599998 4291676609
0.20536207 -0.15082453 0.69599998 4291545280
0.20609114 -0.1503913 0.69400001 4291545280
0.20741026 -0.15039143 0.69400001 4291545280
0.20752627 -0.14952469 0.69 4291545280
0.20883778 -0.14952473 0.69 4291545280
0.21014918 -0.14952475 0.69 4291545280
0.21146062 -0.1495247 0.69 4291545280
0.21308033 -0.14974134 0.69099998 4291480002
0.21501409 -0.15017462 0.69300002 4291480002
0.21664318 -0.15039115 0.69400001 4291348930
0.21796206 -0.15039094 0.69400001 4291348930
0.21991275 -0.1508241 0.69599998 4291348930
0.22123529 -0.15082377 0.69599998 4291414979
0.22287756 -0.15104014 0.69700003 4291414979
0.22420192 -0.15103973 0.69700003 4291414979
0.22455546 -0.15038918 0.69400001 4291414979
0.22587396 -0.15038867 0.69400001 4291612102
0.22817454 -0.15103823 0.69700003 4291546309
0.22982791 -0.15125433 0.69800001 4291414979
0.23115385 -0.15125367 0.69800001 4291611337
0.23314583 -0.15168634 0.69999999 4291677130
0.23380546 -0.15125217 0.69800001 4291546055
0.2351312 -0.15125138 0.69800001 4291611848
0.23645684 -0.15125048 0.69800001 4291611848
0.23846371 -0.15168294 0.69999999 4291546055
0.24013555 -0.15189862 0.70099998 4291677893
0.24146663 -0.15189755 0.70099998 4291677893
0.24279761 -0.15189643 0.70099998 4291612102
0.24412853 -0.15189527 0.70099998 4291546309
0.24545938 -0.15189403 0.70099998 4291546309
0.24749419 -0.15232609 0.70300001 4291283137
0.24882863 -0.15232472 0.70300001 4291217094
0.2501629 -0.15232329 0.70300001 4291217094
0.25185487 -0.15253846 0.704 4291282885
0.25319082 -0.15253688 0.704 4291414727
0.25597289 -0.15340193 0.708 4291414979
0.26085156 -0.15469842 0.71399999 4291414727
0.26220599 -0.15469654 0.71399999 4291611850
0.26429865 -0.15512791 0.71600002 4291874758
0.14204445 -0.15697369 0.73100001 4290557615
0.14323722 -0.15676025 0.73000002 4290623408
0.14462434 -0.15676153 0.73000002 4290557613
0.14561144 -0.1563333 0.72799999 4290426284
0.14699483 -0.15633456 0.72799999 4290491556
0.14817443 -0.15612109 0.727 4290491556
0.14873312 -0.15526335 0.72299999 4290557351
0.1501071 -0.15526459 0.72299999 4290491558
0.15148111 -0.15526581 0.72299999 4290425765
0.15200947 -0.15440801 0.71899998 4290425765
0.1529493 -0.15397973 0.71700001 4290425765
0.15409677 -0.15376617 0.71600002 4290425765
0.15502335 -0.15333781 0.71399999 4290294695
0.15572333 -0.1526947 0.71100003 4290294695
0.15685377 -0.15248109 0.70999998 4290294695
0.15820327 -0.15248226 0.70999998 4290294695
0.15910335 -0.15205386 0.708 4290294695
0.16044909 -0.15205497 0.708 4290294695
0.16179484 -0.15205605 0.708 4290425511
0.16314065 -0.15205717 0.708 4290623147
0.16448642 -0.15205821 0.708 4290557865
0.16583227 -0.15205929 0.708 4290623658
0.16717809 -0.15206032 0.708 4290361255
0.16733383 -0.15098746 0.70300001 4290492842
0.16867022 -0.15098849 0.70300001 4290755246
0.1700066 -0.15098944 0.70300001 4290755246
0.17061183 -0.1503461 0.69999999 4290755761
0.17194255 -0.15034704 0.69999999 4290887348
0.17327327 -0.15034795 0.69999999 4290887600
0.17535231 -0.1509932 0.70300001 4291019186
0.17668878 -0.15099409 0.70300001 4291019188
0.17802525 -0.15099496 0.70300001 4291019188
0.17936172 -0.15099581 0.70300001 4290953141
0.18069822 -0.15099664 0.70300001 4291216312
0.18203469 -0.15099743 0.70300001 4291216058
0.18284953 -0.15056862 0.70099998 4291216058
0.18339399 -0.14992499 0.69800001 4291216058
0.18472099 -0.14992571 0.69800001 4291347901
0.18578145 -0.14971162 0.69700003 4291217083
0.18710653 -0.14971229 0.69700003 4291217083
0.18843162 -0.14971292 0.69700003 4291347901
0.18948446 -0.14949875 0.69599998 4291282108
0.19080764 -0.14949933 0.69599998 4291216058
0.19213082 -0.14949988 0.69599998 4291282108
0.19289812 -0.14907081 0.69400001 4291216058
0.19421746 -0.14907129 0.69400001 4291282108
0.19553684 -0.14907177 0.69400001 4291413694
0.19742343 -0.14950177 0.69599998 4291413694
0.19874656 -0.14950217 0.69599998 4291282878
0.20006965 -0.14950255 0.69599998 4291216829
0.20168214 -0.1497177 0.69700003 4291216829
0.20329832 -0.14993277 0.69800001 4291414207
0.20433202 -0.14971824 0.69700003 4291413953
0.20565696 -0.14971845 0.69700003 4291413953
0.20609096 -0.14907423 0.69400001 4291347647
0.20741016 -0.14907439 0.69400001 4291413440
0.20782699 -0.14843006 0.69099998 4291282108
0.20914038 -0.14843011 0.69099998 4291413694
0.21045376 -0.14843017 0.69099998 4291413953
0.21176708 -0.14843012 0.69099998 4291413953
0.21308036 -0.14843006 0.69099998 4291480002
0.2150142 -0.14885959 0.69300002 4291480002
0.21664339 -0.14907426 0.69400001 4291414207
0.21859041 -0.14950368 0.69599998 4291545793
0.21991302 -0.14950344 0.69599998 4291349184
0.2215535 -0.14971797 0.69700003 4291349184
0.22319768 -0.14993246 0.69800001 4291414727
0.22452396 -0.14993206 0.69800001 4291414727
0.22585016 -0.14993162 0.69800001 4291414977
0.22717635 -0.14993118 0.69800001 4291414977
0.22850245 -0.14993063 0.69800001 4291414977
0.23048703 -0.15035966 0.69999999 4291546306
0.23214796 -0.15057383 0.70099998 4291414725
0.23347959 -0.15057312 0.70099998 4291348932
0.23447618 -0.1503576 0.69999999 4291479748
0.23580573 -0.15035683 0.69999999 4291545541
0.23713525 -0.15035596 0.69999999 4291282885
0.23846462 -0.15035507 0.69999999 4291348934
0.24013658 -0.15056889 0.70099998 4291348932
0.24146771 -0.15056787 0.70099998 4291414725
0.24279876 -0.1505668 0.70099998 4291414473
0.24482623 -0.15099522 0.70300001 4291414473
0.24616094 -0.15099403 0.70300001 4291414725
0.24749549 -0.15099277 0.70300001 4291283139
0.24882998 -0.15099141 0.70300001 4291217094
0.25016433 -0.15099001 0.70300001 4291217094
0.25292963 -0.15184768 0.70700002 4291217346
0.25463104 -0.15206093 0.708 4291414725
0.14204316 -0.15558586 0.73100001 4290557361
0.14343216 -0.15558715 0.73100001 4290557361
0.14462306 -0.15537557 0.73000002 4290361006
0.14501016 -0.15431266 0.72500002 4290361006
0.14638785 -0.15431391 0.72500002 4290426535
0.14817318 -0.15474087 0.727 4290360742
0.14914331 -0.15431641 0.72500002 4290491558
0.15010586 -0.15389195 0.72299999 4290491558
0.15127037 -0.15368034 0.722 4290491556
0.15221967 -0.15325585 0.72000003 4290294434
0.15337472 -0.15304421 0.71899998 4290228902
0.15409559 -0.15240686 0.71600002 4290228902
0.15502217 -0.15198231 0.71399999 4290425763
0.15572217 -0.1513449 0.71100003 4290425763
0.15685263 -0.15113319 0.70999998 4290425763
0.15820213 -0.15113433 0.70999998 4290294434
0.1591022 -0.15070972 0.708 4290294182
0.16044797 -0.15071087 0.708 4290294182
0.16179375 -0.15071197 0.708 4290228650
0.16313955 -0.15071307 0.708 4290426286
0.16448538 -0.15071416 0.708 4290623397
0.16583122 -0.15071522 0.708 4290689190
0.16764933 -0.15114202 0.70999998 4290492842
0.16852294 -0.15071727 0.708 4290492842
0.16986884 -0.15071829 0.708 4290492590
0.17000563 -0.14965491 0.70300001 4290558383
0.17134206 -0.14965589 0.70300001 4290755759
0.17267847 -0.14965682 0.70300001 4290821552
0.17401497 -0.14965779 0.70300001 4291018668
0.17535144 -0.14965871 0.70300001 4291084461
0.17668788 -0.14965959 0.70300001 4291084209
0.17802441 -0.14966048 0.70300001 4291084209
0.1793609 -0.14966133 0.70300001 4290953141
0.18069738 -0.14966217 0.70300001 4291018934
0.18203388 -0.14966297 0.70300001 4291018934
0.18337044 -0.14966376 0.70300001 4291018934
0.18339328 -0.14860006 0.69800001 4291084983
0.18472026 -0.14860079 0.69800001 4291282105
0.18578075 -0.14838859 0.69700003 4291282103
0.18710589 -0.14838929 0.69700003 4291347897
0.18843101 -0.14838995 0.69700003 4291282105
0.18975611 -0.14839056 0.69700003 4291216312
0.19108126 -0.14839116 0.69700003 4291347388
0.19213028 -0.14817882 0.69599998 4291281594
0.19345348 -0.14817935 0.69599998 4291216058
0.19421697 -0.14775406 0.69400001 4291282108
0.19553636 -0.14775454 0.69400001 4291217083
0.197423 -0.14818078 0.69599998 4291217083
0.19903173 -0.14839412 0.69700003 4291216829
0.20035677 -0.1483945 0.69700003 4291216829
0.20168178 -0.14839484 0.69700003 4291216831
0.2030068 -0.14839514 0.69700003 4291282624
0.2043318 -0.14839543 0.69700003 4291413440
0.20565671 -0.14839567 0.69700003 4291413440
0.20668471 -0.14818294 0.69599998 4291347647
0.20741001 -0.14775731 0.69400001 4291347647
0.20782688 -0.1471187 0.69099998 4291281854
0.20914036 -0.14711879 0.69099998 4291347647
0.21045372 -0.14711882 0.69099998 4291282626
0.21176712 -0.14711885 0.69099998 4291282626
0.21308047 -0.14711882 0.69099998 4291414207
0.21439379 -0.14711875 0.69099998 4291480000
0.21664354 -0.14775735 0.69400001 4291414207
0.21796246 -0.14775719 0.69400001 4291480000
0.21991327 -0.14818279 0.69599998 4291414207
0.22155377 -0.14839543 0.69700003 4291282878
0.22287825 -0.14839512 0.69700003 4291414473
0.22420269 -0.14839476 0.69700003 4291546059
0.22585063 -0.1486073 0.69800001 4291414975
0.22782779 -0.14903265 0.69999999 4291414975
0.22915773 -0.14903216 0.69999999 4291414975
0.23081693 -0.14924452 0.70099998 4291546560
0.23281097 -0.14966971 0.70300001 4291545793
0.23348029 -0.14924325 0.70099998 4291414207
0.23481189 -0.14924252 0.70099998 4291413955
0.23614341 -0.14924178 0.70099998 4291545541
0.23747487 -0.14924096 0.70099998 4291348934
0.23948757 -0.14966588 0.70300001 4291414727
0.24082263 -0.14966495 0.70300001 4291348934
0.24215767 -0.14966397 0.70300001 4291348934
0.24349259 -0.14966291 0.70300001 4291545293
0.2448274 -0.14966179 0.70300001 4291479500
0.24651232 -0.14987352 0.704 4291348934
0.24784881 -0.14987227 0.704 4291217092
0.24918531 -0.14987099 0.704 4291217092
0.25123331 -0.15029539 0.70599997 4291151299
0.14343084 -0.1541993 0.73100001 4290492592
0.14462179 -0.15398966 0.73000002 4290361004
0.14500889 -0.15293622 0.72500002 4290295210
0.14638658 -0.15293747 0.72500002 4290360488
0.1477643 -0.15293872 0.72500002 4290360488
0.14873062 -0.15251806 0.72299999 4290163877
0.15010464 -0.15251935 0.72299999 4290163877
0.15126912 -0.15230961 0.722 4290098084
0.15200703 -0.15167797 0.71899998 4290098084
0.15337352 -0.15167919 0.71899998 4290163107
0.15474004 -0.1516804 0.71899998 4290163107
0.15567233 -0.15125968 0.71700001 4290228387
0.15703513 -0.15126087 0.71700001 4290228387
0.1570724 -0.14999624 0.71100003 4290359459
0.15842381 -0.14999741 0.71100003 4290359459
0.15955053 -0.14978758 0.70999998 4290359205
0.1609001 -0.14978871 0.70999998 4290424998
0.16224968 -0.14978981 0.70999998 4290228387
0.1635993 -0.14979093 0.70999998 4290425765
0.16494893 -0.149792 0.70999998 4290164131
0.16629858 -0.14979306 0.70999998 4290427047
0.16764826 -0.14979412 0.70999998 4290492842
0.1685219 -0.14937322 0.708 4290492842
0.16986784 -0.14937428 0.708 4290427049
0.17000464 -0.14832035 0.70300001 4290624428
0.17134109 -0.14832133 0.70300001 4290624682
0.17267756 -0.1483223 0.70300001 4290624682
0.17401402 -0.14832325 0.70300001 4290755498
0.17535052 -0.14832416 0.70300001 4290821291
0.176687 -0.14832509 0.70300001 4290623658
0.17751704 -0.14790398 0.70099998 4290755500
0.17884976 -0.14790484 0.70099998 4290886835
0.1801825 -0.14790569 0.70099998 4291018164
0.1815152 -0.1479065 0.70099998 4290953395
0.18284798 -0.1479073 0.70099998 4291019188
0.18339249 -0.14727508 0.69800001 4290953395
0.18471953 -0.14727582 0.69800001 4291019188
0.1860466 -0.14727655 0.69800001 4291019188
0.18737367 -0.14727724 0.69800001 4291019188
0.18870068 -0.14727791 0.69800001 4291019188
0.19002776 -0.14727856 0.69800001 4291216310
0.19135478 -0.14727916 0.69800001 4291281592
0.19240576 -0.14706874 0.69700003 4291347385
0.19345295 -0.14685829 0.69599998 4291216058
0.19477616 -0.14685881 0.69599998 4291282108
0.1960994 -0.14685932 0.69599998 4291151803
0.19742256 -0.14685975 0.69599998 4291086009
0.19903135 -0.14707121 0.69700003 4291086009
0.20035639 -0.14707163 0.69700003 4291086009
0.20168146 -0.14707197 0.69700003 4291151038
0.20300651 -0.14707232 0.69700003 4291216831
0.20462465 -0.1472836 0.69800001 4291216831
0.20595156 -0.14728385 0.69800001 4291216831
0.20698148 -0.14707308 0.69700003 4291216831
0.20830642 -0.14707325 0.69700003 4291216831
0.20872906 -0.14644036 0.69400001 4291151038
0.20914026 -0.14580745 0.69099998 4291216831
0.21045372 -0.1458075 0.69099998 4291216829
0.21238004 -0.14622957 0.69300002 4291216829
0.2130805 -0.1458075 0.69099998 4291347901
0.21439387 -0.14580747 0.69099998 4291347901
0.21570715 -0.14580737 0.69099998 4291347901
0.21796262 -0.14644025 0.69400001 4291347901
0.21928155 -0.14644006 0.69400001 4291216829
0.22155404 -0.14707287 0.69700003 4291282878
0.22287856 -0.1470726 0.69700003 4291282626
0.22420304 -0.14707226 0.69700003 4291282626
0.22585101 -0.1472829 0.69800001 4291216829
0.22782822 -0.1477045 0.69999999 4291282878
0.22915822 -0.14770401 0.69999999 4291283391
0.23081745 -0.1479145 0.70099998 4291217342
0.23281157 -0.14833593 0.70300001 4291282626
0.23414709 -0.14833531 0.70300001 4291282626
0.23548254 -0.14833464 0.70300001 4291150786
0.23681793 -0.14833389 0.70300001 4291216579
0.23815326 -0.1483331 0.70300001 4291217092
0.23948845 -0.14833227 0.70300001 4291348934
0.24082361 -0.14833136 0.70300001 4291282887
0.24215868 -0.14833039 0.70300001 4291217094
0.24349366 -0.14832939 0.70300001 4291282374
0.24517678 -0.14853929 0.704 4291413703
0.24651349 -0.14853816 0.704 4291282887
0.24785009 -0.14853695 0.704 4291217094
0.14402618 -0.15197662 0.727 4290361004
0.14540762 -0.15197787 0.727 4290295210
0.14678912 -0.15197915 0.727 4290228650
0.14776304 -0.15156232 0.72500002 4290228650
0.14872937 -0.15114546 0.72299999 4290098338
0.15010339 -0.15114672 0.72299999 4290032289
0.15126787 -0.1509389 0.722 4290163109
0.15200582 -0.15031296 0.71899998 4290163109
0.1533723 -0.15031418 0.71899998 4290097312
0.15473884 -0.1503154 0.71899998 4290097312
0.15610538 -0.1503166 0.71899998 4290162596
0.15703392 -0.14989966 0.71700001 4290162596
0.15817583 -0.14969178 0.71600002 4290096803
0.15909111 -0.14927481 0.71399999 4290096803
0.16044827 -0.14927596 0.71399999 4290228387
0.16180545 -0.14927711 0.71399999 4290623145
0.16247709 -0.148651 0.71100003 4290294434
0.16382863 -0.14865212 0.71100003 4290228641
0.16518018 -0.14865322 0.71100003 4290228639
0.16629751 -0.1484452 0.70999998 4290294432
0.16764721 -0.14844626 0.70999998 4290098084
0.16852088 -0.14802918 0.708 4290032291
0.16986682 -0.14803021 0.708 4290294695
0.17097095 -0.14782213 0.70700002 4290623660
0.17134011 -0.14698678 0.70300001 4290493094
0.17267658 -0.14698775 0.70300001 4290427301
0.17401309 -0.14698872 0.70300001 4290689703
0.17534959 -0.14698964 0.70300001 4290821289
0.17668611 -0.14699057 0.70300001 4290689455
0.17751618 -0.14657328 0.70099998 4290755248
0.17884889 -0.14657414 0.70099998 4290886832
0.18018165 -0.14657499 0.70099998 4290886832
0.18151441 -0.14657584 0.70099998 4290953393
0.18336889 -0.14699484 0.70300001 4291019186
0.18391721 -0.14636831 0.69999999 4290953391
0.18524808 -0.14636907 0.69999999 4290887598
0.18657894 -0.14636981 0.69999999 4290953141
0.18790981 -0.14637052 0.69999999 4291084983
0.18924072 -0.14637119 0.69999999 4291018934
0.19057158 -0.14637186 0.69999999 4291084983
0.19190246 -0.14637248 0.69999999 4291084983
0.19268127 -0.14595488 0.69800001 4291084983
0.19373034 -0.14574632 0.69700003 4291018936
0.1950555 -0.14574687 0.69700003 4291018936
0.19638066 -0.14574739 0.69700003 4290953654
0.19770579 -0.14574786 0.69700003 4290953654
0.19903091 -0.1457483 0.69700003 4290888379
0.20035601 -0.14574872 0.69700003 4290954428
0.20197047 -0.1459582 0.69800001 4291085244
0.20329741 -0.14595854 0.69800001 4291085244
0.20462438 -0.14595886 0.69800001 4291085244
0.2059513 -0.14595912 0.69800001 4291085244
0.20698129 -0.14575027 0.69700003 4291085244
0.20830627 -0.14575046 0.69700003 4291151038
0.20872892 -0.1451233 0.69400001 4291151036
0.2091402 -0.14449608 0.69099998 4291151036
0.21045366 -0.14449616 0.69099998 4291151036
0.21238004 -0.14491443 0.69300002 4291151036
0.21308056 -0.14449623 0.69099998 4291151038
0.21439394 -0.14449617 0.69099998 4291151038
0.21570726 -0.1444961 0.69099998 4291281854
0.21796279 -0.14512332 0.69400001 4291347647
0.21928172 -0.14512315 0.69400001 4291347647
0.22155429 -0.1457503 0.69700003 4291413440
0.22319862 -0.14595914 0.69800001 4291216831
0.22452506 -0.14595886 0.69800001 4291216831
0.22682211 -0.14658582 0.70099998 4291151553
0.22815415 -0.14658542 0.70099998 4291085504
0.22948608 -0.14658496 0.70099998 4291151553
0.23081799 -0.14658448 0.70099998 4291085504
0.23281217 -0.14700215 0.70300001 4291085506
0.23414776 -0.14700153 0.70300001 4291085506
0.23548326 -0.14700089 0.70300001 4291085508
0.23681869 -0.14700019 0.70300001 4291085508
0.23815405 -0.14699942 0.70300001 4291217092
0.23982999 -0.14720772 0.704 4291414727
0.2411671 -0.14720686 0.704 4291217346
0.24250409 -0.1472059 0.704 4291151553
0.24384107 -0.14720494 0.704 4291216581
0.24517788 -0.14720389 0.704 4291216581
0.14339943 -0.15287241 0.73799998 4290492338
0.14440931 -0.15245943 0.736 4290426545
0.14541166 -0.15204646 0.73400003 4290426799
0.14560634 -0.15080483 0.72799999 4290361006
0.14698975 -0.15080608 0.72799999 4289966246
0.1481694 -0.15060024 0.727 4290032039
0.14913954 -0.15018718 0.72500002 4290228902
0.15010214 -0.14977415 0.72299999 4290097316
0.15147617 -0.14977537 0.72299999 4290097316
0.1520046 -0.14894798 0.71899998 4289965987
0.1533711 -0.14894921 0.71899998 4290096798
0.15473762 -0.1489504 0.71899998 4290096798
0.15610418 -0.14895162 0.71899998 4290096553
0.15747075 -0.1489528 0.71899998 4290096553
0.15839556 -0.14853968 0.71700001 4290031009
0.1597584 -0.14854084 0.71700001 4290096803
0.16112128 -0.14854202 0.71700001 4290162594
0.16248417 -0.14854315 0.71700001 4290228387
0.16293301 -0.14771557 0.713 4290162848
0.16382752 -0.14730236 0.71100003 4290162848
0.16517907 -0.14730345 0.71100003 4290162848
0.16629645 -0.14709736 0.70999998 4290228641
0.16764615 -0.14709842 0.70999998 4290294436
0.16828182 -0.14647794 0.70700002 4290228387
0.16962586 -0.14647898 0.70700002 4290228389
0.17096995 -0.14647999 0.70700002 4290557354
0.17207028 -0.14627381 0.70599997 4290361253
0.17292126 -0.14586043 0.704 4290361253
0.17425965 -0.14586139 0.704 4290557349
0.17559808 -0.14586233 0.704 4290623399
0.17693652 -0.14586328 0.704 4290557865
0.17802174 -0.14565696 0.70300001 4290623658
0.17935829 -0.14565784 0.70300001 4290755759
0.18069491 -0.14565872 0.70300001 4290624430
0.18203145 -0.14565954 0.70300001 4290559402
0.18336804 -0.14566039 0.70300001 4290690988
0.18417917 -0.14524676 0.70099998 4290756782
0.18524733 -0.14504032 0.69999999 4290756782
0.18657826 -0.14504109 0.69999999 4290624943
0.18790913 -0.14504178 0.69999999 4290690736
0.18924004 -0.14504248 0.69999999 4290690739
0.19084321 -0.14525035 0.70099998 4290887861
0.19190186 -0.14504378 0.69999999 4290822840
0.19323274 -0.14504439 0.69999999 4290822840
0.19372982 -0.14442337 0.69700003 4290757045
0.19505496 -0.1444239 0.69700003 4290757045
0.19638017 -0.14442444 0.69700003 4290756530
0.19798896 -0.14463213 0.69800001 4290887859
0.19931601 -0.14463259 0.69800001 4290953656
0.20064306 -0.14463304 0.69800001 4290953656
0.20197012 -0.14463341 0.69800001 4291018936
0.20329709 -0.14463377 0.69800001 4291018936
0.20462407 -0.1446341 0.69800001 4290953656
0.20595104 -0.14463438 0.69800001 4291019449
0.20698105 -0.14442743 0.69700003 4290888379
0.2083061 -0.14442767 0.69700003 4290888379
0.20963106 -0.14442785 0.69700003 4291085756
0.21065338 -0.14422077 0.69599998 4291085756
0.21197641 -0.14422086 0.69599998 4290954424
0.21268646 -0.1438065 0.69400001 4290954424
0.21369727 -0.14359933 0.69300002 4291085244
0.21501452 -0.1435993 0.69300002 4291085244
0.21664387 -0.14380647 0.69400001 4291084731
0.21859106 -0.14422081 0.69599998 4291216060
0.21991383 -0.14422064 0.69599998 4291216060
0.22155452 -0.14442769 0.69700003 4291216060
0.22383842 -0.14504908 0.69999999 4291151038
0.22549039 -0.14525601 0.70099998 4291151038
0.22682245 -0.14525568 0.70099998 4291151551
0.22880554 -0.14566976 0.70300001 4291151551
0.2301413 -0.14566933 0.70300001 4291020735
0.23147707 -0.14566885 0.70300001 4291020735
0.23314388 -0.14587553 0.704 4291085758
0.23414834 -0.14566776 0.70300001 4291085758
0.23548396 -0.14566715 0.70300001 4291085506
0.23681939 -0.14566645 0.70300001 4291085506
0.23815481 -0.14566572 0.70300001 4291085506
0.23949017 -0.14566493 0.70300001 4291282885
0.24082541 -0.1456641 0.70300001 4291085506
0.24216056 -0.1456632 0.70300001 4291085506
0.14339812 -0.15147136 0.73799998 4290492338
0.144408 -0.15106216 0.736 4290426545
0.14541034 -0.15065299 0.73400003 4290557615
0.14560509 -0.14942278 0.72799999 4290557615
0.14698847 -0.14942405 0.72799999 4290228652
0.14837192 -0.1494253 0.72799999 4290162859
0.14954971 -0.14922133 0.727 4290097062
0.15051612 -0.1488121 0.72500002 4290097062
0.15147491 -0.1484028 0.72299999 4289966498
0.15221478 -0.14778827 0.72000003 4289900705
0.15358318 -0.14778949 0.72000003 4289768603
0.15495162 -0.14779072 0.72000003 4289900189
0.1563201 -0.14779191 0.72000003 4289900203
0.15746957 -0.14758785 0.71899998 4289834409
0.15883619 -0.14758903 0.71899998 4289964960
0.15975724 -0.14717969 0.71700001 4290031009
0.16112012 -0.14718086 0.71700001 4290096798
0.16248301 -0.14718199 0.71700001 4290162848
0.16293189 -0.14636204 0.713 4290096801
0.16382642 -0.14595261 0.71100003 4290031007
0.16517799 -0.14595371 0.71100003 4290096801
0.16652958 -0.1459548 0.71100003 4290096801
0.16764508 -0.14575058 0.70999998 4290228641
0.1682808 -0.14513582 0.70700002 4290228641
0.16962484 -0.14513685 0.70700002 4290294182
0.17096891 -0.14513786 0.70700002 4290425511
0.1720693 -0.14493358 0.70599997 4290491558
0.17292026 -0.14452401 0.704 4290425765
0.17425868 -0.14452495 0.704 4290491556
0.17559715 -0.14452593 0.704 4290557349
0.1769356 -0.14452687 0.704 4290688167
0.17802088 -0.14432248 0.70300001 4290688167
0.17935741 -0.14432336 0.70300001 4290689190
0.18069404 -0.14432424 0.70300001 4290754983
0.18203063 -0.14432509 0.70300001 4290623910
0.18336725 -0.1443259 0.70300001 4290558117
0.18417838 -0.1439161 0.70099998 4290756263
0.18524659 -0.14371158 0.69999999 4290822056
0.18657748 -0.14371233 0.69999999 4290756011
0.18790843 -0.14371306 0.69999999 4290821804
0.18923937 -0.14371376 0.69999999 4290755507
0.19084254 -0.14391975 0.70099998 4290755507
0.19190124 -0.1437151 0.69999999 4290624693
0.19323212 -0.14371571 0.69999999 4290624693
0.19400719 -0.1433057 0.69800001 4290690739
0.1950544 -0.14310093 0.69700003 4290887861
0.19637968 -0.1431015 0.69700003 4290690990
0.19798847 -0.14330728 0.69800001 4290690990
0.19931559 -0.14330776 0.69800001 4290756532
0.20064263 -0.14330821 0.69800001 4290887861
0.20196971 -0.14330862 0.69800001 4290756532
0.20329672 -0.143309 0.69800001 4290756532
0.20462376 -0.14330932 0.69800001 4290756280
0.20595075 -0.14330964 0.69800001 4290887609
0.20727775 -0.14330991 0.69800001 4290953654
0.20860471 -0.14331016 0.69800001 4290756532
0.20963089 -0.14310506 0.69700003 4291019699
0.21095587 -0.14310519 0.69700003 4291217335
0.21197629 -0.1429 0.69599998 4291216564
0.21329935 -0.14290006 0.69599998 4291084979
0.21462232 -0.14290012 0.69599998 4291084983
0.2159453 -0.14290011 0.69599998 4291084983
0.21726824 -0.14290008 0.69599998 4291084731
0.21859117 -0.14290002 0.69599998 4291084731
0.21991399 -0.14289989 0.69599998 4291019197
0.22155471 -0.14310506 0.69700003 4291019197
0.22415841 -0.1439261 0.70099998 4291084990
0.22549066 -0.14392585 0.70099998 4291151040
0.22746994 -0.14433616 0.70300001 4291085756
0.2288059 -0.14433582 0.70300001 4291151549
0.23014173 -0.14433543 0.70300001 4291151549
0.23180681 -0.14454028 0.704 4291151549
0.23314443 -0.14453979 0.704 4291085756
0.23448202 -0.14453925 0.704 4291085756
0.23581953 -0.14453866 0.704 4291085758
0.23682006 -0.14433268 0.70300001 4290954428
0.23815556 -0.14433198 0.70300001 4291151551
0.23949094 -0.14433123 0.70300001 4291217344
0.24082628 -0.14433041 0.70300001 4291085506
0.24216148 -0.14432953 0.70300001 4290954176
0.14479913 -0.15007165 0.73799998 4290623156
0.14540903 -0.14925955 0.73400003 4290361006
0.14660384 -0.14905749 0.73299998 4290361006
0.14739101 -0.14844874 0.73000002 4290294958
0.14837068 -0.14804329 0.72799999 4290097836
0.14954844 -0.1478412 0.727 4289965994
0.15093005 -0.14784245 0.727 4289900201
0.15189271 -0.14743701 0.72500002 4290096549
0.15221353 -0.14642142 0.72000003 4289964962
0.15358195 -0.14642264 0.72000003 4289768349
0.15495038 -0.14642386 0.72000003 4289834398
0.15631887 -0.14642508 0.72000003 4289964712
0.15812542 -0.14683303 0.722 4289767334
0.15905593 -0.1464275 0.72000003 4289702045
0.1604245 -0.14642867 0.72000003 4289964960
0.16156837 -0.14622647 0.71899998 4289834396
0.16248186 -0.14582087 0.71700001 4289834396
0.16315927 -0.14521189 0.71399999 4289768349
0.16451651 -0.14521301 0.71399999 4289768349
0.16587384 -0.14521413 0.71399999 4290031007
0.16629429 -0.1444017 0.70999998 4290031007
0.16693568 -0.14379264 0.70700002 4289965214
0.16827974 -0.14379369 0.70700002 4290096801
0.16962379 -0.14379472 0.70700002 4290096803
0.17096792 -0.14379576 0.70700002 4290228389
0.17231204 -0.1437968 0.70700002 4290228387
0.17291927 -0.1431876 0.704 4290228387
0.17425774 -0.14318858 0.704 4290228387
0.17559622 -0.14318953 0.704 4290294436
0.17693467 -0.14319047 0.704 4290491558
0.17827317 -0.14319138 0.704 4290228387
0.17935656 -0.14298891 0.70300001 4290293664
0.18069316 -0.14298978 0.70300001 4290688421
0.18202978 -0.14299063 0.70300001 4290558889
0.18336643 -0.14299145 0.70300001 4290427047
0.18417759 -0.14258547 0.70099998 4290427047
0.18524581 -0.14238286 0.69999999 4290361253
0.18657675 -0.14238361 0.69999999 4290557349
0.18790773 -0.14238437 0.69999999 4290623399
0.1892387 -0.14238507 0.69999999 4290623406
0.19084185 -0.14258917 0.70099998 4290623406
0.19190058 -0.14238641 0.69999999 4290558896
0.19323154 -0.14238705 0.69999999 4290624945
0.19400662 -0.14198084 0.69800001 4290559150
0.19533375 -0.14198142 0.69800001 4290559150
0.19722436 -0.14238878 0.69999999 4290624428
0.19855529 -0.1423893 0.69999999 4290756013
0.19931512 -0.14198294 0.69800001 4290690736
0.20064221 -0.1419834 0.69800001 4290624943
0.20196933 -0.14198384 0.69800001 4290624945
0.20329636 -0.14198421 0.69800001 4290624945
0.20520973 -0.1423914 0.69999999 4290690739
0.20654057 -0.14239173 0.69999999 4290887861
0.20787139 -0.14239201 0.69999999 4290822840
0.20920222 -0.14239226 0.69999999 4290625205
0.20993148 -0.14198567 0.69800001 4290821557
0.2112584 -0.14198583 0.69800001 4290887350
0.21228074 -0.14178255 0.69700003 4290953141
0.21360576 -0.14178267 0.69700003 4290953141
0.21493071 -0.14178273 0.69700003 4291018164
0.21625561 -0.14178273 0.69700003 4291083957
0.21758048 -0.14178273 0.69700003 4290821557
0.21859123 -0.14157924 0.69599998 4291018936
0.21991414 -0.14157914 0.69599998 4291019447
0.22155488 -0.14178242 0.69700003 4291019447
0.22415864 -0.14259589 0.70099998 4291085242
0.22549093 -0.14259568 0.70099998 4290953656
0.22747026 -0.14300221 0.70300001 4290953402
0.22880623 -0.14300188 0.70300001 4291019451
0.23014213 -0.14300151 0.70300001 4290953402
0.23180728 -0.14320453 0.704 4290953402
0.23314491 -0.14320403 0.704 4290822586
0.23448259 -0.14320351 0.704 4290888379
0.23548517 -0.14299953 0.70300001 4290954428
0.23682076 -0.1429989 0.70300001 4290954428
0.23849507 -0.14320163 0.704 4291085758
0.23983236 -0.14320092 0.704 4291085758
0.24082707 -0.14299671 0.70300001 4291085504
0.24216236 -0.14299586 0.70300001 4291085504
0.14479782 -0.14867063 0.73799998 4290492601
0.14580396 -0.14826904 0.736 4290492592
0.14680253 -0.14786743 0.73400003 4290294956
0.14799546 -0.14766726 0.73299998 4290228398
0.14836939 -0.14666125 0.72799999 4290162605
0.14954717 -0.14646107 0.727 4289899435
0.15092881 -0.14646235 0.727 4289965485
0.15189146 -0.14606068 0.72500002 4289899939
0.15221234 -0.14505459 0.72000003 4289834146
