# .PCD v0.7 - Point Cloud Data file format
VERSION 0.7
FIELDS x y z rgba
SIZE 4 4 4 4
TYPE F F F U
COUNT 1 1 1 1
WIDTH 1080
HEIGHT 1
VIEWPOINT 0 0 0 1 0 0 0
POINTS 1080
DATA ascii
0.15419051 -0.19681828 0.68599999 4294637814
0.15640041 -0.19796625 0.69 4294769400
0.15771122 -0.19796661 0.69 4294704377
0.15902203 -0.19796693 0.69 4294638584
0.16033284 -0.19796722 0.69 4294638330
0.16164365 -0.19796748 0.69 4294572537
0.16319063 -0.19825464 0.69099998 4294440951
0.16450331 -0.19825484 0.69099998 4294440951
0.1665359 -0.19911578 0.69400001 4294506744
0.16833799 -0.19968973 0.69599998 4294440951
0.1699039 -0.19997676 0.69700003 4294375158
0.17147361 -0.20026374 0.69800001 4294638330
0.17279953 -0.20026378 0.69800001 4294638584
0.17462437 -0.2008376 0.69999999 4294638584
0.17670812 -0.20169832 0.70300001 4294638330
0.17829677 -0.20198517 0.704 4294638330
0.1801443 -0.20255889 0.70599997 4294440951
0.18174243 -0.20284565 0.70700002 4294375158
0.18308529 -0.2028455 0.70700002 4294375158
0.18442819 -0.20284526 0.70700002 4294440951
0.18603377 -0.20313188 0.708 4294375158
0.18790781 -0.20370542 0.70999998 4294375158
0.18952286 -0.20399195 0.71100003 4294177779
0.19087321 -0.20399155 0.71100003 4294177779
0.19222352 -0.20399112 0.71100003 4294111986
0.1935738 -0.20399064 0.71100003 4294177779
0.056252938 -0.20913532 0.73400003 4293518815
0.057646152 -0.20913589 0.73400003 4293584608
0.059039384 -0.2091365 0.73400003 4293847265
0.060350288 -0.20885214 0.73299998 4294044644
0.061573185 -0.2082829 0.73100001 4294111205
0.062874638 -0.20799866 0.73000002 4294176998
0.064084277 -0.20742939 0.72799999 4294110953
0.065466188 -0.20743006 0.72799999 4294110953
0.066756301 -0.2071458 0.727 4294242795
0.067761466 -0.20600677 0.72299999 4294374381
0.068751469 -0.20486775 0.71899998 4294308588
0.069921337 -0.20429857 0.71700001 4294242795
0.071183056 -0.20401436 0.71600002 4294242795
0.072339661 -0.2034452 0.71399999 4294308588
0.07359191 -0.20316099 0.713 4294374129
0.074735284 -0.20259191 0.71100003 4294308336
0.076085091 -0.20259263 0.71100003 4294308588
0.077326007 -0.20230846 0.70999998 4294374381
0.078673959 -0.20230924 0.70999998 4294505710
0.080021933 -0.20231003 0.70999998 4294505710
0.080911502 -0.20117104 0.70599997 4294440688
0.082018919 -0.20060197 0.704 4294506481
0.083237164 -0.20031783 0.70300001 4294506483
0.084331311 -0.19974872 0.70099998 4294374640
0.085662298 -0.19974956 0.70099998 4294440436
0.086869203 -0.19946545 0.69999999 4294440436
0.088198312 -0.19946624 0.69999999 4294571506
0.08914379 -0.19861227 0.69700003 4294571506
0.090467267 -0.19861309 0.69700003 4294506483
0.091659054 -0.19832899 0.69599998 4294506483
0.09298066 -0.19832984 0.69599998 4294440688
0.094302304 -0.19833069 0.69599998 4294506481
0.095349155 -0.19776164 0.69400001 4294441203
0.096667044 -0.19776249 0.69400001 4294375154
0.097984932 -0.19776335 0.69400001 4294506231
0.099302843 -0.19776425 0.69400001 4294835195
0.10062078 -0.1977651 0.69400001 4294637814
0.10179185 -0.19748102 0.69300002 4294637814
0.10310792 -0.19748186 0.69300002 4294703353
0.10442401 -0.19748273 0.69300002 4294637560
0.10574013 -0.19748364 0.69300002 4294506483
0.1067473 -0.19691457 0.69099998 4294637812
0.10805964 -0.19691543 0.69099998 4294703605
0.10921375 -0.19663133 0.69 4294835191
0.11052423 -0.19663221 0.69 4294769398
0.11183475 -0.1966331 0.69 4294703605
0.11281732 -0.19606397 0.68800002 4294572791
0.11412406 -0.19606481 0.68800002 4294572791
0.11543085 -0.19606568 0.68800002 4294703605
0.11673762 -0.19606651 0.68800002 4294440690
0.11804441 -0.19606738 0.68800002 4294703605
0.11935123 -0.19606821 0.68800002 4294637812
0.12065805 -0.19606906 0.68800002 4294637812
0.12196489 -0.19606981 0.68800002 4294703605
0.12327177 -0.19607066 0.68800002 4294637812
0.12439756 -0.19578648 0.68699998 4294703605
0.12570256 -0.19578725 0.68699998 4294638580
0.12719244 -0.19607303 0.68800002 4294572787
0.12849936 -0.19607379 0.68800002 4294572789
0.1298063 -0.19607459 0.68800002 4294572789
0.13111323 -0.19607534 0.68800002 4294506742
0.1324202 -0.1960761 0.68800002 4294506742
0.13372716 -0.19607683 0.68800002 4294506742
0.13503414 -0.19607753 0.68800002 4294572791
0.13614294 -0.19579321 0.68699998 4294440951
0.13744804 -0.19579393 0.68699998 4294572537
0.13875316 -0.19579458 0.68699998 4294572537
0.14026216 -0.19608027 0.68800002 4294440951
0.1415692 -0.19608089 0.68800002 4294375156
0.14329155 -0.19665152 0.69 4294440949
0.14460237 -0.19665211 0.69 4294440949
0.1459132 -0.19665267 0.69 4294440949
0.14722405 -0.19665326 0.69 4294375156
0.14853491 -0.1966538 0.69 4294440949
0.14941145 -0.19608435 0.68800002 4294506742
0.15028034 -0.19551484 0.68599999 4294506742
0.1515836 -0.19551529 0.68599999 4294506742
0.15288684 -0.19551574 0.68599999 4294506742
0.15594667 -0.19608659 0.68800002 4294769146
0.15725374 -0.19608702 0.68800002 4294638584
0.1585608 -0.19608733 0.68800002 4294638584
0.16033255 -0.19665769 0.69 4294638584
0.1616434 -0.196658 0.69 4294506742
0.16319038 -0.19694327 0.69099998 4294440436
0.16450308 -0.19694349 0.69099998 4294506229
0.16653571 -0.19779874 0.69400001 4294506744
0.16833785 -0.19836897 0.69599998 4294704123
0.16966003 -0.19836915 0.69599998 4294572791
0.17147353 -0.19893928 0.69800001 4294638584
0.1727995 -0.19893938 0.69800001 4294638584
0.17487381 -0.19979443 0.70099998 4294638584
0.17670816 -0.20036447 0.70300001 4294572537
0.17829682 -0.2006495 0.704 4294638330
0.18014441 -0.20121941 0.70599997 4294375158
0.18174258 -0.20150438 0.70700002 4294243572
0.18308547 -0.20150422 0.70700002 4294375158
0.18442838 -0.20150402 0.70700002 4294440951
0.18603407 -0.20178884 0.708 4294375158
0.18790813 -0.20235856 0.70999998 4294375158
0.18952322 -0.20264331 0.71100003 4294178033
0.19141051 -0.20321295 0.713 4294112240
0.1927647 -0.20321254 0.713 4294177779
0.19439103 -0.20349708 0.71399999 4294177779
0.056252375 -0.20774068 0.73400003 4293387232
0.057645559 -0.20774123 0.73400003 4293584610
0.059038777 -0.20774184 0.73400003 4293584606
0.060349666 -0.20745942 0.73299998 4293782242
0.061572555 -0.206894 0.73100001 4293782244
0.062873989 -0.2066116 0.73000002 4293848037
0.064083621 -0.20604622 0.72799999 4293848037
0.065465517 -0.20604686 0.72799999 4294110953
0.066755615 -0.20576452 0.727 4294110953
0.067760773 -0.2046331 0.72299999 4294176746
0.068750769 -0.20350167 0.71899998 4294176746
0.069920622 -0.20293632 0.71700001 4294176746
0.071182333 -0.20265403 0.71600002 4294176746
0.072237611 -0.20180564 0.713 4294242795
0.073591158 -0.20180638 0.713 4294308588
0.074734524 -0.20124108 0.71100003 4294308588
0.076084323 -0.20124182 0.71100003 4294242795
0.07732524 -0.20095956 0.70999998 4294374381
0.078673176 -0.20096035 0.70999998 4294374381
0.080021136 -0.20096116 0.70999998 4294374381
0.081139915 -0.2003959 0.708 4294308847
0.082018115 -0.19926454 0.704 4294374640
0.083236352 -0.19898231 0.70300001 4294506229
0.084330492 -0.19841699 0.70099998 4294440436
0.085539266 -0.19813479 0.69999999 4294243056
0.086868368 -0.19813564 0.69999999 4294440436
0.088197462 -0.19813648 0.69999999 4294506483
0.089142941 -0.1972882 0.69700003 4294506483
0.09046641 -0.19728908 0.69700003 4294506229
0.091658197 -0.19700684 0.69599998 4294506229
0.092979811 -0.19700772 0.69599998 4294375154
0.094301417 -0.19700858 0.69599998 4294375154
0.095348299 -0.19644333 0.69400001 4294441203
0.096666157 -0.19644421 0.69400001 4294441203
0.097984068 -0.19644512 0.69400001 4294441203
0.099301986 -0.19644602 0.69400001 4294572789
0.1006199 -0.19644685 0.69400001 4294506742
0.10179098 -0.19616473 0.69300002 4294440949
0.10310706 -0.19616559 0.69300002 4294506744
0.10442314 -0.19616649 0.69300002 4294506744
0.10573924 -0.19616736 0.69300002 4294506996
0.10705538 -0.19616826 0.69300002 4294506996
0.10805876 -0.195603 0.69099998 4294506742
0.10937114 -0.19560389 0.69099998 4294506742
0.11068354 -0.19560476 0.69099998 4294506229
0.11183388 -0.1953226 0.69 4294637814
0.11314441 -0.19532348 0.69 4294637814
0.11445495 -0.19532432 0.69 4294637814
0.11542998 -0.19475906 0.68800002 4294703605
0.11673675 -0.19475994 0.68800002 4294703605
0.11804357 -0.19476081 0.68800002 4294637812
0.11935039 -0.19476163 0.68800002 4294506483
0.12048184 -0.19447938 0.68699998 4294571506
0.12178679 -0.19448023 0.68699998 4294637299
0.12309177 -0.19448105 0.68699998 4294571504
0.12439676 -0.19448188 0.68699998 4294703090
0.12570176 -0.19448271 0.68699998 4294506996
0.12700677 -0.19448347 0.68699998 4294506996
0.12831178 -0.19448429 0.68699998 4294375154
0.12961684 -0.1944851 0.68699998 4294441203
0.13092192 -0.19448587 0.68699998 4294440949
0.13222697 -0.19448663 0.68699998 4294572791
0.13353206 -0.19448741 0.68699998 4294243572
0.13503341 -0.19477123 0.68800002 4294375158
0.13634041 -0.19477198 0.68800002 4294375158
0.13744736 -0.19448955 0.68699998 4294506744
0.13875248 -0.19449025 0.68699998 4294572537
0.1402615 -0.19477406 0.68800002 4294440951
0.14198008 -0.19534093 0.69 4294375158
0.14329091 -0.19534156 0.69 4294375158
0.14460178 -0.1953422 0.69 4294375156
0.14591263 -0.19534282 0.69 4294440949
0.14722349 -0.19534339 0.69 4294244340
0.14853434 -0.19534396 0.69 4294244340
0.14984523 -0.19534454 0.69 4294375154
0.15071797 -0.19477884 0.68800002 4294441203
0.15202507 -0.19477938 0.68800002 4294440949
0.15333213 -0.19477984 0.68800002 4294375156
0.15594628 -0.19478077 0.68800002 4294506231
0.15725335 -0.19478118 0.68800002 4294440436
0.15856044 -0.19478159 0.68800002 4294506229
0.16033223 -0.19534816 0.69 4294769400
0.16187736 -0.19563159 0.69099998 4294769400
0.16366245 -0.19619814 0.69300002 4294637812
0.164979 -0.1961984 0.69300002 4294637812
0.16653548 -0.19648175 0.69400001 4294440951
0.16833767 -0.19704825 0.69599998 4294440951
0.16965988 -0.19704841 0.69599998 4294440951
0.17147343 -0.19761479 0.69800001 4294440951
0.17329453 -0.19818117 0.69999999 4294506229
0.17487375 -0.19846433 0.70099998 4294637814
0.17670813 -0.19903061 0.70300001 4294374644
0.17829688 -0.19931376 0.704 4294506231
0.18014447 -0.19987996 0.70599997 4294375158
0.18174267 -0.20016302 0.70700002 4294243572
0.18308562 -0.20016292 0.70700002 4294243572
0.18442857 -0.20016275 0.70700002 4294440951
0.18655981 -0.20101194 0.70999998 4294177779
0.18817306 -0.20129485 0.71100003 4294177779
0.19005664 -0.20186076 0.713 4294046193
0.19167933 -0.20214359 0.71399999 4294111986
0.19303545 -0.20214324 0.71399999 4294177779
0.1952083 -0.20299216 0.71700001 4294111986
0.19711836 -0.20355794 0.71899998 4294375158
0.056405075 -0.20690824 0.736 4293321441
0.057802044 -0.20690882 0.736 4293716199
0.05903817 -0.20634721 0.73400003 4293584608
0.060349036 -0.20606665 0.73299998 4293716195
0.061571911 -0.20550506 0.73100001 4293782244
0.062873334 -0.20522459 0.73000002 4293782244
0.06408295 -0.20466299 0.72799999 4293847783
0.065464832 -0.20466366 0.72799999 4294176748
0.066754915 -0.20438321 0.727 4294110953
0.067760065 -0.20325939 0.72299999 4294110953
0.068750046 -0.20213558 0.71899998 4294110953
0.069919899 -0.20157407 0.71700001 4294110953
0.070982754 -0.20073137 0.71399999 4294176746
0.072236866 -0.20045097 0.713 4294176746
0.073590413 -0.20045173 0.713 4294242795
0.074733756 -0.19989026 0.71100003 4294242795
0.076083548 -0.19989103 0.71100003 4294242795
0.07732445 -0.19961067 0.70999998 4294308588
0.078672379 -0.19961147 0.70999998 4294308588
0.080020316 -0.19961224 0.70999998 4294308588
0.081139095 -0.19905081 0.708 4294177263
0.082250282 -0.19848935 0.70599997 4294177263
0.083353914 -0.19792791 0.704 4294374642
0.08432965 -0.19708528 0.70099998 4294703607
0.085538425 -0.19680499 0.69999999 4294440438
0.086867504 -0.19680582 0.69999999 4294637560
0.088196628 -0.19680667 0.69999999 4294506483
0.089269973 -0.19624525 0.69800001 4294506483
0.090465538 -0.19596498 0.69700003 4294506229
0.091657326 -0.1956847 0.69599998 4294440436
0.092978917 -0.19568555 0.69599998 4294375156
0.094300553 -0.19568646 0.69599998 4294375156
0.095622182 -0.19568734 0.69599998 4294441203
0.096665278 -0.19512592 0.69400001 4294704375
0.097983167 -0.1951268 0.69400001 4294572787
0.099301077 -0.19512771 0.69400001 4294572787
0.10061902 -0.19512863 0.69400001 4294441203
0.10193696 -0.19512953 0.69400001 4294375154
0.10325491 -0.19513039 0.69400001 4294440949
0.10457291 -0.19513133 0.69400001 4294506742
0.10573834 -0.19485107 0.69300002 4294572789
0.10705449 -0.19485199 0.69300002 4294572789
0.10837063 -0.19485287 0.69300002 4294506742
0.10937026 -0.19429144 0.69099998 4294440949
0.11068265 -0.19429237 0.69099998 4294637814
0.11183298 -0.19401208 0.69 4294506229
0.11281557 -0.19345061 0.68800002 4294506231
0.11412232 -0.19345149 0.68800002 4294440438
0.1154291 -0.1934524 0.68800002 4294506483
0.1167359 -0.19345328 0.68800002 4294769398
0.1180427 -0.19345416 0.68800002 4294506483
0.11934954 -0.19345506 0.68800002 4294374640
0.12048098 -0.1931747 0.68699998 4294440436
0.12178595 -0.19317557 0.68699998 4294440436
0.12309093 -0.19317642 0.68699998 4294374894
0.12439591 -0.19317724 0.68699998 4294440688
0.12570094 -0.1931781 0.68699998 4294506483
0.12700595 -0.19317894 0.68699998 4294506483
0.12831098 -0.19317973 0.68699998 4294506483
0.12961605 -0.19318056 0.68699998 4294506483
0.13092113 -0.19318138 0.68699998 4294506744
0.1322262 -0.19318216 0.68699998 4294901502
0.13353129 -0.19318292 0.68699998 4294440951
0.13503267 -0.19346489 0.68800002 4294375158
0.13633968 -0.19346562 0.68800002 4294375158
0.13764672 -0.1934664 0.68800002 4294243572
0.13895375 -0.1934671 0.68800002 4294374644
0.1408724 -0.19431144 0.69099998 4294242802
0.14218517 -0.19431211 0.69099998 4294177779
0.14349791 -0.1943128 0.69099998 4294243572
0.14481071 -0.19431345 0.69099998 4294375156
0.14612347 -0.19431408 0.69099998 4294440949
0.14743626 -0.1943147 0.69099998 4294375156
0.14874904 -0.1943153 0.69099998 4294243826
0.14984469 -0.1940347 0.69 4294375408
0.15115556 -0.19403525 0.69 4294835959
0.15268745 -0.19431701 0.69099998 4294440949
0.15400022 -0.1943175 0.69099998 4294375156
0.15643685 -0.19572407 0.69599998 4294440951
0.15594585 -0.19347483 0.68800002 4294440951
0.15725295 -0.19347531 0.68800002 4294375158
0.15856004 -0.19347572 0.68800002 4294375158
0.16033186 -0.19403853 0.69 4294637814
0.16187704 -0.19432013 0.69099998 4294703607
0.16366215 -0.19488291 0.69300002 4294637814
0.16521676 -0.1951644 0.69400001 4294835193
0.16701517 -0.19572711 0.69599998 4294506744
0.16857931 -0.19600859 0.69700003 4294375158
0.17087851 -0.19713371 0.70099998 4294375158
0.17221025 -0.19713388 0.70099998 4294375158
0.17354195 -0.19713402 0.70099998 4294506231
0.1753726 -0.19769661 0.70300001 4294506231
0.17695943 -0.1979779 0.704 4294375158
0.17829682 -0.19797795 0.704 4294440951
0.18014449 -0.19854042 0.70599997 4294375156
0.18174273 -0.1988216 0.70700002 4294243826
0.18308572 -0.19882154 0.70700002 4294243572
0.18547216 -0.19994631 0.71100003 4294506744
0.18682276 -0.19994621 0.71100003 4294177779
0.1887026 -0.2005084 0.713 4294046193
0.19032349 -0.20078944 0.71399999 4294046193
0.19167967 -0.20078915 0.71399999 4294046193
0.19357653 -0.20135127 0.71600002 4293914607
0.19520868 -0.20163211 0.71700001 4293980400
0.19711879 -0.20219414 0.71899998 4294177779
0.056404483 -0.2055098 0.736 4293189853
0.05780144 -0.20551038 0.736 4293518561
0.059037548 -0.20495255 0.73400003 4293518813
0.060348403 -0.20467392 0.73299998 4293782242
0.061487034 -0.20383692 0.73000002 4293716708
0.062872663 -0.20383756 0.73000002 4293716708
0.06408228 -0.20327981 0.72799999 4293782503
0.065464146 -0.20328048 0.72799999 4293914089
0.06657058 -0.20244351 0.72500002 4294045159
0.067384474 -0.20076878 0.71899998 4294110953
0.068558082 -0.20021105 0.71700001 4294045159
0.069919154 -0.20021179 0.71700001 4294110953
0.070982002 -0.19937481 0.71399999 4294110953
0.072236098 -0.19909634 0.713 4294110953
0.073589638 -0.19909711 0.713 4294110953
0.074943185 -0.1990979 0.713 4294176746
0.076082744 -0.19854021 0.71100003 4294242795
0.07743255 -0.19854102 0.71100003 4294308588
0.078782365 -0.19854182 0.71100003 4294308588
0.080019511 -0.19826342 0.70999998 4294308588
0.081138268 -0.19770575 0.708 4294242541
0.08224944 -0.19714808 0.70599997 4294242541
0.083353072 -0.19659044 0.704 4294177261
0.084328808 -0.19575354 0.70099998 4294243054
0.085659765 -0.19575441 0.70099998 4294243056
0.086990751 -0.19575526 0.70099998 4294374642
0.088195756 -0.19547689 0.69999999 4294374894
0.089269102 -0.19491927 0.69800001 4294374894
0.090464666 -0.1946409 0.69700003 4294440688
0.091656432 -0.19436251 0.69599998 4294440688
0.092978023 -0.1943634 0.69599998 4294243824
0.094299644 -0.19436432 0.69599998 4294375154
0.095621303 -0.19436523 0.69599998 4294441203
0.096942954 -0.19436614 0.69599998 4294572789
0.09798228 -0.19380854 0.69400001 4294572787
0.099300176 -0.19380945 0.69400001 4294506994
0.10061809 -0.19381037 0.69400001 4294375408
0.10193604 -0.19381128 0.69400001 4294441201
0.10325403 -0.19381222 0.69400001 4294441203
0.10457202 -0.19381315 0.69400001 4294506996
0.10573744 -0.19353479 0.69300002 4294506996
0.1067446 -0.19297716 0.69099998 4294506996
0.10805695 -0.19297807 0.69099998 4294441203
0.10936935 -0.19297898 0.69099998 4294441203
0.11068173 -0.19297993 0.69099998 4294440949
0.11183207 -0.19270156 0.69 4294440949
0.11281466 -0.19214392 0.68800002 4294506229
0.11412144 -0.19214484 0.68800002 4294440436
0.1154282 -0.19214574 0.68800002 4294375154
0.116735 -0.19214661 0.68800002 4294506996
0.11804181 -0.19214752 0.68800002 4294375154
0.11934864 -0.19214842 0.68800002 4294243824
0.12048011 -0.19187 0.68699998 4294375154
0.1217851 -0.19187091 0.68699998 4294375154
0.12309007 -0.19187179 0.68699998 4294375154
0.12439507 -0.19187263 0.68699998 4294375154
0.12570009 -0.19187349 0.68699998 4294506481
0.12700512 -0.19187433 0.68699998 4294703603
0.12831016 -0.19187519 0.68699998 4294637812
0.12961522 -0.19187601 0.68699998 4294506483
0.13092032 -0.19187684 0.68699998 4294440951
0.13222541 -0.19187765 0.68699998 4294440951
0.13353051 -0.19187844 0.68699998 4294440949
0.13483563 -0.19187924 0.68699998 4294375156
0.13633893 -0.19215932 0.68800002 4294440436
0.13764597 -0.19216007 0.68800002 4294440436
0.13895303 -0.19216082 0.68800002 4294374644
0.14087169 -0.19299945 0.69099998 4294374644
0.14218447 -0.1930002 0.69099998 4294374644
0.14349723 -0.19300087 0.69099998 4294374644
0.14481004 -0.19300155 0.69099998 4294374642
0.14612283 -0.19300225 0.69099998 4294637814
0.14743562 -0.19300289 0.69099998 4294243572
0.14917897 -0.19356215 0.69300002 4294243572
0.15049559 -0.19356278 0.69300002 4294375154
0.1518122 -0.19356336 0.69300002 4294441203
0.15312882 -0.19356394 0.69300002 4294375156
0.15533693 -0.19468175 0.69700003 4294375156
0.15643637 -0.19440292 0.69599998 4294440949
0.1577587 -0.19440344 0.69599998 4294440949
0.1579382 -0.19300734 0.69099998 4294440949
0.159251 -0.1930078 0.69099998 4294375156
0.16126093 -0.19384617 0.69400001 4294375156
0.16304797 -0.1944052 0.69599998 4294375156
0.16437028 -0.19440556 0.69599998 4294178033
0.16569257 -0.19440588 0.69599998 4294375156
0.16725485 -0.19468556 0.69700003 4294440949
0.16930462 -0.19552378 0.69999999 4294375156
0.17063452 -0.19552407 0.69999999 4294243572
0.17343837 -0.19720021 0.70599997 4294375158
0.17477962 -0.19720037 0.70599997 4294440951
0.17612086 -0.19720054 0.70599997 4294440951
0.17746207 -0.19720069 0.70599997 4294440951
0.17880329 -0.19720076 0.70599997 4294440951
0.18014452 -0.19720082 0.70599997 4294375156
0.18174273 -0.19748016 0.70700002 4294375156
0.18308578 -0.19748016 0.70700002 4294046193
0.18547226 -0.19859736 0.71100003 4294177779
0.1873484 -0.19915588 0.713 4294243572
0.18870278 -0.19915573 0.713 4294177779
0.1903237 -0.19943491 0.71399999 4294046193
0.19221684 -0.19999331 0.71600002 4293980400
0.19357684 -0.19999301 0.71600002 4293914607
0.19520904 -0.20027204 0.71700001 4293980400
0.19657089 -0.20027165 0.71700001 4294112240
0.056403883 -0.20411134 0.736 4293255644
0.057800826 -0.20411195 0.736 4293387486
0.059036925 -0.20355792 0.73400003 4293387482
0.060347769 -0.20328124 0.73299998 4293782240
0.061486382 -0.20244989 0.73000002 4293782242
0.062872 -0.20245056 0.73000002 4293782242
0.064081579 -0.20189656 0.72799999 4293716708
0.065463439 -0.20189726 0.72799999 4293782757
0.066569865 -0.20106602 0.72500002 4293979364
0.067383751 -0.19940273 0.71899998 4294045157
0.068557352 -0.19884878 0.71700001 4294110439
0.069918402 -0.19884953 0.71700001 4294110439
0.071180075 -0.19857295 0.71600002 4294045159
0.072336644 -0.19801906 0.71399999 4293979366
0.073588856 -0.19774246 0.713 4293979366
0.074942403 -0.19774327 0.713 4294045159
0.076081954 -0.19718942 0.71100003 4294177000
0.077431738 -0.19719023 0.71100003 4294242793
0.078781553 -0.19719106 0.71100003 4294308588
0.080018677 -0.19691452 0.70999998 4294308588
0.081137434 -0.19636071 0.708 4294308588
0.082248598 -0.19580685 0.70599997 4294242795
0.083352201 -0.19525298 0.704 4294242795
0.084568538 -0.19497654 0.70300001 4294242795
0.085658893 -0.19442271 0.70099998 4294242541
0.086989865 -0.19442354 0.70099998 4294308334
0.088194869 -0.19414711 0.69999999 4294374381
0.089268215 -0.19359328 0.69800001 4294374381
0.090463772 -0.19331683 0.69700003 4294374633
0.091655537 -0.19304037 0.69599998 4294571756
0.092977129 -0.19304128 0.69599998 4294375154
0.094298758 -0.1930422 0.69599998 4294243824
0.095620371 -0.19304311 0.69599998 4294375408
0.096663468 -0.19248933 0.69400001 4294375408
0.097981349 -0.19249023 0.69400001 4294506994
0.099156156 -0.19221379 0.69300002 4294506994
0.1004722 -0.19221476 0.69300002 4294506481
0.10178824 -0.19221567 0.69300002 4294506481
0.10325309 -0.19249398 0.69400001 4294440688
0.10457107 -0.19249491 0.69400001 4294374894
0.1057365 -0.19221847 0.69300002 4294374640
0.10674368 -0.19166467 0.69099998 4294374640
0.10805603 -0.19166562 0.69099998 4294374640
0.10936842 -0.19166654 0.69099998 4294374640
0.1106808 -0.19166747 0.69099998 4294440690
0.11183115 -0.19139104 0.69 4294440690
0.11281376 -0.19083722 0.68800002 4294440690
0.11412051 -0.19083814 0.68800002 4294374640
0.11542731 -0.19083908 0.68800002 4294440690
0.11673409 -0.19083996 0.68800002 4294506483
0.1180409 -0.19084089 0.68800002 4294440688
0.11934774 -0.19084178 0.68800002 4294506481
0.1206546 -0.1908427 0.68800002 4294571504
0.12196147 -0.19084361 0.68800002 4294637297
0.12326838 -0.19084454 0.68800002 4294506483
0.12439419 -0.19056801 0.68699998 4294506483
0.12569922 -0.19056889 0.68699998 4294637297
0.12700427 -0.19056976 0.68699998 4294637297
0.12830934 -0.19057061 0.68699998 4294637297
0.12961441 -0.19057147 0.68699998 4294966519
0.13091949 -0.19057229 0.68699998 4294637301
0.13222457 -0.19057313 0.68699998 4294571252
0.13352969 -0.19057395 0.68699998 4294440436
0.13483486 -0.1905748 0.68699998 4294440436
0.13673449 -0.19140778 0.69 4294440690
0.13804534 -0.19140856 0.69 4294440690
0.1393562 -0.19140932 0.69 4294374642
0.14127868 -0.19224228 0.69300002 4294374642
0.14259529 -0.19224307 0.69300002 4294374642
0.14391187 -0.19224377 0.69300002 4294308849
0.14480934 -0.19168967 0.69099998 4294243826
0.14612214 -0.19169034 0.69099998 4294572791
0.14786172 -0.19224589 0.69300002 4294375158
0.14917833 -0.19224654 0.69300002 4294243572
0.15049498 -0.19224718 0.69300002 4294243572
0.15203069 -0.19252521 0.69400001 4294440951
0.15334922 -0.1925258 0.69400001 4294375156
0.15466776 -0.19252639 0.69400001 4294243826
0.15598631 -0.19252691 0.69400001 4294375156
0.15730484 -0.19252744 0.69400001 4294375156
0.15862341 -0.19252796 0.69400001 4294375156
0.16040288 -0.19308329 0.69599998 4294375156
0.16172522 -0.19308375 0.69599998 4294375156
0.16304755 -0.19308417 0.69599998 4294243826
0.1643699 -0.19308457 0.69599998 4294178033
0.1659303 -0.19336239 0.69700003 4294178033
0.16797443 -0.19419499 0.69999999 4294243572
0.16930437 -0.19419535 0.69999999 4294243572
0.17087801 -0.19447298 0.70099998 4294243572
0.17270115 -0.19502811 0.70300001 4294111986
0.17428431 -0.19530576 0.704 4294375158
0.17537233 -0.19502856 0.70300001 4294375158
0.17670788 -0.19502871 0.70300001 4294375158
0.17804345 -0.19502886 0.70300001 4294375158
0.18014444 -0.19586122 0.70599997 4294375156
0.18148565 -0.19586124 0.70599997 4294440949
0.1830858 -0.19613869 0.70700002 4294046193
0.18599404 -0.19780321 0.713 4294111986
0.18734854 -0.19780317 0.713 4294111986
0.18896757 -0.19808044 0.71399999 4294111986
0.19032387 -0.19808029 0.71399999 4293980400
0.19221705 -0.19863495 0.71600002 4293914607
0.19357714 -0.19863474 0.71600002 4293783021
0.19520935 -0.19891189 0.71700001 4293980400
0.19657126 -0.19891158 0.71700001 4294178033
0.059197143 -0.20271415 0.736 4293452761
0.060429446 -0.20216393 0.73400003 4293518554
0.06156994 -0.20133832 0.73100001 4293518300
0.062871322 -0.20106357 0.73000002 4293650142
0.064080887 -0.20051338 0.72799999 4293584608
0.065462731 -0.20051409 0.72799999 4293782244
0.066569149 -0.19968857 0.72500002 4293782242
0.067383021 -0.19803667 0.71899998 4293848035
0.068556614 -0.19748655 0.71700001 4293782757
0.069917656 -0.19748731 0.71700001 4293782757
0.071179308 -0.19721264 0.71600002 4293979366
0.072335862 -0.19666253 0.71399999 4293979366
0.073691279 -0.19666333 0.71399999 4293978853
0.07494159 -0.19638866 0.713 4294044646
0.076295152 -0.19638951 0.713 4294044646
0.077430919 -0.19583946 0.71100003 4294044646
0.078780711 -0.19584027 0.71100003 4294110953
0.080017827 -0.19556569 0.70999998 4294308588
0.081136569 -0.19501564 0.708 4294176746
0.082247749 -0.19446561 0.70599997 4294110953
0.083588138 -0.19446644 0.70599997 4294176746
0.084687963 -0.19391645 0.704 4294176746
0.085902408 -0.19364189 0.70300001 4294242795
0.087237164 -0.19364277 0.70300001 4294308588
0.088319957 -0.19309275 0.70099998 4294242795
0.089523099 -0.19281822 0.69999999 4294308588
0.090592645 -0.19226824 0.69800001 4294308588
0.091786318 -0.19199365 0.69700003 4294374381
0.09297622 -0.19171914 0.69599998 4294374894
0.094297819 -0.19172005 0.69599998 4294374894
0.095619455 -0.19172101 0.69599998 4294112238
0.096662551 -0.19117102 0.69400001 4294178031
0.097980425 -0.19117196 0.69400001 4294374894
0.099155232 -0.19089742 0.69300002 4294374894
0.10047126 -0.19089837 0.69300002 4294308588
0.10178728 -0.1908993 0.69300002 4294374381
0.10325214 -0.19117574 0.69400001 4294505710
0.10457013 -0.1911767 0.69400001 4294374381
0.10573557 -0.19090217 0.69300002 4294242795
0.10705169 -0.19090314 0.69300002 4294242795
0.10836785 -0.19090411 0.69300002 4294374381
0.10936745 -0.19035406 0.69099998 4294505710
0.11067986 -0.19035505 0.69099998 4294374894
0.11183022 -0.19008052 0.69 4294440688
0.11314075 -0.19008143 0.69 4294440690
0.11411959 -0.18953146 0.68800002 4294440690
0.11542637 -0.18953238 0.68800002 4294374640
0.11673317 -0.18953332 0.68800002 4294440690
0.11804 -0.18953426 0.68800002 4294374381
0.11934683 -0.18953519 0.68800002 4294374381
0.12065367 -0.18953609 0.68800002 4294505710
0.12196057 -0.18953703 0.68800002 4294571504
0.12326746 -0.18953794 0.68800002 4294374127
0.12439331 -0.18926336 0.68699998 4294571506
0.12569834 -0.18926424 0.68699998 4294571504
0.12718824 -0.18954062 0.68800002 4294505710
0.12849523 -0.18954152 0.68800002 4294308588
0.12961353 -0.18926688 0.68699998 4294571504
0.13091864 -0.18926775 0.68699998 4294571506
0.13222376 -0.18926862 0.68699998 4294571506
0.13352887 -0.18926945 0.68699998 4294571252
0.13483402 -0.18927027 0.68699998 4294571252
0.1367337 -0.19009763 0.69 4294440690
0.13804454 -0.19009843 0.69 4294440690
0.13955738 -0.19037472 0.69099998 4294374642
0.14127792 -0.19092652 0.69300002 4294374642
0.14280029 -0.19120279 0.69400001 4294243826
0.14391112 -0.19092803 0.69300002 4294243826
0.14522776 -0.19092877 0.69300002 4294243824
0.1465444 -0.1909295 0.69300002 4294243824
0.14786105 -0.19093022 0.69300002 4294111986
0.14917769 -0.19093089 0.69300002 4294243572
0.15049434 -0.19093154 0.69300002 4294243826
0.15203004 -0.19120769 0.69400001 4294440949
0.15312766 -0.19093283 0.69300002 4294243826
0.15399858 -0.19038238 0.69099998 4294178033
0.15531147 -0.19038297 0.69099998 4294178033
0.15662433 -0.19038352 0.69099998 4294243826
0.15839434 -0.19093509 0.69300002 4294243572
0.16040239 -0.19176213 0.69599998 4294243572
0.16172476 -0.19176266 0.69599998 4294375156
0.16328141 -0.19203866 0.69700003 4294243826
0.16460566 -0.19203907 0.69700003 4294046191
0.16616799 -0.192315 0.69800001 4294243826
0.16797407 -0.19286643 0.69999999 4294243826
0.16954589 -0.19314231 0.70099998 4294243826
0.17087774 -0.19314262 0.70099998 4294375156
0.17220955 -0.19314292 0.70099998 4294375156
0.17403652 -0.19369423 0.70300001 4294440951
0.17537212 -0.19369446 0.70300001 4294506744
0.17670773 -0.19369467 0.70300001 4294375158
0.17804328 -0.19369482 0.70300001 4294243572
0.18014434 -0.1945215 0.70599997 4294375156
0.18148559 -0.19452159 0.70599997 4294243826
0.18308577 -0.19479719 0.70700002 4293980400
0.18599412 -0.19645037 0.713 4294046193
0.18761133 -0.19672585 0.71399999 4293980400
0.18896769 -0.19672579 0.71399999 4294111986
0.19085717 -0.19727676 0.71600002 4293914607
0.19248572 -0.19755211 0.71700001 4293914607
0.19384772 -0.19755192 0.71700001 4293783021
0.19575416 -0.19810276 0.71899998 4294046193
0.19711988 -0.19810244 0.71899998 4294243826
0.059196509 -0.20131578 0.736 4293452761
0.060428791 -0.20076936 0.73400003 4293452761
0.061485041 -0.1996759 0.73000002 4293452509
0.062698379 -0.19912954 0.72799999 4293649888
0.063992165 -0.19885671 0.727 4293584608
0.065372095 -0.19885741 0.727 4293716195
0.066109315 -0.19694342 0.72000003 4293782242
0.067382276 -0.19667059 0.71899998 4293782242
0.068747096 -0.1966714 0.71899998 4293913060
0.069916882 -0.19612508 0.71700001 4293978853
0.071178533 -0.19585231 0.71600002 4293978853
0.072537698 -0.1958531 0.71600002 4294044646
0.073690474 -0.19530681 0.71399999 4293848035
0.074940786 -0.19503407 0.713 4293848035
0.076294318 -0.19503491 0.713 4293848037
0.077647887 -0.19503576 0.713 4293979366
0.078779869 -0.19448951 0.71100003 4294176746
0.080016971 -0.19421679 0.70999998 4294308588
0.081135705 -0.19367057 0.708 4294110953
0.08224687 -0.19312435 0.70599997 4294110953
0.083350472 -0.19257817 0.704 4294176746
0.084687077 -0.19257903 0.704 4294176746
0.085901514 -0.19230638 0.70300001 4294177513
0.087236255 -0.19230726 0.70300001 4294177513
0.088319048 -0.19176108 0.70099998 4294177259
0.089522175 -0.19148844 0.69999999 4294177259
0.090591729 -0.19094227 0.69800001 4294243052
0.091785409 -0.19066966 0.69700003 4294243052
0.092975289 -0.19039702 0.69599998 4294374894
0.094296888 -0.19039795 0.69599998 4294374894
0.095618501 -0.19039889 0.69599998 4294046191
0.096661597 -0.1898527 0.69400001 4294046191
0.097979456 -0.18985365 0.69400001 4294243052
0.099297374 -0.18985465 0.69400001 4294309101
0.10061527 -0.18985558 0.69400001 4294308588
0.10193322 -0.18985654 0.69400001 4294242795
0.10325118 -0.1898575 0.69400001 4294308588
0.10456915 -0.18985845 0.69400001 4294308588
0.10588717 -0.18985942 0.69400001 4294308588
0.10705074 -0.18958685 0.69300002 4294242795
0.10836688 -0.18958782 0.69300002 4294374379
0.10968305 -0.18958877 0.69300002 4294505708
0.11099925 -0.18958975 0.69300002 4294374381
0.11182926 -0.18877001 0.69 4294505710
0.11313981 -0.18877096 0.69 4294440688
0.11445037 -0.18877192 0.69 4294440688
0.1154254 -0.1882257 0.68800002 4294374640
0.11673222 -0.18822667 0.68800002 4294440690
0.11803906 -0.18822762 0.68800002 4294243054
0.11934589 -0.18822855 0.68800002 4294243054
0.12065276 -0.18822952 0.68800002 4294374381
0.12195963 -0.18823041 0.68800002 4294505710
0.12326654 -0.18823136 0.68800002 4294374381
0.12439239 -0.18795867 0.68699998 4294374381
0.12569743 -0.1879596 0.68699998 4294374381
0.12718736 -0.18823411 0.68800002 4294374381
0.12886786 -0.1887822 0.69 4294308334
0.12980133 -0.18823591 0.68800002 4294505712
0.13110834 -0.18823679 0.68800002 4294505712
0.13241537 -0.18823768 0.68800002 4294505712
0.13411114 -0.18878573 0.69 4294505458
0.13542198 -0.1887866 0.69 4294374129
0.13693102 -0.18906105 0.69099998 4294308847
0.13824379 -0.18906185 0.69099998 4294374640
0.13955659 -0.18906268 0.69099998 4294308849
0.141481 -0.18988435 0.69400001 4294243056
0.14279951 -0.18988511 0.69400001 4294243824
0.14411806 -0.1898859 0.69400001 4294243824
0.14543658 -0.18988666 0.69400001 4294374894
0.14675511 -0.18988739 0.69400001 4294309101
0.14807367 -0.1898881 0.69400001 4294112240
0.14917699 -0.18961522 0.69300002 4294375156
0.15049367 -0.18961592 0.69300002 4294440690
0.15181033 -0.18961659 0.69300002 4294440690
0.15312703 -0.18961725 0.69300002 4294243824
0.15399799 -0.18907061 0.69099998 4294112238
0.15531087 -0.18907122 0.69099998 4294243056
0.15662375 -0.18907179 0.69099998 4294177263
0.1583938 -0.18961962 0.69300002 4294046193
0.15994096 -0.18989378 0.69400001 4294111986
0.16172425 -0.19044153 0.69599998 4294178033
0.16328095 -0.19071567 0.69700003 4294243826
0.16484138 -0.19098976 0.69800001 4294178031
0.16616759 -0.19099021 0.69800001 4294441203
0.16797368 -0.19153784 0.69999999 4294243826
0.16954555 -0.19181186 0.70099998 4294178033
0.17087741 -0.19181222 0.70099998 4294375156
0.17220928 -0.19181255 0.70099998 4294506742
0.17403626 -0.19236009 0.70300001 4294440951
0.1753719 -0.19236034 0.70300001 4294506744
0.17670752 -0.19236057 0.70300001 4294375158
0.17880294 -0.19318165 0.70599997 4294243572
0.18014422 -0.1931818 0.70599997 4294111986
0.18174258 -0.19345556 0.70700002 4293980400
0.18308574 -0.19345565 0.70700002 4293980400
0.18468976 -0.19372933 0.708 4293980400
0.18813691 -0.19591838 0.71600002 4294112240
0.18949708 -0.19591838 0.71600002 4294112240
0.19085726 -0.19591831 0.71600002 4293914607
0.19248588 -0.1961918 0.71700001 4293783021
0.19384792 -0.19619165 0.71700001 4293717228
0.19575441 -0.19673872 0.71899998 4293980400
0.05919585 -0.19991738 0.736 4293452761
0.06042812 -0.19937478 0.73400003 4293452761
0.061484359 -0.19828896 0.73000002 4293386716
0.062697686 -0.1977464 0.72799999 4293649888
0.063991465 -0.19747546 0.727 4293518813
0.065371372 -0.19747619 0.727 4293650656
0.066108584 -0.19557546 0.72000003 4293847265
0.067381538 -0.19530459 0.71899998 4293715936
0.068746328 -0.19530536 0.71899998 4293649888
0.069916122 -0.19476286 0.71700001 4293978853
0.071177751 -0.19449203 0.71600002 4293979364
0.072334282 -0.19394954 0.71399999 4293979364
0.073689662 -0.19395033 0.71399999 4293848033
0.074939966 -0.1936795 0.713 4293848033
0.076079488 -0.19313705 0.71100003 4293782757
0.077429242 -0.1931379 0.71100003 4293782757
0.078779012 -0.19313873 0.71100003 4294045930
0.080016099 -0.19286795 0.70999998 4293980137
0.081134833 -0.19232558 0.708 4293848550
0.082245991 -0.19178313 0.70599997 4293980137
0.083349578 -0.19124074 0.704 4293980137
0.08468619 -0.19124164 0.704 4293980137
0.085900612 -0.19097088 0.70300001 4294045930
0.087235354 -0.19097179 0.70300001 4294045930
0.088318147 -0.19042942 0.70099998 4294045930
0.089521259 -0.19015869 0.69999999 4294177259
0.090850376 -0.19015962 0.69999999 4294045930
0.091916144 -0.18961725 0.69800001 4294177259
0.093107931 -0.18934652 0.69700003 4294243052
0.094431423 -0.18934749 0.69700003 4294243052
0.095617555 -0.18907677 0.69599998 4294177259
0.096939184 -0.18907772 0.69599998 4294177259
0.097978495 -0.18853538 0.69400001 4294045930
0.099296413 -0.18853639 0.69400001 4294045930
0.1006143 -0.18853731 0.69400001 4294242795
0.10193224 -0.18853831 0.69400001 4294242795
0.1032502 -0.18853927 0.69400001 4294176746
0.10456819 -0.18854025 0.69400001 4294176746
0.10588618 -0.18854122 0.69400001 4294110953
0.10704976 -0.18827057 0.69300002 4294110953
0.1083659 -0.18827154 0.69300002 4294110953
0.10968208 -0.18827254 0.69300002 4294176746
0.11099828 -0.18827352 0.69300002 4294110953
0.11231451 -0.18827449 0.69300002 4294308588
0.11313882 -0.18746044 0.69 4294374640
0.1144494 -0.18746139 0.69 4294308847
0.11575999 -0.18746239 0.69 4294308847
0.11707059 -0.18746337 0.69 4294308847
0.11838122 -0.18746434 0.69 4294045930
0.11969186 -0.18746528 0.69 4294309101
0.1206518 -0.18692288 0.68800002 4294374381
0.1219587 -0.18692385 0.68800002 4294505710
0.12326561 -0.18692477 0.68800002 4294374894
0.12457254 -0.18692572 0.68800002 4294309101
0.12587948 -0.18692665 0.68800002 4294309101
0.12718645 -0.18692759 0.68800002 4294309101
0.12886696 -0.18747188 0.69 4294242795
0.12980045 -0.18692943 0.68800002 4294308588
0.13110745 -0.18693031 0.68800002 4294374381
0.1324145 -0.18693122 0.68800002 4294308588
0.13411027 -0.1874755 0.69 4294308588
0.13542113 -0.18747638 0.69 4294374381
0.13673201 -0.18747723 0.69 4294177259
0.13804291 -0.18747811 0.69 4294374894
0.13955577 -0.18775064 0.69099998 4294111986
0.14148019 -0.18856663 0.69400001 4294046193
0.14279872 -0.18856743 0.69400001 4294112238
0.14453258 -0.18911164 0.69599998 4294178031
0.14543582 -0.18856902 0.69400001 4294112236
0.14675437 -0.18856977 0.69400001 4294112236
0.14807296 -0.18857053 0.69400001 4294112240
0.14917628 -0.18829954 0.69300002 4294112240
0.15049297 -0.18830027 0.69300002 4294178031
0.15180968 -0.18830097 0.69300002 4294375154
0.15312639 -0.18830162 0.69300002 4294112238
0.15399735 -0.18775882 0.69099998 4294112238
0.15531026 -0.18775946 0.69099998 4294308849
0.15662318 -0.1877601 0.69099998 4294243056
0.15839323 -0.18830416 0.69300002 4294045680
0.15970995 -0.18830469 0.69300002 4294177009
0.16172376 -0.18912041 0.69599998 4294046445
0.16328046 -0.18939267 0.69700003 4294178031
0.16531324 -0.19020833 0.69999999 4294309101
0.16664326 -0.19020879 0.69999999 4294374894
0.16821323 -0.19048093 0.70099998 4294045932
0.16954514 -0.19048139 0.70099998 4294308847
0.17087707 -0.19048178 0.70099998 4294243826
0.17220895 -0.19048212 0.70099998 4294243826
0.17354083 -0.19048245 0.70099998 4294243572
0.17537165 -0.19102621 0.70300001 4294243572
0.17670728 -0.19102645 0.70300001 4294243572
0.17880273 -0.19184186 0.70599997 4294243572
0.18014407 -0.19184206 0.70599997 4294046193
0.1814854 -0.19184224 0.70599997 4294046193
0.18308565 -0.19211408 0.70700002 4293914607
0.18442884 -0.19211419 0.70700002 4293980400
0.18813688 -0.19455983 0.71600002 4294111986
0.18949713 -0.19455984 0.71600002 4293980400
0.19085737 -0.19455978 0.71600002 4293717228
0.192486 -0.19483145 0.71700001 4293914607
0.19384806 -0.19483136 0.71700001 4293585642
0.1957546 -0.19537462 0.71899998 4293914607
0.06034511 -0.19771048 0.73299998 4293255637
0.061483681 -0.19690199 0.73000002 4293386716
0.062696978 -0.19636323 0.72799999 4293649888
0.063990742 -0.19609423 0.727 4293584606
0.065370634 -0.19609495 0.727 4293650656
0.066291474 -0.19474702 0.722 4293650656
0.067380778 -0.19393857 0.71899998 4293584606
0.068554334 -0.19339988 0.71700001 4293715682
0.069817834 -0.19313094 0.71600002 4293847267
0.070978135 -0.19259226 0.71399999 4293913058
0.072333477 -0.19259302 0.71399999 4293978851
0.07368885 -0.19259386 0.71399999 4293979103
0.074728929 -0.19178545 0.71100003 4294044896
0.076078653 -0.1917863 0.71100003 4293848037
0.077428393 -0.19178717 0.71100003 4293716195
0.078778155 -0.19178803 0.71100003 4293782757
0.079789847 -0.19097966 0.708 4293782757
0.081019357 -0.19071078 0.70700002 4293782757
0.082245097 -0.19044191 0.70599997 4294045930
0.083585463 -0.19044282 0.70599997 4294111207
0.084685273 -0.18990424 0.704 4293848035
0.085899688 -0.18963541 0.70300001 4293914343
0.087234423 -0.1896363 0.70300001 4294045930
0.088317201 -0.18909775 0.70099998 4294046184
0.08952032 -0.18882895 0.69999999 4294177513
0.090849444 -0.1888299 0.69999999 4294046184
0.091915205 -0.18829133 0.69800001 4294046184
0.093106985 -0.18802252 0.69700003 4294045930
0.094430476 -0.18802351 0.69700003 4294045930
0.095753983 -0.18802448 0.69700003 4294177259
0.09693823 -0.18775566 0.69599998 4294177259
0.098259881 -0.18775661 0.69599998 4293980139
0.099581569 -0.18775761 0.69599998 4293980139
0.10090329 -0.18775862 0.69599998 4294110953
0.10222501 -0.18775958 0.69599998 4294110953
0.10324921 -0.18722104 0.69400001 4294110953
0.1045672 -0.18722203 0.69400001 4294110953
0.10588521 -0.18722303 0.69400001 4294045159
0.10704876 -0.18695429 0.69300002 4293979366
0.10836491 -0.18695527 0.69300002 4294045161
0.10968108 -0.18695627 0.69300002 4294110955
0.11099729 -0.18695728 0.69300002 4294110955
0.11231351 -0.18695827 0.69300002 4294242541
0.11313783 -0.18614994 0.69 4294243052
0.11444843 -0.18615092 0.69 4294309101
0.11575901 -0.18615189 0.69 4294309101
0.11706962 -0.18615288 0.69 4294243052
0.11838025 -0.18615389 0.69 4293980137
0.1196909 -0.18615484 0.69 4294243052
0.12065085 -0.18561624 0.68800002 4294309101
0.12195775 -0.18561722 0.68800002 4294374894
0.12326466 -0.18561819 0.68800002 4294177261
0.12457159 -0.18561915 0.68800002 4293980139
0.12587854 -0.1856201 0.68800002 4294308588
0.12755524 -0.18616062 0.69 4294374381
0.12886603 -0.18616158 0.69 4294242793
0.13017684 -0.18616252 0.69 4294242793
0.13148767 -0.18616347 0.69 4294242793
0.13279854 -0.18616439 0.69 4294177000
0.13410936 -0.18616527 0.69 4294308586
0.13542023 -0.18616615 0.69 4294505708
0.13673112 -0.18616705 0.69 4294309097
0.13804203 -0.18616793 0.69 4294506733
0.13935296 -0.1861688 0.69 4294177779
0.1412755 -0.18697906 0.69300002 4294046193
0.14259213 -0.18697987 0.69300002 4294112238
0.1439088 -0.18698071 0.69300002 4294112238
0.14522548 -0.18698153 0.69300002 4294046184
0.14675362 -0.18725215 0.69400001 4293980135
0.14849891 -0.18779252 0.69599998 4294177261
0.1498213 -0.18779327 0.69599998 4294177261
0.15114371 -0.18779406 0.69599998 4294243052
0.15202802 -0.1872551 0.69400001 4294440688
0.15334664 -0.18725583 0.69400001 4294112238
0.15444243 -0.1869867 0.69300002 4294112238
0.15530962 -0.18644768 0.69099998 4294243054
0.15662257 -0.18644837 0.69099998 4294243054
0.15839265 -0.18698861 0.69300002 4293980400
0.15970938 -0.18698919 0.69300002 4294046193
0.16218795 -0.18833888 0.69800001 4294112238
0.1635142 -0.18833944 0.69800001 4294178031
0.16531275 -0.18887964 0.69999999 4294177259
0.16664277 -0.18888012 0.69999999 4294177259
0.16821279 -0.18915042 0.70099998 4294243054
0.16930287 -0.18888102 0.69999999 4294440690
0.1706329 -0.18888143 0.69999999 4294243824
0.17196293 -0.18888184 0.69999999 4294243824
0.17329295 -0.1888822 0.69999999 4294243826
0.17462295 -0.18888249 0.69999999 4294112240
0.17670703 -0.1896923 0.70300001 4294178033
0.17804271 -0.18969256 0.70300001 4294178033
0.18014386 -0.19050227 0.70599997 4294111986
0.18148524 -0.19050249 0.70599997 4294111986
0.18308553 -0.19077249 0.70700002 4293980398
0.18442878 -0.19077261 0.70700002 4293980398
0.18577197 -0.19077267 0.70700002 4293914607
0.18949713 -0.19320124 0.71600002 4293717228
0.19085738 -0.19320126 0.71600002 4293783021
0.19248606 -0.19347103 0.71700001 4294177779
0.19384816 -0.19347097 0.71700001 4293585642
0.19575475 -0.19401053 0.71899998 4293980400
0.19712062 -0.19401035 0.71899998 4294571252
0.060344439 -0.19631785 0.73299998 4293255383
0.061482977 -0.19551505 0.73000002 4293255131
0.062868521 -0.19551578 0.73000002 4293452509
0.064078033 -0.19498082 0.72799999 4293518300
0.065459818 -0.19498155 0.72799999 4293518300
0.066382542 -0.19364314 0.72299999 4293387484
0.067380019 -0.19257258 0.71899998 4293518813
0.068553559 -0.19203769 0.71700001 4293650402
0.069817036 -0.19177063 0.71600002 4293584608
0.07097733 -0.19123575 0.71399999 4293386714
0.072332665 -0.19123657 0.71399999 4293584093
0.073584825 -0.19096956 0.713 4293650140
0.074728094 -0.19043471 0.71100003 4293913056
0.076077789 -0.19043556 0.71100003 4293716449
0.077427521 -0.19043638 0.71100003 4293716449
0.078777283 -0.1904373 0.71100003 4293913060
0.079788961 -0.18963467 0.708 4293913060
0.08101847 -0.18936768 0.70700002 4293913060
0.082244195 -0.18910073 0.70599997 4293913060
0.083584554 -0.18910162 0.70599997 4293913060
0.084924929 -0.18910255 0.70599997 4293913060
0.086020954 -0.18856777 0.704 4293913060
0.087233499 -0.18830086 0.70300001 4294044646
0.088568226 -0.18830183 0.70300001 4293979364
0.089647248 -0.18776703 0.70099998 4293979364
0.09097825 -0.187768 0.70099998 4293848546
0.0921776 -0.18750107 0.69999999 4293848546
0.093506761 -0.1875021 0.69999999 4293848550
0.094835937 -0.18750308 0.69999999 4293980137
0.09589038 -0.18696831 0.69800001 4293980137
0.096937262 -0.1864336 0.69599998 4293914343
0.098258905 -0.18643458 0.69599998 4293979366
0.099580586 -0.18643555 0.69599998 4293979366
0.10090228 -0.18643652 0.69599998 4293848550
0.10222401 -0.18643758 0.69599998 4293782757
0.10324822 -0.18590285 0.69400001 4293782757
0.10456619 -0.18590383 0.69400001 4293848550
0.10588419 -0.18590488 0.69400001 4293848550
0.10704775 -0.18563797 0.69300002 4293782757
0.1083639 -0.18563901 0.69300002 4293782757
0.10968007 -0.18563999 0.69300002 4293980137
0.11099627 -0.18564101 0.69300002 4293980137
0.11247456 -0.1859099 0.69400001 4294045930
0.11313685 -0.18483937 0.69 4294045932
0.11444741 -0.18484043 0.69 4294243054
0.11575799 -0.18484139 0.69 4294178033
0.11706863 -0.18484242 0.69 4294112240
0.11837926 -0.18484342 0.69 4294177261
0.1196899 -0.18484442 0.69 4294243054
0.12100059 -0.1848454 0.69 4294243052
0.12231129 -0.18484639 0.69 4294243052
0.123622 -0.18484741 0.69 4293848296
0.12493275 -0.18484835 0.69 4293914089
0.12624349 -0.18484932 0.69 4293979366
0.12755428 -0.18485032 0.69 4293979366
0.12886508 -0.18485126 0.69 4293979366
0.13017589 -0.18485221 0.69 4294176746
0.13148674 -0.18485315 0.69 4294243052
0.13279758 -0.18485409 0.69 4294045930
0.13410847 -0.18485503 0.69 4293980137
0.1356156 -0.18512383 0.69099998 4293980137
0.13673025 -0.18485683 0.69 4294176746
0.13804117 -0.18485774 0.69 4294176746
0.1393521 -0.18485861 0.69 4294046193
0.14127463 -0.18566321 0.69300002 4293980400
0.1425913 -0.18566406 0.69300002 4293980652
0.14390798 -0.18566494 0.69300002 4294112238
0.14522466 -0.18566574 0.69300002 4293783527
0.14675282 -0.18593447 0.69400001 4293914857
0.14849815 -0.1864711 0.69599998 4293914603
0.14982057 -0.18647191 0.69599998 4293980652
0.15114298 -0.18647264 0.69599998 4293980652
0.15246542 -0.18647338 0.69599998 4293980652
0.15334594 -0.18593827 0.69400001 4294177261
0.15466461 -0.185939 0.69400001 4294177261
0.15530896 -0.18513587 0.69099998 4294046445
0.15662192 -0.18513656 0.69099998 4294046445
0.15839203 -0.18567306 0.69300002 4294112240
0.1597088 -0.18567368 0.69300002 4294046191
0.16265209 -0.18754977 0.69999999 4294177261
0.16398215 -0.18755035 0.69999999 4294243054
0.16531222 -0.18755089 0.69999999 4293980137
0.16664229 -0.18755141 0.69999999 4294177259
0.16821232 -0.18781988 0.70099998 4294243056
0.16930243 -0.18755239 0.69999999 4294177263
0.1706325 -0.18755285 0.69999999 4293980398
0.17196254 -0.18755323 0.69999999 4294112240
0.17329259 -0.18755367 0.69999999 4294177779
0.17462263 -0.187554 0.69999999 4294111986
0.17670673 -0.18835813 0.70300001 4294046193
0.17804247 -0.18835841 0.70300001 4293980400
0.18014362 -0.18916249 0.70599997 4293914605
0.18148504 -0.1891627 0.70599997 4293914605
0.18308537 -0.18943082 0.70700002 4293980400
0.18442863 -0.189431 0.70700002 4293914607
0.1857719 -0.18943112 0.70700002 4293717482
0.1897617 -0.19211054 0.71700001 4293783275
0.19112395 -0.19211063 0.71700001 4293783275
0.19302298 -0.19264646 0.71899998 4293914605
0.19438896 -0.19264643 0.71899998 4293651437
0.1957549 -0.19264634 0.71899998 4294111988
0.19712077 -0.19264621 0.71899998 4294637299
0.060426068 -0.19519116 0.73400003 4293255637
0.061482277 -0.19412817 0.73000002 4293255131
0.062867805 -0.19412886 0.73000002 4293255131
0.064077303 -0.19359773 0.72799999 4293452507
0.065459065 -0.19359846 0.72799999 4293452507
0.066381775 -0.19226956 0.72299999 4293321693
0.067660391 -0.19200441 0.722 4293387486
0.068744004 -0.19120741 0.71899998 4293650656
0.069913752 -0.1906763 0.71700001 4293650656
0.071175344 -0.1904112 0.71600002 4293387232
0.072331846 -0.18988012 0.71399999 4293650404
0.07358399 -0.18961501 0.713 4293715936
0.074937448 -0.18961585 0.713 4293978851
0.076076947 -0.18908481 0.71100003 4293715934
0.077426657 -0.18908569 0.71100003 4293715934
0.078665592 -0.18882062 0.70999998 4293847263
0.079675376 -0.18802366 0.70700002 4293847263
0.081017569 -0.18802458 0.70700002 4293847267
0.082243286 -0.18775953 0.70599997 4293847267
0.083583638 -0.18776046 0.70599997 4293847267
0.084683426 -0.18722947 0.704 4293847267
