# .PCD v0.7 - Point Cloud Data file format
VERSION 0.7
FIELDS x y z rgba
SIZE 4 4 4 4
TYPE F F F U
COUNT 1 1 1 1
WIDTH 1046
HEIGHT 1
VIEWPOINT 0 0 0 1 0 0 0
POINTS 1046
DATA ascii
-0.025740346 0.06406685 0.57499999 4294967295
-0.024649775 0.064066306 0.57499999 4294967295
-0.023559224 0.064065792 0.57499999 4294967295
-0.022468695 0.064065292 0.57499999 4293651948
-0.02137818 0.064064808 0.57499999 4292007378
-0.020287693 0.064064354 0.57499999 4291546827
-0.019197216 0.064063907 0.57499999 4288655026
-0.018106764 0.064063489 0.57499999 4286549907
-0.017016323 0.064063087 0.57499999 4283260768
-0.015925901 0.0640627 0.57499999 4278192136
-0.014835496 0.064062357 0.57499999 4278976527
-0.013745101 0.064062007 0.57499999 4278845453
-0.012654724 0.064061686 0.57499999 4278517760
-0.011544246 0.06394998 0.574 4278649088
-0.010455788 0.063949689 0.574 4279175178
-0.0093673421 0.063949436 0.574 4279701523
-0.0082789063 0.063949198 0.574 4280032284
-0.0071904799 0.063948967 0.574 4279045389
-0.0061020646 0.063948773 0.574 4280877312
-0.005004921 0.063837186 0.57300001 4285811770
-0.0039184173 0.063837029 0.57300001 4291472793
-0.0028319194 0.06383688 0.57300001 4294964448
-0.0017484737 0.063948184 0.574 4294571506
-0.00065894076 0.063836679 0.57300001 4294374127
0.00042679536 0.063725196 0.57200003 4294177261
0.0015113781 0.063725136 0.57200003 4294703605
0.0025959578 0.063725092 0.57200003 4294112240
0.0036741013 0.063613668 0.57099998 4289440937
0.0047484511 0.06350226 0.56999999 4284900217
0.0058190092 0.063390881 0.56900001 4278583832
0.006897897 0.063390933 0.56900001 4279442714
0.0079767872 0.063390985 0.56900001 4278455818
0.0090556769 0.06339106 0.56900001 4280813064
0.010152383 0.063502572 0.56999999 4291339688
0.011233175 0.063502699 0.56999999 4292597200
0.012292368 0.063391425 0.56900001 4294636784
0.013371276 0.063391589 0.56900001 4294308849
0.014450189 0.063391775 0.56900001 4294308849
0.015501817 0.063280568 0.56800002 4292732130
0.016578844 0.063280784 0.56800002 4287073932
0.017624799 0.063169621 0.56699997 4280897348
0.01869995 0.063169882 0.56699997 4278190080
0.019809986 0.063281573 0.56800002 4278190080
0.020813504 0.063059047 0.56599998 4278190080
0.021886788 0.06305936 0.56599998 4278190080
0.022960085 0.063059695 0.56599998 4278190080
0.024033396 0.06306006 0.56599998 4278387210
0.025106717 0.063060433 0.56599998 4278781967
0.026180051 0.063060835 0.56599998 4278650381
0.029400153 0.063062124 0.56599998 4279900192
0.031491231 0.062951684 0.565 4279967786
0.03256277 0.062952191 0.565 4280426790
0.033574797 0.062841304 0.56400001 4280229667
0.034644473 0.062841848 0.56400001 4280294173
0.035650849 0.06273099 0.56300002 4280491551
0.036653452 0.062620148 0.56199998 4280622886
0.037719406 0.062620752 0.56199998 4279899419
0.038716365 0.062509939 0.56099999 4278388480
0.039709546 0.062399149 0.56 4280033045
0.040771771 0.062399801 0.56 4287593291
0.041834019 0.062400479 0.56 4294764728
0.042896293 0.062401175 0.56 4294242541
0.043958586 0.062401876 0.56 4294242541
0.055049498 0.061742146 0.55400002 4279242518
0.056100756 0.061743055 0.55400002 4278387210
0.057152048 0.061743971 0.55400002 4278190080
0.058203373 0.06174491 0.55400002 4278190080
0.059254732 0.061745867 0.55400002 4278190080
-0.13524388 0.069935232 0.616 4294967295
-0.1340712 0.069933213 0.616 4294967295
-0.1328986 0.069931202 0.616 4294967295
-0.1321537 0.070156246 0.61799997 4294967295
-0.1305535 0.069927201 0.616 4294967295
-0.12938105 0.069925211 0.616 4294967295
-0.12820864 0.06992323 0.616 4294967295
-0.12683006 0.069807746 0.61500001 4294967295
-0.12565964 0.069805786 0.61500001 4294967295
-0.12448931 0.069803834 0.61500001 4294967039
-0.12291797 0.069574893 0.61299998 4294966257
-0.12175155 0.069572955 0.61299998 4292992210
-0.12038847 0.069457546 0.61199999 4291545555
-0.11922405 0.069455639 0.61199999 4290032572
-0.11805969 0.069453739 0.61199999 4285759412
-0.11689538 0.069451846 0.61199999 4285167018
-0.11573114 0.069449976 0.61199999 4283321962
-0.11437976 0.069334626 0.611 4279111210
-0.1132175 0.069332764 0.611 4279173120
-0.11187194 0.069217466 0.61000001 4278190080
-0.11071172 0.069215633 0.61000001 4284174106
-0.10955155 0.069213815 0.61000001 4285818931
-0.10839145 0.069212019 0.61000001 4284049740
-0.10723139 0.069210216 0.61000001 4278191616
-0.10641916 0.069435343 0.61199999 4278192386
-0.10525541 0.069433562 0.61199999 4278723613
-0.10341138 0.068977997 0.60799998 4280887341
-0.10225534 0.068976253 0.60799998 4281150769
-0.1009331 0.06886109 0.60699999 4281940029
-0.099121571 0.068405606 0.60299999 4282268994
-0.097975209 0.068403922 0.60299999 4281281322
-0.096828908 0.068402246 0.60299999 4278190080
-0.095682666 0.068400577 0.60299999 4286277713
-0.094536468 0.068398938 0.60299999 4294967015
-0.093390331 0.068397298 0.60299999 4294967295
-0.092397213 0.068509102 0.60399997 4291677384
-0.091249287 0.068507493 0.60399997 4291478705
-0.090399779 0.068732746 0.60600001 4294899942
-0.089248158 0.068731166 0.60600001 4294967295
-0.088096581 0.068729594 0.60600001 4294967295
-0.086945064 0.068728037 0.60600001 4294967295
-0.085368864 0.068386264 0.60299999 4294967295
-0.084223159 0.068384744 0.60299999 4294967295
-0.082939729 0.068269834 0.602 4294440690
-0.081796005 0.068268351 0.602 4294704123
-0.080518372 0.068153486 0.60100001 4294967295
-0.079376683 0.06815204 0.60100001 4294967293
-0.07823503 0.068150595 0.60100001 4294572789
-0.076965138 0.068035789 0.60000002 4294703353
-0.07582549 0.068034388 0.60000002 4294045680
-0.074561395 0.067919604 0.59899998 4294045680
-0.073423743 0.067918248 0.59899998 4294506231
-0.072165459 0.067803524 0.59799999 4294571506
-0.070792243 0.067575432 0.59600002 4294637299
-0.069660418 0.067574121 0.59600002 4294176750
-0.068528645 0.067572825 0.59600002 4294110701
-0.067283854 0.067458183 0.59500003 4294110701
-0.06615407 0.067456931 0.59500003 4294110701
-0.065133616 0.067569062 0.59600002 4294044907
-0.064002022 0.06756784 0.59600002 4293979114
-0.06287048 0.067566641 0.59600002 4293848298
-0.061738983 0.067565449 0.59600002 4293848298
-0.060709208 0.067677632 0.597 4293585129
-0.059476115 0.067563139 0.59600002 4293585129
-0.058344744 0.067561999 0.59600002 4293585129
-0.057309404 0.067674235 0.597 4293585129
-0.056176219 0.067673139 0.597 4293453542
-0.055043072 0.067672059 0.597 4293124578
-0.053819668 0.067557648 0.59600002 4292993505
-0.052688498 0.067556612 0.59600002 4292730333
-0.051557366 0.067555584 0.59600002 4292730333
-0.050341673 0.06744124 0.59500003 4292598747
-0.049212512 0.067440256 0.59500003 4292795097
-0.041883163 0.064828873 0.57200003 4294505962
-0.040797852 0.064828046 0.57200003 4294967293
-0.039643146 0.064713895 0.57099998 4294967295
-0.038559802 0.064713098 0.57099998 4294967295
-0.037542123 0.064825669 0.57200003 4294967295
-0.036329467 0.06459824 0.56999999 4294967295
-0.035248104 0.064597502 0.56999999 4294967295
-0.034286667 0.064823449 0.57200003 4294967295
-0.033201572 0.064822748 0.57200003 4294967295
-0.032172646 0.064935386 0.57300001 4294967295
-0.031085704 0.064934738 0.57300001 4294967295
-0.03005114 0.065047413 0.574 4294965487
-0.029012809 0.065160111 0.57499999 4292991697
-0.027873589 0.065046176 0.574 4290291145
-0.026784848 0.065045603 0.574 4289830594
-0.025740897 0.065158352 0.57499999 4286676875
-0.024650307 0.065157808 0.57499999 4283387225
-0.023518765 0.065043963 0.574 4280168249
-0.022430109 0.065043464 0.574 4278190084
-0.021304296 0.064929657 0.57300001 4278190080
-0.020217577 0.064929187 0.57300001 4278190080
-0.019164264 0.065042064 0.574 4278190080
-0.018075684 0.065041631 0.574 4278190080
-0.016987123 0.065041222 0.574 4278190336
-0.015898576 0.065040842 0.574 4278190080
-0.014810047 0.065040492 0.574 4278261767
-0.013697625 0.064926825 0.57300001 4279775006
-0.012611019 0.064926505 0.57300001 4281348144
-0.011524425 0.064926207 0.57300001 4281348144
-0.010437844 0.064925924 0.57300001 4281215279
-0.0093512731 0.064925656 0.57300001 4281017644
-0.0082647139 0.06492541 0.57300001 4280887593
-0.0071781655 0.064925201 0.57300001 4280558628
-0.006091624 0.064924993 0.57300001 4280489242
-0.004996357 0.064811505 0.57200003 4283384134
-0.003911728 0.064811341 0.57200003 4287264399
-0.0028320488 0.064924508 0.57300001 4294964991
-0.0017455368 0.064924389 0.57300001 4294834932
-0.00065787969 0.064810976 0.57200003 4294505710
0.00042598069 0.064697586 0.57099998 4294505710
0.0015060451 0.064584225 0.56999999 4294966776
0.0025868528 0.064584188 0.56999999 4294375158
0.0036612244 0.064470865 0.56900001 4291611852
0.0047401334 0.064470872 0.56900001 4287338655
0.0058088149 0.064357586 0.56800002 4278190084
0.0068858266 0.064357631 0.56800002 4278257933
0.0079768589 0.064471006 0.56900001 4279310621
0.0090557691 0.064471073 0.56900001 4280483849
0.010134684 0.064471185 0.56900001 4287193968
0.011213601 0.064471304 0.56900001 4290489249
0.012292522 0.064471446 0.56900001 4294964458
0.013371448 0.064471602 0.56900001 4294571252
0.014424986 0.064358495 0.56800002 4294637301
0.015502028 0.064358696 0.56800002 4293258478
0.016549887 0.064245597 0.56699997 4287073680
0.017593965 0.064132534 0.56599998 4278539599
0.01863426 0.064019486 0.565 4278195471
0.019705646 0.064019769 0.565 4278190080
0.020777041 0.064020082 0.565 4278195209
0.021848449 0.064020388 0.565 4279045139
0.022879303 0.06390743 0.56400001 4278518539
0.023948839 0.063907787 0.56400001 4278190084
0.025018392 0.063908175 0.56400001 4278190080
0.026134206 0.064021878 0.565 4278190084
0.036588825 0.063573629 0.56099999 4280426540
0.037585784 0.063460916 0.56 4280097575
0.038509954 0.063234903 0.55800003 4279571733
0.039568376 0.063235544 0.55800003 4278190080
0.040626828 0.063236199 0.55800003 4281204768
0.041610587 0.063123539 0.55699998 4293442266
0.042590581 0.063010901 0.55599999 4294504416
0.043645307 0.063011609 0.55599999 4294570209
0.044780467 0.063125677 0.55699998 4294045930
0.052756783 0.062565431 0.55199999 4278190080
0.053804208 0.06256631 0.55199999 4278190081
-0.13502635 0.070990525 0.61500001 4294967295
-0.13385558 0.070988484 0.61500001 4294967295
-0.13290061 0.071101889 0.616 4294967295
-0.13151418 0.070984438 0.61500001 4294967295
-0.13034356 0.070982426 0.61500001 4294967295
-0.129173 0.070980422 0.61500001 4294967295
-0.12800248 0.070978425 0.61500001 4294967295
-0.12662581 0.070861042 0.61400002 4294637301
-0.12545729 0.070859052 0.61400002 4292992742
-0.12428885 0.070857085 0.61400002 4292071640
-0.1227194 0.070624322 0.61199999 4291152071
-0.12155487 0.070622377 0.61199999 4290362298
-0.12019368 0.070505053 0.611 4287672467
-0.11903115 0.070503131 0.611 4285764470
-0.11786869 0.070501223 0.611 4278208076
-0.11670628 0.070499316 0.611 4278205249
-0.11535482 0.070382044 0.61000001 4278190096
-0.11400723 0.070264786 0.60900003 4278190884
-0.11284877 0.070262916 0.60900003 4281474099
-0.1116904 0.070261069 0.60900003 4285750645
-0.11035056 0.070143849 0.60799998 4289170581
-0.10901458 0.070026651 0.60699999 4289696925
-0.10786016 0.070024833 0.60699999 4287139216
-0.10688159 0.070138387 0.60799998 4278849041
-0.10416038 0.069098391 0.59899998 4279702275
-0.10302133 0.06909664 0.59899998 4281873443
-0.10188235 0.069094889 0.59899998 4282136422
-0.10074341 0.069093153 0.59899998 4281807457
-0.099604547 0.069091439 0.59899998 4281939277
-0.098465748 0.069089741 0.59899998 4281741898
-0.097326972 0.069088042 0.59899998 4281215781
-0.096348844 0.0692017 0.60000002 4278321152
-0.095208295 0.069200031 0.60000002 4286145875
-0.09406779 0.069198377 0.60000002 4294967279
-0.092927344 0.069196738 0.60000002 4294967295
-0.091786928 0.069195107 0.60000002 4291874254
-0.090797685 0.069308817 0.60100001 4292592832
-0.089953825 0.069537841 0.60299999 4294967295
-0.088807903 0.069536254 0.60299999 4294967295
-0.087662004 0.069534674 0.60299999 4294967295
-0.086516187 0.06953311 0.60299999 4294967295
-0.085370399 0.069531567 0.60299999 4294967295
-0.083805658 0.069184117 0.60000002 4294967295
-0.082527906 0.069067292 0.59899998 4294901500
-0.081389867 0.069065809 0.59899998 4294967295
-0.080251895 0.069064334 0.59899998 4294967295
-0.079113975 0.069062874 0.59899998 4294967295
-0.077976108 0.069061421 0.59899998 4294967293
-0.076838277 0.06905999 0.59899998 4294835709
-0.075700499 0.069058575 0.59899998 4294440951
-0.074438296 0.068941891 0.59799999 4294374131
-0.07330253 0.06894052 0.59799999 4294571254
-0.072046116 0.068823874 0.597 4294374129
-0.070674784 0.068591975 0.59500003 4294308336
-0.069544844 0.068590663 0.59500003 4294176496
-0.068414964 0.06858936 0.59500003 4294176496
-0.067172021 0.068472795 0.59399998 4294176496
-0.066044129 0.068471529 0.59399998 4294242289
-0.065025568 0.068585552 0.59500003 4294308849
-0.063895851 0.068584323 0.59500003 4293914091
-0.062766194 0.068583108 0.59500003 4293914091
-0.061636571 0.068581901 0.59500003 4293848298
-0.060507007 0.068580732 0.59500003 4293585127
-0.059377465 0.068579569 0.59500003 4293585127
-0.058345869 0.068693675 0.59600002 4293650150
-0.043119606 0.066146187 0.574 4294769400
-0.042030454 0.066145323 0.574 4294967295
-0.040870011 0.066029251 0.57300001 4294967295
-0.039782811 0.066028424 0.57300001 4294967295
-0.038628124 0.065912388 0.57200003 4294967295
-0.037542891 0.065911606 0.57200003 4294967295
-0.036457695 0.065910839 0.57200003 4294967295
-0.035372522 0.065910086 0.57200003 4294967295
-0.034227435 0.065794133 0.57099998 4294967295
-0.033144213 0.065793425 0.57099998 4294967295
-0.032117169 0.065907963 0.57200003 4294243572
-0.031032106 0.0659073 0.57200003 4292598747
-0.029999424 0.066021875 0.57300001 4291217094
-0.028962974 0.066136472 0.574 4290427578
-0.027874188 0.066135854 0.574 4286288273
-0.026785426 0.066135257 0.574 4282340949
-0.025696689 0.066134684 0.574 4281609531
-0.024565104 0.066018917 0.57300001 4278648846
-0.023478307 0.066018388 0.57300001 4278780421
-0.022352453 0.065902673 0.57200003 4278452224
-0.021267591 0.065902181 0.57200003 4278190084
-0.020182749 0.065901704 0.57200003 4278190080
-0.019097928 0.065901265 0.57200003 4278190080
-0.018013122 0.06590084 0.57200003 4278587153
-0.016928332 0.065900438 0.57200003 4280621647
-0.015843557 0.065900035 0.57200003 4280621647
-0.014758798 0.06589967 0.57200003 4280558126
-0.013674054 0.065899312 0.57200003 4280492333
-0.012589324 0.065898992 0.57200003 4280953386
-0.011484493 0.065783478 0.57099998 4281282351
-0.010401685 0.065783188 0.57099998 4281150765
-0.0093188863 0.065782934 0.57099998 4281019179
-0.008236099 0.065782674 0.57099998 4281215781
-0.0071407938 0.065667249 0.56999999 4281083939
-0.0060599223 0.065667048 0.56999999 4279900698
-0.0049877921 0.065782063 0.57099998 4278255873
-0.0039050404 0.065781899 0.57099998 4286869852
-0.0028222951 0.065781772 0.57099998 4294830805
-0.0017426013 0.065896854 0.57200003 4294571504
-0.00065566943 0.06566634 0.56999999 4294374381
0.00042516511 0.065666251 0.56999999 4294308847
0.0015033538 0.06555099 0.56900001 4294703605
0.002582286 0.065550968 0.56900001 4294440951
0.0036547817 0.065435737 0.56800002 4293322470
0.0047234832 0.065320529 0.56699997 4288853954
0.0057986192 0.065320551 0.56699997 4278392867
0.0068737553 0.065320596 0.56699997 4278190080
0.0079488922 0.065320656 0.56699997 4279510051
0.0090399459 0.065435946 0.56800002 4280486923
0.010116987 0.065436058 0.56800002 4281868576
0.011194027 0.065436177 0.56800002 4289564533
0.012271074 0.065436326 0.56800002 4294961872
0.013324622 0.065321274 0.56699997 4294637047
0.014399781 0.065321453 0.56699997 4294571254
0.015447656 0.065206453 0.56599998 4293521394
0.016491745 0.065091483 0.565 4289113519
0.017563133 0.065091722 0.565 4283920249
0.018634528 0.065091982 0.565 4278190080
0.019671058 0.064977065 0.56400001 4278190080
0.020740578 0.064977363 0.56400001 4278717189
0.021771446 0.06486249 0.56300002 4278912256
0.022798523 0.064747609 0.56199998 4278321152
0.023864282 0.064747967 0.56199998 4278190080
0.024930058 0.064748362 0.56199998 4278190085
0.037452165 0.064293563 0.55800003 4280360997
0.038372558 0.064063743 0.55599999 4280361249
0.039356288 0.06394916 0.55500001 4278190080
0.040409073 0.063949823 0.55500001 4281731072
0.04146187 0.063950509 0.55500001 4291600002
0.04243809 0.063835979 0.55400002 4293188554
0.043489039 0.063836694 0.55400002 4294702049
0.044540018 0.063837416 0.55400002 4294046445
0.045426425 0.063607693 0.55199999 4293651687
0.046473663 0.063608468 0.55199999 4293847787
0.047520924 0.06360925 0.55199999 4294505460
0.048568211 0.063610047 0.55199999 4293324017
0.049525652 0.063495636 0.551 4287205268
0.050571095 0.06349647 0.551 4282796623
0.051710252 0.06361255 0.55199999 4279835682
0.052757658 0.06361343 0.55199999 4278196254
-0.13363995 0.072039999 0.61400002 4294967295
-0.13247116 0.072037973 0.61400002 4293058283
-0.13151622 0.072153255 0.61500001 4289834426
-0.12843809 0.071095355 0.60600001 4285884334
-0.12686455 0.070858724 0.60399997 4285621418
-0.12571496 0.070856743 0.60399997 4283713878
-0.12518415 0.071206704 0.60699999 4280687399
-0.12402894 0.071204722 0.60699999 4279242518
-0.12287381 0.071202755 0.60699999 4279045139
-0.12211978 0.071435414 0.60900003 4278587155
-0.12115959 0.071550757 0.61000001 4278190341
-0.1199989 0.071548812 0.61000001 4281684520
-0.11883827 0.071546867 0.61000001 4287014010
-0.11748477 0.071427651 0.60900003 4290626458
-0.11632617 0.071425743 0.60900003 4291087009
-0.11422204 0.070837423 0.60399997 4294439122
-0.11307306 0.070835546 0.60399997 4294967008
-0.1119241 0.070833683 0.60399997 4294967295
-0.11077522 0.07083182 0.60399997 4294967295
-0.1103524 0.071299054 0.60799998 4294898687
-0.10901641 0.071179934 0.60699999 4294964479
-0.10626271 0.070122749 0.59799999 4290229213
-0.10512546 0.070120953 0.59799999 4287991994
-0.10398825 0.070119165 0.59799999 4290233740
-0.1028511 0.070117392 0.59799999 4291483551
-0.10171401 0.070115641 0.59799999 4292596446
-0.10057697 0.070113897 0.59799999 4290425534
-0.099439994 0.070112169 0.59799999 4287528813
-0.09830305 0.07011044 0.59799999 4282002201
-0.097328663 0.070225976 0.59899998 4281149732
-0.096189938 0.070224278 0.59899998 4278649600
-0.095051274 0.070222601 0.59899998 4286080081
-0.093755864 0.07010369 0.59799999 4294967283
-0.09261921 0.070102051 0.59799999 4294967295
-0.091788575 0.070334852 0.60000002 4293782505
-0.090799287 0.07045044 0.60100001 4294967295
-0.089806266 0.070566043 0.602 4294967295
-0.088809498 0.070681661 0.60299999 4294967295
-0.08751823 0.070562854 0.602 4294967295
-0.086374283 0.070561275 0.602 4294967295
-0.085088804 0.070442505 0.60100001 4294967295
-0.083667494 0.070206545 0.59899998 4294967295
-0.082529403 0.070205018 0.59899998 4294967295
-0.081391364 0.070203513 0.59899998 4294967295
-0.08025337 0.070202023 0.59899998 4294967295
-0.078983344 0.070083342 0.59799999 4294967295
-0.077847362 0.070081897 0.59799999 4294967295
-0.076711431 0.070080452 0.59799999 4294901500
-0.075575531 0.070079021 0.59799999 4294572791
-0.074315213 0.06996043 0.597 4294571256
-0.073058739 0.069841862 0.59600002 4294505206
-0.07180611 0.069723301 0.59500003 4294504945
-0.070557326 0.069604777 0.59399998 4294439152
-0.069429271 0.069603443 0.59399998 4294242289
-0.068301268 0.069602132 0.59399998 4294176496
-0.067060217 0.06948366 0.59299999 4294045680
-0.065934204 0.069482386 0.59299999 4294045680
-0.064808235 0.069481134 0.59299999 4293979116
-0.063682295 0.069479875 0.59299999 4293847787
-0.062556416 0.069478661 0.59299999 4293782505
-0.061534174 0.069594622 0.59399998 4293782505
-0.060406476 0.06959343 0.59399998 4293781992
-0.05927882 0.069592252 0.59399998 4294110701
-0.049656216 0.067241669 0.574 4294967295
-0.048566837 0.067240678 0.574 4294967295
-0.047560211 0.067356855 0.57499999 4294967295
-0.046469007 0.067355908 0.57499999 4294967295
-0.045377839 0.06735497 0.57499999 4294967295
-0.044286702 0.067354046 0.57499999 4294967295
-0.043120477 0.067236021 0.574 4294967295
-0.04203131 0.067235157 0.574 4294967295
-0.040870845 0.067117169 0.57300001 4294967295
-0.039783631 0.067116335 0.57300001 4294375158
-0.038696457 0.067115523 0.57300001 4291608286
-0.037609309 0.067114733 0.57300001 4291476700
-0.036458455 0.06699682 0.57200003 4287070391
-0.035373259 0.06699606 0.57200003 4286412717
-0.034228154 0.066878207 0.57099998 4284308079
-0.033144914 0.066877492 0.57099998 4281018429
-0.0320617 0.066876799 0.57099998 4278191616
-0.031032767 0.066993244 0.57200003 4278190080
-0.029947709 0.066992588 0.57200003 4278190080
-0.028862678 0.066991962 0.57200003 4278190080
-0.02777767 0.066991344 0.57200003 4278190080
-0.026692681 0.066990748 0.57200003 4278520589
-0.025607718 0.066990174 0.57200003 4278394139
-0.024522778 0.066989623 0.57200003 4278722848
-0.023396879 0.066871963 0.57099998 4280034081
-0.022313874 0.066871442 0.57099998 4281020976
-0.021230893 0.066870958 0.57099998 4285163595
-0.020147927 0.066870481 0.57099998 4289045382
-0.019064978 0.066870026 0.57099998 4291414696
-0.017982047 0.066869594 0.57099998 4291875247
-0.016899133 0.066869184 0.57099998 4292005583
-0.015816236 0.066868789 0.57099998 4288649884
-0.014733354 0.066868417 0.57099998 4283389283
-0.013602674 0.066633858 0.56900001 4278190091
-0.012523612 0.066633523 0.56900001 4278190336
-0.01142445 0.066516109 0.56800002 4278194956
-0.010347311 0.066515826 0.56800002 4278784527
-0.0092865005 0.066632658 0.56900001 4279442714
-0.0082074869 0.06663242 0.56900001 4280624671
-0.0071284818 0.066632196 0.56900001 4280624671
-0.0060494849 0.066631988 0.56900001 4280623138
-0.004970497 0.066631801 0.56900001 4278190080
-0.0038915155 0.066631638 0.56900001 4284436020
-0.002812542 0.066631496 0.56900001 4293910468
-0.0017335735 0.066631369 0.56900001 4294833645
-0.00065461028 0.066631265 0.56900001 4294636265
0.00042360279 0.06651409 0.56800002 4294768115
0.0014980197 0.066396914 0.56699997 4294833908
0.0025731795 0.066396877 0.56699997 4294571252
0.0036419036 0.066279761 0.56599998 4294505458
0.004706834 0.066162661 0.565 4293192149
0.0057781972 0.066162676 0.565 4281152286
0.0068495614 0.066162713 0.565 4278190080
0.0079209264 0.066162787 0.565 4279576101
0.0090082083 0.06627997 0.56599998 4280752927
0.022636609 0.065346055 0.55800003 4290030978
0.0236948 0.065346405 0.55800003 4291541680
0.024619931 0.06499546 0.55500001 4292660161
0.025672462 0.064995863 0.55500001 4293053402
0.026725013 0.064996287 0.55500001 4293119451
0.027777575 0.064996719 0.55500001 4293185503
0.038235154 0.064885035 0.55400002 4278191883
0.039286029 0.064885683 0.55400002 4278190080
0.040336929 0.064886354 0.55400002 4278190080
0.041387849 0.064887039 0.55400002 4283191629
0.04243879 0.06488774 0.55400002 4289046161
0.043411259 0.064771324 0.55299997 4294441187
0.044379957 0.064654931 0.55199999 4294440949
0.045344893 0.064538568 0.551 4294243826
0.046390247 0.064539343 0.551 4294177009
0.04743563 0.064540125 0.551 4294308595
0.04848104 0.064540938 0.551 4294440436
0.049436599 0.064424634 0.55000001 4293387747
0.050480165 0.064425468 0.55000001 4292466643
-0.133642 0.073206998 0.61400002 4294374642
-0.13247319 0.073204942 0.61400002 4291875528
-0.12916589 0.072010659 0.60399997 4282335287
-0.12801619 0.072008647 0.60399997 4283049533
-0.12665649 0.071887419 0.60299999 4280090641
-0.1255088 0.071885429 0.60299999 4279828493
-0.12456741 0.072002664 0.60399997 4280354069
-0.12341791 0.072000675 0.60399997 4280096280
-0.12226848 0.071998708 0.60399997 4280425245
-0.12152017 0.072235145 0.60600001 4279768862
-0.12036702 0.072233185 0.60600001 4278190085
-0.11882049 0.071992837 0.60399997 4284502054
-0.11747647 0.07187172 0.60299999 4293581487
-0.11632919 0.071869791 0.60299999 4293322470
-0.11518198 0.071867876 0.60299999 4294967295
-0.11403483 0.071865976 0.60299999 4294967295
-0.11288773 0.071864083 0.60299999 4294967295
-0.11192598 0.07198137 0.60399997 4294967295
-0.11077708 0.071979493 0.60399997 4294308847
-0.10835773 0.071143463 0.597 4293190632
-0.10722224 0.071141623 0.597 4291808979
-0.10608683 0.071139805 0.597 4290559934
-0.10495144 0.071137995 0.597 4291875538
-0.10381614 0.071136206 0.597 4291877586
-0.10268088 0.071134418 0.597 4292009428
-0.10154568 0.07113266 0.597 4293581808
-0.10041054 0.071130902 0.597 4290950088
-0.099441722 0.071248285 0.59799999 4287529093
-0.098304778 0.071246557 0.59799999 4281805101
-0.097167887 0.071244828 0.59799999 4280888613
-0.096031047 0.071243122 0.59799999 4278190592
-0.09489426 0.071241416 0.59799999 4285949011
-0.093757533 0.071239732 0.59799999 4294967286
-0.092620857 0.071238071 0.59799999 4294967295
-0.091790199 0.071474656 0.60000002 4294967295
-0.090800934 0.071592137 0.60100001 4294967295
-0.089807883 0.071709618 0.602 4294967295
-0.088663809 0.071707994 0.602 4294967295
-0.08751981 0.071706392 0.602 4294967295
-0.086088881 0.07146658 0.60000002 4294967295
-0.084948771 0.071465008 0.60000002 4294967295
-0.083669029 0.071344338 0.59899998 4294967295
-0.082530923 0.071342804 0.59899998 4294967295
-0.081392862 0.071341291 0.59899998 4294967295
-0.08025486 0.071339779 0.59899998 4294967295
-0.078984819 0.071219191 0.59799999 4294967295
-0.077848814 0.071217716 0.59799999 4294967295
-0.076712862 0.071216263 0.59799999 4294835707
-0.075450577 0.071095742 0.597 4294572791
-0.074192137 0.070975229 0.59600002 4294702840
-0.072937548 0.070854761 0.59500003 4294505460
-0.071686782 0.070734285 0.59399998 4294767856
-0.07043989 0.070613846 0.59299999 4294701806
-0.06931372 0.070612498 0.59299999 4294175212
-0.068187594 0.070611179 0.59299999 4294306799
-0.066948429 0.0704908 0.59200001 4294505460
-0.065824293 0.070489511 0.59200001 4294176496
-0.064809486 0.070607305 0.59299999 4293716199
-0.06368354 0.070606053 0.59299999 4293847785
-0.051655509 0.06809558 0.57200003 4294967295
-0.050569825 0.068094544 0.57200003 4294967295
-0.049570702 0.068212576 0.57300001 4294967295
-0.048483204 0.068211585 0.57300001 4294967295
-0.04739574 0.068210609 0.57300001 4294967295
-0.046389133 0.068328694 0.574 4294967295
-0.04529985 0.068327762 0.574 4294967295
-0.044210587 0.068326823 0.574 4294967295
-0.043121375 0.068325929 0.574 4294967295
-0.042032175 0.068325043 0.574 4294967295
-0.040871691 0.068205148 0.57300001 4294967295
-0.039784465 0.068204299 0.57300001 4291348934
-0.038697269 0.068203487 0.57300001 4291475108
-0.037610095 0.068202674 0.57300001 4285685324
-0.036459226 0.068082884 0.57200003 4285156947
-0.035374012 0.068082109 0.57200003 4280485644
-0.03422888 0.067962348 0.57099998 4279043592
-0.033145621 0.067961618 0.57099998 4278517760
-0.032062382 0.06796091 0.57099998 4278190080
-0.030979179 0.06796024 0.57099998 4278190080
-0.029896 0.067959577 0.57099998 4278190080
-0.028812846 0.067958936 0.57099998 4278190080
-0.027729712 0.067958318 0.57099998 4278779989
-0.026599936 0.067838706 0.56999999 4279568481
-0.025473977 0.067719109 0.56900001 4279508257
-0.024394704 0.067718551 0.56900001 4279837221
-0.023315454 0.067718007 0.56900001 4279967243
-0.022236224 0.067717493 0.56900001 4280954138
-0.021157011 0.067716993 0.56900001 4285622638
-0.020077817 0.067716517 0.56900001 4292530903
-0.019032035 0.067835063 0.56999999 4292271829
-0.01795098 0.067834631 0.56999999 4292403671
-0.016840346 0.067715205 0.56900001 4293384682
-0.015761221 0.06771481 0.56900001 4289766066
-0.014682111 0.067714438 0.56900001 4285954933
-0.013579109 0.06759508 0.56800002 4278190592
-0.012501924 0.067594744 0.56800002 4278190129
-0.011404635 0.067475431 0.56699997 4279704407
-0.010329372 0.06747514 0.56699997 4282139232
-0.0092541175 0.067474872 0.56699997 4281481558
-0.0081933001 0.067593627 0.56800002 4281149766
-0.0071161701 0.067593396 0.56800002 4280886337
-0.0060284166 0.067474179 0.56699997 4281542443
-0.0049531995 0.067473993 0.56699997 4279108102
-0.0038916708 0.067711845 0.56900001 4282720000
-0.0028126759 0.067711696 0.56900001 4294431152
-0.0017336869 0.067711569 0.56900001 4293716708
0.00042353105 0.067592382 0.56800002 4294965750
0.0014926848 0.067235306 0.565 4294899701
0.0025595352 0.067116283 0.56400001 4294504945
0.0036290251 0.067116253 0.56400001 4294965496
0.0046985145 0.067116253 0.56400001 4293586157
0.0057577756 0.066997275 0.56300002 4282730313
0.0068253679 0.066997319 0.56300002 4280811548
0.0078789415 0.066878371 0.56199998 4282061360
0.008944639 0.066878453 0.56199998 4280688931
0.010010342 0.066878565 0.56199998 4278190080
0.010977504 0.066283673 0.55699998 4283182594
0.012033732 0.066283822 0.55699998 4294170281
0.013089965 0.066283986 0.55699998 4293717482
0.014146202 0.06628418 0.55699998 4294440949
0.015202446 0.066284373 0.55699998 4294308595
0.016258696 0.066284604 0.55699998 4292992992
0.017314956 0.066284843 0.55699998 4291613917
0.018404206 0.066404119 0.55800003 4287666080
0.019427499 0.066285387 0.55699998 4286878104
0.020483781 0.0662857 0.55699998 4288720308
0.021540083 0.06628602 0.55699998 4290818491
0.022596389 0.066286363 0.55699998 4292463315
0.023610247 0.066167727 0.55599999 4294108122
0.024620323 0.066049106 0.55500001 4294568673
0.025672875 0.066049509 0.55500001 4294966525
0.026725443 0.066049933 0.55500001 4294964213
0.027778026 0.066050373 0.55500001 4294964473
0.02966786 0.065575264 0.551 4289701554
0.030712906 0.065575764 0.551 4279832604
0.031757969 0.065576278 0.551 4278714386
0.032803047 0.065576814 0.551 4280292905
0.033848148 0.065577373 0.551 4279701523
0.034893267 0.065577954 0.551 4279504143
0.036134083 0.065935597 0.55400002 4278980614
0.03816678 0.065817825 0.55299997 4278190080
0.045263365 0.065465696 0.55000001 4293914605
0.046306834 0.065466464 0.55000001 4294242543
-0.1312498 0.073041603 0.60299999 4293321952
-0.12988617 0.072918445 0.602 4291216814
-0.12874022 0.072916411 0.602 4278190080
-0.12759429 0.072914384 0.602 4278194181
-0.12644845 0.072912373 0.602 4279841833
-0.12530267 0.072910376 0.602 4282136377
-0.12395068 0.072787262 0.60100001 4282794306
-0.12219388 0.072421946 0.59799999 4282860100
-0.12105584 0.072419971 0.59799999 4282465342
-0.12112107 0.073144622 0.60399997 4282004791
-0.11997172 0.07314264 0.60399997 4282794306
-0.11882243 0.073140681 0.60399997 4287330694
-0.11747839 0.073017649 0.60299999 4294967295
-0.11633112 0.073015705 0.60299999 4294967295
-0.1151839 0.073013775 0.60299999 4294967295
-0.11403672 0.073011845 0.60299999 4294967295
-0.11288961 0.073009931 0.60299999 4289373606
-0.11174256 0.073008038 0.60299999 4282001783
-0.11059555 0.073006153 0.60299999 4279173196
-0.10817806 0.072156787 0.59600002 4278191122
-0.10704447 0.072154947 0.59600002 4278190093
-0.10591094 0.072153121 0.59600002 4285551968
-0.10477746 0.072151296 0.59600002 4294039266
-0.10364403 0.072149485 0.59600002 4292991708
-0.10251068 0.07214769 0.59600002 4291544006
-0.10103717 0.071903802 0.59399998 4289243318
-0.099907696 0.071902037 0.59399998 4285559166
-0.098778293 0.071900278 0.59399998 4284241741
-0.097648941 0.071898535 0.59399998 4281412642
-0.096357159 0.071775779 0.59299999 4281478697
-0.095069222 0.071653031 0.59200001 4278190080
-0.093785144 0.071530305 0.59100002 4285489744
-0.092661709 0.071528621 0.59100002 4294967290
-0.091693208 0.071647979 0.59200001 4294967295
-0.090567969 0.071646325 0.59200001 4294637812
-0.089442797 0.071644694 0.59200001 4294967295
-0.08831767 0.071643062 0.59200001 4294967295
-0.087339886 0.071762472 0.59299999 4294967295
-0.08664912 0.072123908 0.59600002 4294967295
-0.085516542 0.072122321 0.59600002 4294967295
-0.071446799 0.071620539 0.59200001 4294307818
-0.070322454 0.07161916 0.59200001 4294636784
-0.069315054 0.071738787 0.59299999 4294044655
-0.066949733 0.071615167 0.59200001 4294242289
-0.051566243 0.06906087 0.57099998 4294967295
-0.050482437 0.069059819 0.57099998 4294967294
-0.049571715 0.069300704 0.57300001 4294439150
-0.048484191 0.069299683 0.57300001 4292728788
-0.047396719 0.069298707 0.57300001 4292728537
-0.046390083 0.069418669 0.574 4294967295
-0.045300778 0.069417723 0.574 4294967295
-0.044211511 0.069416799 0.574 4294967295
-0.043122258 0.069415875 0.574 4294967295
-0.042033058 0.069414996 0.574 4294967295
-0.040872552 0.069293186 0.57300001 4294967295
-0.039785299 0.069292337 0.57300001 4290624439
-0.038698085 0.06929151 0.57300001 4286875255
-0.037545256 0.069169767 0.57200003 4278190080
-0.03639625 0.069048047 0.57099998 4278190080
-0.035312921 0.06904728 0.57099998 4278193412
-0.03416967 0.068925612 0.56999999 4278195211
-0.033088285 0.068924882 0.56999999 4281550654
-0.032006931 0.068924174 0.56999999 4287137617
-0.030925604 0.068923488 0.56999999 4288716905
-0.029739583 0.068680994 0.56800002 4290819995
-0.028662093 0.068680339 0.56800002 4291543717
-0.027633201 0.068800643 0.56900001 4289836738
-0.026507193 0.068679109 0.56800002 4281152062
-0.02542978 0.068678528 0.56800002 4278190084
-0.024352381 0.068677962 0.56800002 4278190089
-0.02327501 0.068677425 0.56800002 4278190080
-0.022197654 0.068676904 0.56800002 4278190592
-0.021120317 0.068676405 0.56800002 4286210153
-0.020043002 0.068675913 0.56800002 4294894572
-0.018999092 0.068796366 0.56900001 4294239963
-0.017919919 0.068795927 0.56900001 4293713619
-0.016811159 0.068674602 0.56800002 4292597198
-0.015733909 0.068674199 0.56800002 4288912790
-0.014656673 0.068673827 0.56800002 4289238925
-0.013555544 0.068552554 0.56699997 4291673266
-0.012480237 0.068552218 0.56699997 4291673813
-0.011384823 0.068431005 0.56599998 4291607764
-0.010311435 0.068430714 0.56599998 4292068569
-0.0092380568 0.068430446 0.56599998 4291608018
-0.0081502637 0.068309285 0.565 4288581751
-0.0070788027 0.068309054 0.565 4281278472
-0.0060286145 0.068550639 0.56699997 4280820773
-0.0049533779 0.068550453 0.56699997 4279175692
-0.0038781478 0.068550289 0.56699997 4281600000
-0.0027584347 0.067462049 0.55800003 4291731852
-0.0017002837 0.067461923 0.55800003 4293648075
-0.00064674148 0.067945421 0.56199998 4294965221
0.00041898491 0.067945324 0.56199998 4294834678
0.0014847076 0.067945257 0.56199998 4294966263
0.0025504276 0.067945227 0.56199998 4294373107
0.0036161465 0.067945212 0.56199998 4294833658
0.0046818624 0.067945205 0.56199998 4294046193
0.0057475795 0.067945227 0.56199998 4287466893
0.0068132961 0.067945272 0.56199998 4278193768
0.0078509748 0.067703538 0.56 4278195567
0.0088810697 0.067461826 0.55800003 4280361249
0.0099392068 0.067461923 0.55800003 4278387459
0.010977637 0.067341141 0.55699998 4282193664
0.012033886 0.06734129 0.55699998 4291536260
0.013090139 0.067341462 0.55699998 4294831307
0.014120999 0.06722074 0.55599999 4294967264
0.015148074 0.067100048 0.55500001 4294967036
0.016200552 0.067100272 0.55500001 4294833908
0.017253038 0.06710051 0.55500001 4294507259
0.018305533 0.067100778 0.55500001 4294704639
0.019358035 0.067101069 0.55500001 4293783287
0.020410551 0.067101374 0.55500001 4294178045
0.021463072 0.067101695 0.55500001 4292531687
0.022515608 0.067102045 0.55500001 4292136929
0.023568157 0.067102417 0.55500001 4291740599
0.024576358 0.066981904 0.55400002 4290292897
0.02562703 0.066982307 0.55400002 4289303966
0.026677724 0.066982731 0.55400002 4287856520
0.027728427 0.066983163 0.55400002 4285618545
0.028623303 0.066620909 0.551 4282394688
0.029668352 0.066621393 0.551 4280878603
0.030713417 0.0666219 0.551 4278648832
0.031758498 0.066622421 0.551 4278190097
0.032803599 0.066622958 0.551 4278321183
0.033787284 0.066502608 0.55000001 4278190101
0.034830518 0.066503182 0.55000001 4281281093
0.035873782 0.066503771 0.55000001 4282794054
0.036984183 0.066625305 0.551 4285754740
0.038029388 0.06662596 0.551 4288978297
-0.13239981 0.074189857 0.60299999 4294967295
-0.13125187 0.0741878 0.60299999 4292861403
-0.12988819 0.074062712 0.602 4291016871
-0.12874225 0.074060664 0.602 4280029440
-0.12759632 0.074058622 0.602 4280755230
-0.12624043 0.073933579 0.60100001 4282597434
-0.12509651 0.073931552 0.60100001 4282662975
-0.12374645 0.073806539 0.60000002 4282794304
-0.12199153 0.0734355 0.597 4282401595
-0.12065295 0.073310509 0.59600002 4281743922
-0.11951878 0.07330855 0.59600002 4282134580
-0.11818603 0.073183589 0.59500003 4283253061
-0.11705386 0.073181637 0.59500003 4289368464
-0.11728551 0.074040636 0.602 4294967295
-0.11614014 0.074038684 0.602 4294967295
-0.11499482 0.07403674 0.602 4294967295
-0.11384954 0.074034803 0.602 4294967295
-0.11289153 0.074155852 0.60299999 4286282619
-0.11174446 0.074153945 0.60299999 4278193409
-0.11059744 0.074152038 0.60299999 4278191360
-0.10781688 0.073043413 0.59399998 4278648832
-0.10668709 0.073041566 0.59399998 4279569934
-0.10555736 0.073039718 0.59399998 4286927616
-0.10442769 0.073037893 0.59399998 4291533124
-0.10329804 0.073036067 0.59399998 4291279012
-0.10251248 0.073280178 0.59600002 4289436808
-0.10018843 0.072417706 0.58899999 4278214023
-0.098900288 0.072292998 0.588 4278214794
-0.097782277 0.072291248 0.588 4278203188
-0.096664324 0.072289512 0.588 4279191625
-0.095546424 0.072287783 0.588 4281610287
-0.094589151 0.072409004 0.58899999 4278190080
-0.093628146 0.072530232 0.58999997 4285292112
-0.092506602 0.072528549 0.58999997 4294967294
-0.091694877 0.072772719 0.59200001 4294967295
-0.09041664 0.072648123 0.59100002 4294967295
-0.089293353 0.072646476 0.59100002 4294967295
-0.088319302 0.072767757 0.59200001 4294967295
-0.087194204 0.072766133 0.59200001 4294967295
-0.08621455 0.072887436 0.59299999 4294967295
-0.085087672 0.072885826 0.59299999 4294967295
-0.083960809 0.072884239 0.59299999 4294967295
-0.082694359 0.072759777 0.59200001 4294967295
-0.072420143 0.070414402 0.57300001 4294638584
-0.073697023 0.072747834 0.59200001 4294769146
-0.0713275 0.072622135 0.59100002 4294176748
-0.053640921 0.070024572 0.56999999 4294967295
-0.052558925 0.070023477 0.56999999 4294967295
-0.051567294 0.070145272 0.57099998 4293717482
-0.050483476 0.070144214 0.57099998 4292203987
-0.04948622 0.070266031 0.57200003 4290692285
-0.048485193 0.070387855 0.57300001 4290165685
-0.047397695 0.070386864 0.57300001 4291084949
-0.046310235 0.070385881 0.57300001 4294967257
-0.0452228 0.07038492 0.57300001 4294967295
-0.04413541 0.070383996 0.57300001 4294967295
-0.043048039 0.070383057 0.57300001 4294967295
-0.041960713 0.07038217 0.57300001 4294967295
-0.040873416 0.070381291 0.57300001 4294967295
-0.039716706 0.070257597 0.57200003 4290888383
-0.038631376 0.07025677 0.57200003 4287597950
-0.037480418 0.070133112 0.57099998 4278190080
-0.03639704 0.070132323 0.57099998 4278387459
-0.035313684 0.07013154 0.57099998 4279769112
-0.034170412 0.070007972 0.56999999 4279506692
-0.033030957 0.069884412 0.56900001 4286085992
-0.031951476 0.069883697 0.56900001 4287072917
-0.030872026 0.069883004 0.56900001 4291481047
-0.029740242 0.069759525 0.56800002 4291809998
-0.028662732 0.069758862 0.56800002 4293849582
-0.027585255 0.069758236 0.56800002 4293063167
-0.026507791 0.069757625 0.56800002 4283654772
-0.025430355 0.069757037 0.56800002 4278190080
-0.02435294 0.069756463 0.56800002 4278190336
-0.023234565 0.069633096 0.56699997 4278190080
-0.022159087 0.069632575 0.56699997 4280364595
-0.021083625 0.069632061 0.56699997 4287322246
-0.020008184 0.069631569 0.56699997 4293704424
-0.018966155 0.06975393 0.56800002 4292070845
-0.017888857 0.06975349 0.56800002 4291346865
-0.016811566 0.069753058 0.56800002 4287801253
-0.015706597 0.069629848 0.56699997 4285959049
-0.014631237 0.069629461 0.56699997 4289039481
-0.013531986 0.069506302 0.56599998 4293250233
-0.012458552 0.06950596 0.56599998 4294965246
-0.011385128 0.069505647 0.56599998 4294962932
-0.0102935 0.069382548 0.565 4294967295
-0.009221998 0.069382273 0.565 4291413705
-0.0081505068 0.069382019 0.565 4288450454
-0.0070790239 0.069381788 0.565 4280950052
-0.0060075498 0.069381572 0.565 4280557093
-0.0048749298 0.06852179 0.55800003 4280096542
-0.0038167464 0.068521634 0.55800003 4280877056
-0.00275857 0.068521492 0.55800003 4289166202
-0.0017003982 0.068521358 0.55800003 4292068528
-0.00064223201 0.068521254 0.55800003 4294965219
0.00041667538 0.068643957 0.55900002 4294965750
0.0014767301 0.068643898 0.55900002 4294768115
0.0025413202 0.068766654 0.56 4293979633
0.003603267 0.068766639 0.56 4294769148
0.0046735425 0.068889424 0.56099999 4294770686
0.0057271565 0.068766654 0.56 4289506989
0.0067891013 0.068766691 0.56 4284836483
0.0078230081 0.068521172 0.55800003 4278586149
0.0088811619 0.068521246 0.55800003 4279440147
0.0099393213 0.068521351 0.55800003 4279176975
0.010977773 0.068398677 0.55699998 4281663488
0.012034042 0.068398826 0.55699998 4290742660
0.013090314 0.068398982 0.55699998 4292527028
0.014070401 0.068030782 0.55400002 4294966252
0.015120995 0.068030983 0.55400002 4294967295
0.016171597 0.068031207 0.55400002 4294506229
0.017160032 0.067785852 0.55199999 4294899703
0.018206859 0.06778612 0.55199999 4294570738
0.019253692 0.067786403 0.55199999 4293649636
0.020300537 0.067786708 0.55199999 4292596948
0.021347392 0.067787036 0.55199999 4290889678
0.022394257 0.067787379 0.55199999 4289508025
0.023483604 0.067910567 0.55299997 4287930765
0.024576753 0.068033762 0.55400002 4285890925
0.02862378 0.067667089 0.551 4278190089
0.029668845 0.067667574 0.551 4278190080
0.030713931 0.06766808 0.551 4278190336
0.031759031 0.067668609 0.551 4279701523
0.032744613 0.067546338 0.55000001 4281872691
0.033787858 0.067546912 0.55000001 4283321684
0.034831118 0.067547493 0.55000001 4285558646
-0.13218231 0.075211167 0.602 4294967295
-0.13103627 0.075209096 0.602 4291742923
-0.12967448 0.075082093 0.60100001 4290295451
-0.12853044 0.075080052 0.60100001 4280952845
-0.12738639 0.075077981 0.60100001 4280952102
-0.1260324 0.074951023 0.60000002 4282794306
-0.12489039 0.074948989 0.60000002 4282924859
-0.12312971 0.074572228 0.597 4282793530
-0.12178918 0.074445315 0.59600002 4282663477
-0.1204525 0.074318409 0.59500003 4282005291
-0.11932022 0.074316427 0.59500003 4282133297
-0.11798935 0.074189551 0.59399998 4284962396
-0.11685907 0.074187584 0.59399998 4289502351
-0.11572886 0.074185632 0.59399998 4294967292
-0.1161421 0.075182796 0.602 4294967295
-0.1128955 0.073807098 0.59100002 4294967295
-0.11177114 0.073805198 0.59100002 4294967295
-0.11064684 0.073803291 0.59100002 4283454036
-0.10952257 0.073801391 0.59100002 4278192128
-0.10858178 0.073924378 0.59200001 4278190592
-0.10745574 0.0739225 0.59200001 4278255623
-0.10615013 0.073795766 0.59100002 4278716174
-0.10502609 0.073793918 0.59100002 4284495872
-0.10372628 0.073667213 0.58999997 4285350912
-0.10243035 0.073540546 0.58899999 4289174346
-0.10113826 0.073413879 0.588 4289305933
-0.10002013 0.073412091 0.588 4286809018
-0.098733857 0.07328546 0.58700001 4286216880
-0.097617723 0.073283695 0.58700001 4283914073
-0.096501663 0.073281944 0.58700001 4282006076
-0.095385656 0.0732802 0.58700001 4281609781
-0.094269671 0.073278464 0.58700001 4278190080
-0.093153775 0.073276758 0.58700001 4285094740
-0.092194706 0.073399894 0.588 4294967295
-0.09154167 0.073772684 0.59100002 4294967295
-0.090418309 0.073771 0.59100002 4294967292
-0.089295007 0.073769338 0.59100002 4294967295
-0.08817175 0.073767684 0.59100002 4294967295
-0.087048545 0.073766045 0.59100002 4294967295
-0.086070769 0.073889233 0.59200001 4294967295
-0.084945776 0.073887624 0.59200001 4294967295
-0.08382082 0.073886029 0.59200001 4294967295
-0.082695916 0.073884442 0.59200001 4294967295
-0.081571057 0.073882885 0.59200001 4294967295
-0.077592582 0.071260542 0.57099998 4294967295
-0.073510028 0.071504302 0.57300001 4294704377
-0.072421551 0.071502887 0.57300001 4294901500
-0.07133314 0.071501486 0.57300001 4294967295
-0.058072139 0.071236484 0.57099998 4293517289
-0.056988072 0.071235299 0.57099998 4292135636
-0.055904042 0.071234144 0.57099998 4287990468
-0.054820068 0.071233012 0.57099998 4287332282
-0.053642023 0.071107149 0.56999999 4284112229
-0.052560009 0.071106054 0.56999999 4280033063
-0.051568352 0.071229719 0.57099998 4278192140
-0.050484516 0.071228653 0.57099998 4278190080
-0.049487248 0.07135237 0.57200003 4278190080
-0.048401583 0.071351334 0.57200003 4278190080
-0.047315966 0.071350336 0.57200003 4285618793
-0.046230379 0.071349345 0.57200003 4294965759
-0.045144834 0.071348391 0.57200003 4294967295
-0.044059318 0.071347445 0.57200003 4294966778
-0.042973835 0.071346514 0.57200003 4294966778
-0.041961607 0.071470335 0.57300001 4294967295
-0.040802956 0.071344726 0.57200003 4294967295
-0.039648116 0.071219124 0.57099998 4292270034
-0.03856466 0.071218282 0.57099998 4289506478
-0.037481226 0.071217455 0.57099998 4278190080
-0.036397826 0.07121665 0.57099998 4278650381
-0.035314452 0.071215868 0.57099998 4279768862
-0.034111213 0.07096567 0.56900001 4280620048
-0.033031683 0.07096491 0.56900001 4288120450
-0.031952184 0.070964202 0.56900001 4289568691
-0.030818457 0.070838787 0.56800002 4294967295
-0.029740904 0.070838101 0.56800002 4294967295
-0.028663382 0.070837453 0.56800002 4294967295
-0.027585877 0.070836812 0.56800002 4294967295
-0.026461724 0.070711479 0.56699997 4290033334
-0.025386162 0.070710875 0.56699997 4288590237
-0.024310624 0.070710301 0.56699997 4289050788
-0.023194125 0.070585042 0.56599998 4292663745
-0.022120524 0.070584513 0.56599998 4293256138
-0.021009751 0.070459291 0.565 4292136134
-0.019938083 0.0704588 0.565 4281280289
-0.01889983 0.070583031 0.56599998 4279435264
-0.017826298 0.070582591 0.56599998 4278976512
-0.016782383 0.070706867 0.56699997 4280622336
-0.015679289 0.070581764 0.56599998 4279701248
-0.014605806 0.070581377 0.56599998 4288120139
-0.013508428 0.070456304 0.565 4291870340
-0.012436869 0.070455976 0.565 4290620859
-0.011365321 0.070455655 0.565 4289107620
-0.010257351 0.070205957 0.56300002 4285163677
-0.0091896178 0.070205681 0.56300002 4283847817
-0.0081218993 0.07020542 0.56300002 4281872702
-0.0070541883 0.070205189 0.56300002 4280293927
-0.0059439535 0.069706179 0.55900002 4280492333
-0.0048751077 0.069581285 0.55800003 4280097575
-0.003816904 0.069581114 0.55800003 4280355089
-0.0027587067 0.06958098 0.55800003 4284960599
-0.0017005141 0.069580846 0.55800003 4289302419
-0.00064232695 0.069580741 0.55800003 4294964215
0.00041585593 0.069580644 0.55800003 4294966263
0.0014740354 0.069580585 0.55800003 4294833649
0.0025322123 0.069580548 0.55800003 4294637049
0.0035903868 0.069580525 0.55800003 4294768635
0.0046568918 0.069705218 0.55900002 4294835707
0.0057169609 0.06970524 0.55900002 4292138194
0.0067649065 0.069580585 0.55800003 4288062124
0.0078090606 0.069455951 0.55699998 4278190860
0.0088653397 0.069456026 0.55699998 4278192384
0.0099038109 0.069331437 0.55599999 4279969562
0.010958198 0.069331564 0.55599999 4280685338
0.011969381 0.06908232 0.55400002 4283777608
0.013019987 0.069082484 0.55400002 4290026326
0.014070597 0.06908267 0.55400002 4291605102
0.015066621 0.068833478 0.55199999 4289305252
0.016113453 0.068833709 0.55199999 4287002497
0.017129203 0.068709254 0.551 4283521125
0.018174151 0.068709522 0.551 4280297269
0.01925399 0.068834506 0.55199999 4278190080
0.020300852 0.068834819 0.55199999 4278190080
0.021347733 0.068835154 0.55199999 4278190080
0.022394618 0.068835497 0.55199999 4278190080
0.023441516 0.068835869 0.55199999 4278785792
0.026485976 0.068587698 0.55000001 4284507698
0.027529135 0.068588153 0.55000001 4287467885
0.028572308 0.068588614 0.55000001 4288915332
0.029453957 0.068214983 0.54699999 4290950563
0.030491475 0.068215489 0.54699999 4292200629
-0.13196483 0.07622873 0.60100001 4294967295
-0.13082066 0.076226637 0.60100001 4290624955
-0.12924503 0.075970896 0.59899998 4288059280
-0.12810475 0.075968832 0.59899998 4280690720
-0.12696454 0.075966783 0.59899998 4281149482
-0.12519424 0.07558427 0.59600002 4282596928
-0.12405983 0.075582229 0.59600002 4282597434
-0.12271924 0.075453393 0.59500003 4282663227
-0.12158684 0.075451367 0.59500003 4282663227
-0.12025205 0.075322554 0.59399998 4281873454
-0.11912166 0.075320564 0.59399998 4281739045
-0.11779268 0.075191751 0.59299999 4285423197
-0.1166643 0.075189792 0.59299999 4290554017
-0.11553597 0.075187825 0.59299999 4294967295
-0.11421477 0.075059071 0.59200001 4294967295
-0.1127064 0.074803554 0.58999997 4294967295
-0.11158392 0.074801631 0.58999997 4294705151
-0.1104615 0.074799709 0.58999997 4284244321
-0.10933914 0.074797802 0.58999997 4278190080
