# .PCD v0.7 - Point Cloud Data file format
VERSION 0.7
FIELDS x y z rgba
SIZE 4 4 4 4
TYPE F F F U
COUNT 1 1 1 1
WIDTH 1026
HEIGHT 1
VIEWPOINT 0 0 0 1 0 0 0
POINTS 1026
DATA ascii
-0.050350431 -0.029842369 0.55800003 4292794584
-0.049292106 -0.029842211 0.55800003 4292794584
-0.04840669 -0.029949013 0.56 4292925652
-0.047344655 -0.029948859 0.56 4293386203
-0.046447948 -0.030055668 0.56199998 4292925650
-0.045462932 -0.030108999 0.56300002 4292859856
-0.044474166 -0.030162329 0.56400001 4292729040
-0.043481652 -0.030215662 0.565 4292597198
-0.042410303 -0.030215517 0.565 4292662741
-0.041338995 -0.030215375 0.565 4292596948
-0.040267721 -0.030215234 0.565 4292531655
-0.03919648 -0.030215094 0.565 4292663497
-0.038192749 -0.030268438 0.56599998 4292334031
-0.037185259 -0.030321782 0.56699997 4292268238
-0.031223955 -0.030802317 0.57599998 4292728270
-0.030132126 -0.030802198 0.57599998 4292858823
-0.029040325 -0.030802082 0.57599998 4292924616
-0.027948555 -0.030801971 0.57599998 4292990670
-0.026856801 -0.030801861 0.57599998 4293056720
-0.025765078 -0.030801751 0.57599998 4292662991
-0.024673376 -0.030801646 0.57599998 4292531405
-0.14940932 -0.029725417 0.57599998 4292664027
-0.14805473 -0.029673813 0.57499999 4292399303
-0.14695962 -0.029673811 0.57499999 4292531146
-0.14535713 -0.029570585 0.57300001 4292529870
-0.14376235 -0.029467354 0.57099998 4292529870
-0.14242509 -0.029415729 0.56999999 4292070091
-0.14059575 -0.029260881 0.56699997 4292727764
-0.13927001 -0.029209241 0.56599998 4292466384
-0.13794813 -0.029157598 0.565 4292466384
-0.13687234 -0.029157553 0.565 4292530894
-0.13579661 -0.029157504 0.565 4292596687
-0.13376714 -0.02895103 0.56099999 4292728018
-0.1326991 -0.028950969 0.56099999 4293254362
-0.13163112 -0.028950907 0.56099999 4292466384
-0.13056321 -0.028950842 0.56099999 4292400591
-0.12949532 -0.028950769 0.56099999 4292334544
-0.12819858 -0.028899089 0.56 4292466130
-0.12690568 -0.0288474 0.55900002 4292268235
-0.12539153 -0.028744107 0.55699998 4292268235
-0.12433144 -0.028744016 0.55699998 4292268751
-0.12305015 -0.028692322 0.55599999 4292334544
-0.12177268 -0.02864062 0.55500001 4292465108
-0.12049907 -0.028588917 0.55400002 4292267986
-0.11922933 -0.028537212 0.55299997 4292268238
-0.11817712 -0.028537098 0.55299997 4292662995
-0.11691319 -0.028485393 0.55199999 4292663504
-0.11586302 -0.028485278 0.55199999 4292597711
-0.1148129 -0.028485166 0.55199999 4292268238
-0.11355674 -0.028433442 0.551 4292597202
-0.11230442 -0.028381716 0.55000001 4292728018
-0.11125826 -0.028381595 0.55000001 4292728018
-0.11021216 -0.028381471 0.55000001 4292531153
-0.10876912 -0.028278129 0.54799998 4292597202
-0.10772692 -0.028278001 0.54799998 4292005063
-0.10649011 -0.028226264 0.54699999 4292465614
-0.10544991 -0.028226128 0.54699999 4292728018
-0.10460068 -0.028277595 0.54799998 4292596689
-0.10355869 -0.028277451 0.54799998 4292727503
-0.10251677 -0.028277311 0.54799998 4292595917
-0.1014749 -0.028277164 0.54799998 4292595663
-0.10043309 -0.028277021 0.54799998 4292859091
-0.099391334 -0.028276872 0.54799998 4292859343
-0.098529115 -0.028328331 0.54900002 4292793550
-0.097307988 -0.028276574 0.54799998 4292793298
-0.096266396 -0.028276419 0.54799998 4292727505
-0.095224835 -0.028276265 0.54799998 4292596169
-0.0940115 -0.028224513 0.54699999 4292661962
-0.092802003 -0.028172759 0.546 4292728016
-0.091764428 -0.028172603 0.546 4292859602
-0.090726912 -0.028172446 0.546 4292401102
-0.089689441 -0.028172288 0.546 4292401102
-0.088814378 -0.028223721 0.54699999 4292203476
-0.087775134 -0.028223563 0.54699999 4292203476
-0.08689449 -0.028274992 0.54799998 4292268489
-0.085696772 -0.028223237 0.54699999 4292597198
-0.084657684 -0.028223073 0.54699999 4292597200
-0.083618641 -0.028222913 0.54699999 4292531407
-0.082579635 -0.028222747 0.54699999 4292596687
-0.081689775 -0.028274179 0.54799998 4292859602
-0.080648981 -0.028274013 0.54799998 4292661962
-0.079462968 -0.028222255 0.54699999 4292727755
-0.0784242 -0.028222091 0.54699999 4292661708
-0.077385463 -0.028221926 0.54699999 4292990672
-0.076486349 -0.028273351 0.54799998 4292530642
-0.075445823 -0.028273188 0.54799998 4292596435
-0.074405342 -0.028273027 0.54799998 4292727755
-0.073364906 -0.028272862 0.54799998 4292793548
-0.072324522 -0.028272696 0.54799998 4292597198
-0.071284197 -0.028272528 0.54799998 4292597198
-0.070372105 -0.028323961 0.54900002 4292662993
-0.069329977 -0.028323801 0.54900002 4292597200
-0.068287902 -0.028323637 0.54900002 4292465614
-0.067245871 -0.028323477 0.54900002 4292597200
-0.066445053 -0.028426493 0.551 4292728270
-0.065636709 -0.028529514 0.55299997 4292530892
-0.064587228 -0.028529352 0.55299997 4292595917
-0.063537784 -0.028529191 0.55299997 4292661710
-0.062488392 -0.028529031 0.55299997 4292398540
-0.061550155 -0.028580466 0.55400002 4292529870
-0.060498964 -0.02858031 0.55400002 4292859091
-0.05944781 -0.028580153 0.55400002 4293056214
-0.058396697 -0.028579999 0.55400002 4292597202
-0.057345629 -0.028579842 0.55400002 4292662995
-0.056294613 -0.028579693 0.55400002 4292728016
-0.055343345 -0.028631123 0.55500001 4292793809
-0.054290514 -0.028630977 0.55500001 4292729040
-0.053237721 -0.028630825 0.55500001 4292597198
-0.052278988 -0.028682264 0.55599999 4292531153
-0.051316503 -0.028733702 0.55699998 4292597202
-0.050350279 -0.028785147 0.55800003 4292334031
-0.049291953 -0.028785001 0.55800003 4292728788
-0.048406549 -0.028888032 0.56 4292794580
-0.047344513 -0.028887892 0.56 4293057751
-0.046447799 -0.028990922 0.56199998 4292925650
-0.045462791 -0.029042369 0.56300002 4292925650
-0.044474028 -0.029093819 0.56400001 4292793809
-0.043481506 -0.029145267 0.565 4292596687
-0.042410169 -0.029145133 0.565 4292793298
-0.041338861 -0.029145002 0.565 4292595663
-0.04026759 -0.029144874 0.565 4292530373
-0.03919635 -0.029144749 0.565 4292793546
-0.031223834 -0.029711206 0.57599998 4292727757
-0.030132014 -0.029711097 0.57599998 4292332999
-0.029040217 -0.029710993 0.57599998 4292727757
-0.027948443 -0.029710883 0.57599998 4292596687
-0.026856696 -0.029710783 0.57599998 4292530894
-0.025764974 -0.029710682 0.57599998 4292465612
-0.024673276 -0.029710585 0.57599998 4292465612
-0.14940932 -0.028632281 0.57599998 4292794843
-0.14805473 -0.028582599 0.57499999 4292795086
-0.1469596 -0.028582618 0.57499999 4292992208
-0.14586449 -0.028582631 0.57499999 4292596689
-0.14451769 -0.028532932 0.574 4292530640
-0.14267495 -0.028383804 0.57099998 4292464595
-0.14109166 -0.028284382 0.56900001 4292991195
-0.14000818 -0.028284376 0.56900001 4292729040
-0.1401455 -0.028532904 0.574 4292729040
-0.13905257 -0.028532883 0.574 4292464847
-0.13483517 -0.02788664 0.56099999 4292333260
-0.13376708 -0.027886609 0.56099999 4292596689
-0.13269906 -0.027886575 0.56099999 4293254362
-0.13163108 -0.027886536 0.56099999 4292729040
-0.13079588 -0.027936198 0.56199998 4292794834
-0.1297261 -0.027936148 0.56199998 4292465360
-0.12842745 -0.027886389 0.56099999 4292531153
-0.12713264 -0.027836623 0.56 4292268235
-0.12584171 -0.027786853 0.55900002 4292334029
-0.1245546 -0.027737079 0.55800003 4292268751
-0.12349269 -0.02773701 0.55800003 4292334544
-0.12199199 -0.027637521 0.55599999 4292596183
-0.1207165 -0.027587736 0.55500001 4292333010
-0.11944483 -0.027537946 0.55400002 4292202192
-0.11817704 -0.027488155 0.55299997 4292662743
-0.11712487 -0.027488066 0.55299997 4292663245
-0.1158629 -0.02743827 0.55199999 4292597452
-0.11481276 -0.027438175 0.55199999 4292399305
-0.11355662 -0.027388375 0.551 4292596685
-0.11230431 -0.02733857 0.55000001 4292793296
-0.11125815 -0.027338469 0.55000001 4292793296
-0.11021202 -0.027338361 0.55000001 4292597200
-0.108769 -0.02723884 0.54799998 4292926165
-0.1077268 -0.02723873 0.54799998 4292268235
-0.10648999 -0.027188918 0.54699999 4292465614
-0.1054498 -0.027188802 0.54699999 4292728016
-0.10460055 -0.027238391 0.54799998 4292793809
-0.10355858 -0.027238272 0.54799998 4292530640
-0.10270372 -0.027287858 0.54900002 4292530640
-0.10165995 -0.027287735 0.54900002 4292530640
-0.10061623 -0.027287606 0.54900002 4292728018
-0.099572584 -0.027287483 0.54900002 4292661708
-0.098528951 -0.027287347 0.54900002 4292661708
-0.097485408 -0.027287219 0.54900002 4292596437
-0.096441925 -0.027287088 0.54900002 4292925146
-0.095224716 -0.027237255 0.54799998 4292530371
-0.094183214 -0.027237117 0.54799998 4292596165
-0.092801847 -0.027137578 0.546 4292793296
-0.091764286 -0.027137443 0.546 4293122261
-0.09072677 -0.027137304 0.546 4292729038
-0.089689299 -0.027137162 0.546 4292729038
-0.088814236 -0.02718672 0.54699999 4292400339
-0.087935455 -0.027236285 0.54799998 4292334546
-0.086894341 -0.027236139 0.54799998 4292465360
-0.085853286 -0.027235996 0.54799998 4292597202
-0.08465752 -0.02718615 0.54699999 4292597200
-0.083618477 -0.02718601 0.54699999 4292465614
-0.082579486 -0.027185863 0.54699999 4292596689
-0.081689611 -0.027235419 0.54799998 4293188569
-0.080648825 -0.027235271 0.54799998 4292727242
-0.079462811 -0.027185427 0.54699999 4292595655
-0.078424044 -0.027185282 0.54699999 4292530892
-0.077385314 -0.027185136 0.54699999 4292925650
-0.0764862 -0.027234687 0.54799998 4292464847
-0.075445659 -0.027234539 0.54799998 4292399054
-0.074405186 -0.027234392 0.54799998 4292334031
-0.07336475 -0.027234243 0.54799998 4292597202
-0.07232438 -0.027234096 0.54799998 4292531405
-0.071284048 -0.027233949 0.54799998 4292597198
-0.070371956 -0.027283505 0.54900002 4292597198
-0.069329828 -0.027283357 0.54900002 4292334283
-0.068287738 -0.02728321 0.54900002 4292530892
-0.067245714 -0.027283065 0.54900002 4292596685
-0.066444904 -0.02738231 0.551 4292595915
-0.065517858 -0.027431859 0.55199999 4292398792
-0.064587072 -0.027481411 0.55299997 4292399054
-0.063537635 -0.027481267 0.55299997 4292530640
-0.062488247 -0.027481124 0.55299997 4292398542
-0.061550006 -0.027530674 0.55400002 4292529872
-0.060498804 -0.027530532 0.55400002 4292597202
-0.059340339 -0.027480694 0.55299997 4292794582
-0.05829113 -0.027480554 0.55299997 4292466134
-0.057241969 -0.027480414 0.55299997 4292729050
-0.056294464 -0.027529974 0.55400002 4292729040
-0.055343203 -0.027579531 0.55500001 4292662991
-0.054290365 -0.027579391 0.55500001 4292662991
-0.05323758 -0.027579259 0.55500001 4292662991
-0.052372873 -0.027678506 0.55699998 4292597202
-0.051316369 -0.027678372 0.55699998 4292531153
-0.050350145 -0.027727937 0.55800003 4292662993
-0.049291808 -0.027727801 0.55800003 4292794580
-0.048233531 -0.027727675 0.55800003 4292925652
-0.047598001 -0.027975999 0.56300002 4293254360
-0.04653031 -0.02797587 0.56300002 4292925648
-0.045543406 -0.028025433 0.56400001 4292925648
-0.044473901 -0.028025312 0.56400001 4292794834
-0.04348138 -0.028074879 0.565 4292531405
-0.042410046 -0.02807476 0.565 4292530894
-0.041338734 -0.028074637 0.565 4292267465
-0.040267467 -0.02807452 0.565 4292202440
-0.039196227 -0.0280744 0.565 4292597198
-0.031386357 -0.028769169 0.579 4292727757
-0.030236538 -0.028719382 0.57800001 4292398540
-0.029040113 -0.028619904 0.57599998 4292661712
-0.027948346 -0.028619809 0.57599998 4292334031
-0.026856601 -0.028619716 0.57599998 4292268238
-0.025764881 -0.028619625 0.57599998 4292268235
-0.1474708 -0.027587052 0.57700002 4292795347
-0.1458645 -0.027491465 0.57499999 4292531155
-0.14476947 -0.027491499 0.57499999 4292596948
-0.14267495 -0.027300274 0.57099998 4292464849
-0.14133963 -0.027252482 0.56999999 4292925400
-0.14025423 -0.027252497 0.56999999 4292400591
-0.14014548 -0.02744375 0.574 4292466384
-0.13905255 -0.027443748 0.574 4292399051
-0.13531585 -0.026917825 0.56300002 4292530894
-0.13424395 -0.026917817 0.56300002 4292859602
-0.13317211 -0.026917804 0.56300002 4292859602
-0.13210034 -0.026917787 0.56300002 4292202958
-0.13079585 -0.026869953 0.56199998 4292597715
-0.12972607 -0.026869927 0.56199998 4292465360
-0.12819847 -0.026774276 0.56 4292531153
-0.12713259 -0.026774241 0.56 4292530894
-0.12584165 -0.026726387 0.55900002 4292530894
-0.12477776 -0.026726345 0.55900002 4292597202
-0.12349264 -0.026678488 0.55800003 4292465360
-0.12221134 -0.026630627 0.55699998 4292661460
-0.12071643 -0.026534948 0.55500001 4292595667
-0.11879796 -0.026343651 0.551 4292332747
-0.11753586 -0.026295779 0.55000001 4292661712
-0.11648942 -0.026295714 0.55000001 4292334283
-0.11544303 -0.026295643 0.55000001 4292531405
-0.1148127 -0.026391195 0.55199999 4292530894
-0.11355653 -0.026343312 0.551 4292596687
-0.11250841 -0.026343234 0.551 4292726990
-0.11146034 -0.026343156 0.551 4292990161
-0.11041231 -0.026343068 0.551 4292728016
-0.10916588 -0.026295174 0.55000001 4292399051
-0.10772671 -0.026199466 0.54799998 4292268235
-0.10668457 -0.026199378 0.54799998 4292465614
-0.10564247 -0.026199285 0.54799998 4292530894
-0.10479133 -0.026247 0.54900002 4292465101
-0.10374743 -0.026246902 0.54900002 4292268235
-0.10270361 -0.026246801 0.54900002 4292465614
-0.10165983 -0.0262467 0.54900002 4292531407
-0.10061611 -0.026246594 0.54900002 4292531407
-0.099572457 -0.02624649 0.54900002 4292530892
-0.098528847 -0.02624638 0.54900002 4292465099
-0.097485289 -0.026246272 0.54900002 4292464849
-0.096441805 -0.02624616 0.54900002 4292727764
-0.095398352 -0.026246047 0.54900002 4292530892
-0.094183087 -0.026198125 0.54799998 4292530892
-0.092801727 -0.026102399 0.546 4292661195
-0.091764145 -0.026102278 0.546 4293055952
-0.090892799 -0.026149968 0.54699999 4292793546
-0.089853428 -0.026149848 0.54699999 4292793546
-0.088976473 -0.026197532 0.54799998 4292334031
-0.087935306 -0.026197411 0.54799998 4292334031
-0.086894207 -0.026197288 0.54799998 4292531407
-0.085853152 -0.026197163 0.54799998 4292531407
-0.084812149 -0.026197039 0.54799998 4292531405
-0.08361835 -0.026149109 0.54699999 4292465612
-0.082579345 -0.026148982 0.54699999 4292464847
-0.08168947 -0.02619666 0.54799998 4293057240
-0.08064869 -0.026196532 0.54799998 4292465097
-0.079607956 -0.026196405 0.54799998 4292531146
-0.078567274 -0.026196277 0.54799998 4292530892
-0.077526644 -0.02619615 0.54799998 4292728270
-0.076486051 -0.02619602 0.54799998 4292334031
-0.07544554 -0.026195895 0.54799998 4292334031
-0.074405059 -0.026195763 0.54799998 4292268489
-0.073364623 -0.026195632 0.54799998 4292531405
-0.072324239 -0.026195504 0.54799998 4292531405
-0.071283899 -0.026195373 0.54799998 4292597198
-0.070371822 -0.026243048 0.54900002 4292531405
-0.069329694 -0.026242921 0.54900002 4292268489
-0.068287611 -0.026242789 0.54900002 4292529870
-0.06724558 -0.02624266 0.54900002 4292595663
-0.066565357 -0.026385933 0.55199999 4292595915
-0.065517716 -0.026385799 0.55199999 4292530121
-0.06458693 -0.026433472 0.55299997 4292136649
-0.063537501 -0.026433343 0.55299997 4292202442
-0.062488109 -0.026433218 0.55299997 4292333512
-0.061438769 -0.02643309 0.55299997 4292465099
-0.060389467 -0.026432961 0.55299997 4292728016
-0.059340209 -0.026432836 0.55299997 4292530894
-0.058291007 -0.026432713 0.55299997 4292072142
-0.057241827 -0.026432581 0.55299997 4292466643
-0.056192715 -0.026432462 0.55299997 4292795347
-0.055343073 -0.026527939 0.55500001 4292729554
-0.054290231 -0.026527815 0.55500001 4292859856
-0.053333372 -0.026575491 0.55599999 4292991443
-0.05237275 -0.026623167 0.55699998 4292859091
-0.05140838 -0.026670847 0.55800003 4292793298
-0.050350014 -0.026670726 0.55800003 4292793809
-0.049380034 -0.026718406 0.55900002 4292596687
-0.048319854 -0.026718289 0.55900002 4292661708
-0.047597881 -0.026909357 0.56300002 4292859343
-0.046530191 -0.026909241 0.56300002 4292595915
-0.045543287 -0.026956923 0.56400001 4292793550
-0.044473786 -0.026956812 0.56400001 4293188817
-0.0434043 -0.0269567 0.56400001 4292860108
-0.042409934 -0.027004391 0.565 4292531405
-0.041338626 -0.027004279 0.565 4292268489
-0.040267356 -0.027004169 0.565 4292202694
-0.039196119 -0.027004067 0.565 4292531659
-0.031386256 -0.02767239 0.579 4292924618
-0.030236438 -0.027624507 0.57800001 4292267719
-0.029140858 -0.027624413 0.57800001 4292136134
-0.02799678 -0.027576534 0.57700002 4292202444
-0.026903141 -0.027576448 0.57700002 4292268238
-0.025898982 -0.027671944 0.579 4292268489
-0.14586453 -0.026400296 0.57499999 4292597202
-0.14476949 -0.02640035 0.57499999 4292728788
-0.1434246 -0.026354486 0.574 4292662995
-0.14233151 -0.026354525 0.574 4293057753
-0.14123848 -0.026354562 0.574 4292794834
-0.14014551 -0.026354598 0.574 4292926163
-0.13905257 -0.026354622 0.574 4292859856
-0.13531585 -0.025849586 0.56300002 4292859856
-0.13424397 -0.025849603 0.56300002 4292859602
-0.13317212 -0.025849616 0.56300002 4292859602
-0.13186567 -0.025803704 0.56199998 4292597461
-0.13079584 -0.025803706 0.56199998 4292860890
-0.12972604 -0.025803702 0.56199998 4292795093
-0.12819844 -0.025711866 0.56 4292597713
-0.12713256 -0.025711855 0.56 4292465362
-0.12584162 -0.025665924 0.55900002 4292465362
-0.12477773 -0.025665905 0.55900002 4292597711
-0.1234926 -0.025619969 0.55800003 4292597711
-0.12221129 -0.025574023 0.55699998 4292597200
-0.12071638 -0.025482167 0.55500001 4292728786
-0.1187979 -0.025298472 0.551 4292465360
-0.11753581 -0.025252521 0.55000001 4292662995
-0.11648939 -0.025252484 0.55000001 4292466382
-0.11544298 -0.025252433 0.55000001 4292597711
-0.11502062 -0.025390122 0.55299997 4292465360
-0.11355646 -0.025298247 0.551 4292465360
-0.11250833 -0.025298191 0.551 4292596689
-0.11166255 -0.02534405 0.55199999 4292925398
-0.11061262 -0.025343983 0.55199999 4292530640
-0.10916581 -0.025252098 0.55000001 4292333260
-0.10811979 -0.025252029 0.55000001 4292268238
-0.10687917 -0.02520605 0.54900002 4292465360
-0.10583517 -0.025205975 0.54900002 4292530894
-0.10479124 -0.025205905 0.54900002 4292399051
-0.10374735 -0.025205826 0.54900002 4292333260
-0.10289058 -0.025251659 0.55000001 4292530640
-0.10184492 -0.02525158 0.55000001 4292531405
-0.10079929 -0.025251497 0.55000001 4292531405
-0.099753723 -0.025251411 0.55000001 4292596685
-0.098528758 -0.025205413 0.54900002 4292728270
-0.0974852 -0.025205323 0.54900002 4292334033
-0.096441686 -0.025205232 0.54900002 4292531155
-0.095398255 -0.025205141 0.54900002 4292531153
-0.094182983 -0.025159135 0.54799998 4292334031
-0.092971593 -0.02511313 0.54699999 4292529870
-0.09193211 -0.025113035 0.54699999 4292859091
-0.090892687 -0.025112936 0.54699999 4292793798
-0.089853317 -0.025112836 0.54699999 4292793798
-0.088976361 -0.025158642 0.54799998 4292530892
-0.087935202 -0.025158543 0.54799998 4292530892
-0.086894087 -0.025158441 0.54799998 4292465614
-0.08585304 -0.025158335 0.54799998 4292531407
-0.08481203 -0.025158226 0.54799998 4292597198
-0.08377108 -0.025158122 0.54799998 4292465612
-0.082730196 -0.025158014 0.54799998 4292596437
-0.08168935 -0.025157908 0.54799998 4293254110
-0.080648571 -0.025157798 0.54799998 4292597452
-0.079607837 -0.02515769 0.54799998 4292597452
-0.078567147 -0.025157582 0.54799998 4292597452
-0.077526517 -0.02515747 0.54799998 4292531659
-0.076485939 -0.025157358 0.54799998 4292334031
-0.075583085 -0.025203157 0.54900002 4292334031
-0.074404933 -0.025157139 0.54799998 4292334029
-0.073364504 -0.025157023 0.54799998 4292531407
-0.072324112 -0.025156913 0.54799998 4292597198
-0.071413867 -0.025202708 0.54900002 4292926163
-0.070371695 -0.025202595 0.54900002 4292596685
-0.069329575 -0.025202487 0.54900002 4292399305
-0.068287492 -0.025202375 0.54900002 4292529870
-0.067245454 -0.025202258 0.54900002 4292529870
-0.066685818 -0.025385767 0.55299997 4292530123
-0.065636292 -0.025385654 0.55299997 4293056468
-0.064586811 -0.025385538 0.55299997 4292334283
-0.063537382 -0.02538543 0.55299997 4292268489
-0.062487986 -0.025385315 0.55299997 4292465349
-0.06143865 -0.025385205 0.55299997 4292925900
-0.060389344 -0.025385089 0.55299997 4292794061
-0.05934009 -0.025384981 0.55299997 4292531146
-0.058290884 -0.025384871 0.55299997 4292465614
-0.057241719 -0.02538476 0.55299997 4292728786
-0.056192596 -0.025384651 0.55299997 4292926415
-0.055342957 -0.025476353 0.55500001 4292992208
-0.054290123 -0.025476241 0.55500001 4292794063
-0.053333253 -0.025522035 0.55599999 4292794063
-0.052278608 -0.02552193 0.55599999 4292728018
-0.051316131 -0.025567725 0.55699998 4292728018
-0.050259672 -0.025567619 0.55699998 4292728016
-0.049379915 -0.025659323 0.55900002 4292596687
-0.048406176 -0.025705121 0.56 4292728016
-0.047597777 -0.025842724 0.56300002 4292793809
-0.046530083 -0.025842616 0.56300002 4292530892
-0.045543183 -0.025888419 0.56400001 4292465099
-0.044473678 -0.02588832 0.56400001 4292728516
-0.043404199 -0.025888219 0.56400001 4292926152
-0.042409822 -0.025934024 0.565 4292597198
-0.041338518 -0.025933925 0.565 4292597198
-0.040267259 -0.025933828 0.565 4292597450
-0.039196022 -0.025933735 0.565 4292597450
-0.03340726 -0.026438089 0.57599998 4292334031
-0.032315388 -0.026438003 0.57599998 4292662212
-0.031223543 -0.02643792 0.57599998 4292793798
-0.030288665 -0.026575534 0.579 4292530892
-0.02919119 -0.026575454 0.579 4292333512
-0.028093735 -0.026575372 0.579 4292465360
-0.026996311 -0.026575295 0.579 4292991704
-0.025898909 -0.026575219 0.579 4292860106
-0.14637202 -0.025397157 0.57700002 4292596687
-0.14476953 -0.025309198 0.57499999 4292728016
-0.14342465 -0.025265256 0.574 4292465614
-0.14233157 -0.025265321 0.574 4292662993
-0.14123854 -0.025265383 0.574 4292531153
-0.14014556 -0.025265437 0.574 4292662995
-0.13905261 -0.025265485 0.574 4292859341
-0.13555625 -0.024825364 0.56400001 4292990670
-0.13448244 -0.024825403 0.56400001 4292793809
-0.13317214 -0.024781421 0.56300002 4292859602
-0.1318657 -0.024737431 0.56199998 4292597463
-0.13079585 -0.024737453 0.56199998 4292729050
-0.12972604 -0.024737472 0.56199998 4292664538
-0.12819846 -0.024649456 0.56 4292532952
-0.12713256 -0.024649471 0.56 4292136910
-0.1258416 -0.024605457 0.55900002 4292400339
-0.12477773 -0.02460546 0.55900002 4292663506
-0.12349258 -0.024561441 0.55800003 4292466384
-0.12221129 -0.024517419 0.55699998 4292137935
-0.12093385 -0.024473393 0.55599999 4292335057
-0.11966031 -0.024429366 0.55500001 4292202440
-0.11753578 -0.024209263 0.55000001 4292531405
-0.11648934 -0.024209248 0.55000001 4292137935
-0.11544294 -0.024209222 0.55000001 4292335057
-0.11522859 -0.024385262 0.55400002 4292465360
-0.11355642 -0.024253182 0.551 4292465360
-0.11250828 -0.024253147 0.551 4292530640
-0.11166251 -0.024297129 0.55199999 4292793811
-0.11061258 -0.02429709 0.55199999 4292465360
-0.10936423 -0.024253033 0.551 4292334031
-0.10831632 -0.024252988 0.551 4292465360
-0.10687911 -0.024164908 0.54900002 4292465360
-0.10583512 -0.024164861 0.54900002 4292531153
-0.10479117 -0.024164807 0.54900002 4292334031
-0.10393625 -0.024208767 0.55000001 4292266952
-0.10289051 -0.024208708 0.55000001 4292727503
-0.10184484 -0.02420865 0.55000001 4292728016
-0.10079923 -0.024208592 0.55000001 4292728016
-0.099753655 -0.024208523 0.55000001 4292531659
-0.098708145 -0.024208458 0.55000001 4292531659
-0.097485118 -0.024164377 0.54900002 4292202444
-0.096441619 -0.024164306 0.54900002 4292465360
-0.09539818 -0.024164237 0.54900002 4292530892
-0.094354779 -0.024164164 0.54900002 4292530892
-0.093141459 -0.02412007 0.54799998 4292070089
-0.092100076 -0.024119994 0.54799998 4292399054
-0.091058753 -0.024119915 0.54799998 4292530119
-0.09001749 -0.024119835 0.54799998 4292596169
-0.088976264 -0.024119757 0.54799998 4292727757
-0.087935105 -0.024119671 0.54799998 4292661708
-0.086893998 -0.024119591 0.54799998 4292334283
-0.085852951 -0.024119508 0.54799998 4292465612
-0.084811941 -0.02411942 0.54799998 4292597450
-0.08377099 -0.024119334 0.54799998 4292531657
-0.0827301 -0.024119247 0.54799998 4292334031
-0.081689268 -0.024119155 0.54799998 4292465360
-0.080648474 -0.024119066 0.54799998 4292334796
-0.07960774 -0.024118975 0.54799998 4292269003
-0.078567043 -0.024118884 0.54799998 4292335309
-0.077526413 -0.02411879 0.54799998 4292335309
-0.076625414 -0.024162713 0.54900002 4292334542
-0.075582989 -0.02416262 0.54900002 4292334542
-0.0745406 -0.024162527 0.54900002 4292334542
-0.073498271 -0.024162432 0.54900002 4292400591
-0.072455995 -0.024162339 0.54900002 4292531153
-0.071413778 -0.02416224 0.54900002 4292531153
-0.070371591 -0.024162145 0.54900002 4292465101
-0.069455743 -0.024206061 0.55000001 4292465101
-0.068411767 -0.024205964 0.55000001 4292397768
-0.067367844 -0.024205873 0.55000001 4292595403
-0.066685714 -0.024337802 0.55299997 4292398538
-0.065636195 -0.024337709 0.55299997 4292793296
-0.064703502 -0.024381621 0.55400002 4292268235
-0.063652165 -0.024381526 0.55400002 4292334029
-0.062600888 -0.024381429 0.55400002 4292531144
-0.061438542 -0.024337318 0.55299997 4292925902
-0.060389251 -0.024337225 0.55299997 4292990924
-0.059339989 -0.024337128 0.55299997 4292727753
-0.05829078 -0.024337033 0.55299997 4292596685
-0.057241615 -0.024336936 0.55299997 4292728270
-0.056192487 -0.024336845 0.55299997 4292334283
-0.055442568 -0.024468774 0.55599999 4292465612
-0.054387845 -0.024468683 0.55599999 4292334283
-0.053333152 -0.02446859 0.55599999 4292268489
-0.052278508 -0.024468495 0.55599999 4292202440
-0.05131603 -0.024512406 0.55699998 4292597198
-0.050259572 -0.024512317 0.55699998 4292793550
-0.049379826 -0.024600245 0.55900002 4293056466
-0.048406076 -0.024644155 0.56 4292794832
-0.047513135 -0.024732081 0.56199998 4292663245
-0.046529993 -0.024776002 0.56300002 4292530894
-0.04554309 -0.024819918 0.56400001 4292465101
-0.044473577 -0.024819829 0.56400001 4292268485
-0.04340411 -0.024819743 0.56400001 4292729036
-0.042409733 -0.024863662 0.565 4292335309
-0.041338436 -0.024863573 0.565 4292401102
-0.040267169 -0.024863491 0.565 4292597965
-0.03540564 -0.025215125 0.57300001 4292595401
-0.034319401 -0.02521505 0.57300001 4292070856
-0.033349182 -0.025302982 0.57499999 4292268235
-0.032259207 -0.025302904 0.57499999 4292334281
-0.031169258 -0.025302827 0.57499999 4292531659
-0.030079337 -0.025302751 0.57499999 4292531405
-0.028989444 -0.025302682 0.57499999 4292465612
-0.028239224 -0.025610641 0.58200002 4292465360
-0.02713611 -0.025610572 0.58200002 4292334031
-0.14637209 -0.024302188 0.57700002 4292859602
-0.14451787 -0.024175933 0.574 4293254360
-0.14317486 -0.024133908 0.57300001 4292991695
-0.14208367 -0.024133997 0.57300001 4292794059
-0.14123861 -0.024176201 0.574 4292662743
-0.14014561 -0.024176279 0.574 4292596950
-0.13905266 -0.024176352 0.574 4292596939
-0.13531594 -0.023713106 0.56300002 4292728268
-0.13424404 -0.02371317 0.56300002 4292597202
-0.1331722 -0.023713229 0.56300002 4292925911
-0.13210037 -0.02371328 0.56300002 4292729050
-0.13079587 -0.023671206 0.56199998 4292400085
-0.12972608 -0.023671247 0.56199998 4292597461
-0.12819847 -0.02358705 0.56 4292795097
-0.12713259 -0.023587085 0.56 4292466130
-0.12584162 -0.023544993 0.55900002 4292729302
-0.12477775 -0.023545019 0.55900002 4292466384
-0.12349259 -0.023502924 0.55800003 4292268749
-0.12221129 -0.023460818 0.55699998 4292334031
-0.12093385 -0.023418713 0.55599999 4292662995
-0.11966029 -0.023376601 0.55500001 4292466116
-0.11860429 -0.023376612 0.55500001 4292729288
-0.11797191 -0.023460848 0.55699998 4292662993
-0.11628252 -0.023334492 0.55400002 4292662993
-0.11522857 -0.023334486 0.55400002 4292465360
-0.11396857 -0.023292359 0.55299997 4292268238
-0.11291665 -0.023292348 0.55299997 4292531407
-0.11166246 -0.023250215 0.55199999 4292991958
-0.11061254 -0.023250198 0.55199999 4292465360
-0.1093642 -0.023208059 0.551 4292465360
-0.10831627 -0.023208035 0.551 4292334031
-0.10726843 -0.023208013 0.551 4292334031
-0.10602785 -0.023165865 0.55000001 4292596435
-0.104982 -0.023165833 0.55000001 4292925400
-0.1039362 -0.0231658 0.55000001 4292794063
-0.10289046 -0.023165762 0.55000001 4292728270
-0.1018448 -0.023165725 0.55000001 4292662991
-0.10079917 -0.023165686 0.55000001 4292597198
-0.099753603 -0.023165643 0.55000001 4292465862
-0.098708078 -0.023165599 0.55000001 4292531655
-0.097485051 -0.023123432 0.54900002 4292268238
-0.096441559 -0.023123385 0.54900002 4292268238
-0.095398106 -0.023123333 0.54900002 4292465099
-0.094354719 -0.023123281 0.54900002 4293057236
-0.093141407 -0.023081107 0.54799998 4292728270
-0.092100017 -0.023081047 0.54799998 4292333512
-0.091058694 -0.023080992 0.54799998 4292530123
-0.090017416 -0.023080934 0.54799998 4292530123
-0.088976197 -0.023080871 0.54799998 4292990922
-0.08793503 -0.023080807 0.54799998 4293122765
-0.086893924 -0.023080746 0.54799998 4292465099
-0.085852861 -0.023080681 0.54799998 4292070341
-0.084811866 -0.023080613 0.54799998 4292465603
-0.083770916 -0.023080548 0.54799998 4292597189
-0.082730018 -0.023080476 0.54799998 4292399305
-0.081689179 -0.023080407 0.54799998 4292399305
-0.080648392 -0.023080336 0.54799998 4292334283
-0.079607658 -0.023080265 0.54799998 4292268489
-0.078566961 -0.023080193 0.54799998 4292334283
-0.07766781 -0.023122236 0.54900002 4292729040
-0.076625332 -0.023122162 0.54900002 4292400850
-0.075582907 -0.023122089 0.54900002 4292203728
-0.074540518 -0.023122011 0.54900002 4292268751
-0.073498197 -0.023121934 0.54900002 4292334544
-0.07245592 -0.02312186 0.54900002 4292465108
-0.071413688 -0.023121782 0.54900002 4292531157
-0.070371509 -0.023121702 0.54900002 4292334031
-0.069455653 -0.023163738 0.55000001 4292334031
-0.068411671 -0.023163656 0.55000001 4292661712
-0.06736774 -0.023163578 0.55000001 4292727505
-0.066565037 -0.02324773 0.55199999 4292661710
-0.065636091 -0.023289764 0.55299997 4292793296
-0.06470342 -0.023331802 0.55400002 4292334031
-0.063652091 -0.02333172 0.55400002 4292531153
-0.062600806 -0.02333164 0.55400002 4292531659
-0.061549559 -0.02333156 0.55400002 4292663245
-0.060498368 -0.023331476 0.55400002 4292663243
-0.059447218 -0.0233314 0.55400002 4292729036
-0.058396112 -0.023331318 0.55400002 4292729290
-0.05734504 -0.023331236 0.55400002 4292926413
-0.056395642 -0.02337327 0.55500001 4292531405
-0.055442486 -0.023415305 0.55599999 4292465612
-0.054387748 -0.023415219 0.55599999 4292334029
-0.053428993 -0.023457257 0.55699998 4292334029
-0.052466482 -0.023499291 0.55800003 4292465610
-0.051500209 -0.023541326 0.55900002 4292531659
-0.050530188 -0.023583358 0.56 4292793548
-0.04946807 -0.02358328 0.56 4292859341
-0.048405997 -0.0235832 0.56 4292794059
-0.047428504 -0.023625238 0.56099999 4292794059
-0.035343781 -0.024087584 0.57200003 4292530894
-0.034259435 -0.024087511 0.57200003 4292465612
-0.033233114 -0.024129556 0.57300001 4292531405
-0.03220303 -0.024171595 0.574 4292465612
-0.031114982 -0.024171533 0.574 4292465612
-0.030079272 -0.024213582 0.57499999 4292530892
-0.02898938 -0.024213513 0.57499999 4292530892
-0.028239161 -0.024508227 0.58200002 4292334029
-0.027136045 -0.024508161 0.58200002 4292202442
-0.026077688 -0.024550209 0.583 4292399305
-0.14451799 -0.023086678 0.574 4293188054
-0.14317496 -0.023046575 0.57300001 4293057236
-0.14208378 -0.023046684 0.57300001 4292925650
-0.14099263 -0.023046793 0.57300001 4292662741
-0.140634 -0.02316756 0.57599998 4292662741
-0.13638799 -0.022644777 0.56300002 4292794063
-0.13531603 -0.02264487 0.56300002 4292794063
-0.1342441 -0.022644954 0.56300002 4292530894
-0.13317224 -0.022645034 0.56300002 4292859602
-0.13210045 -0.022645108 0.56300002 4292794584
-0.13079594 -0.022604955 0.56199998 4292662741
-0.12972611 -0.022605021 0.56199998 4292662995
-0.12842745 -0.02256486 0.56099999 4292728788
-0.12713264 -0.022524696 0.56 4292597202
-0.12606677 -0.02252475 0.56 4292728788
-0.12477777 -0.022484578 0.55900002 4292268749
-0.12349262 -0.022444397 0.55800003 4292268749
-0.12243073 -0.022444436 0.55800003 4292136136
-0.1211514 -0.022404252 0.55699998 4292530894
-0.11987592 -0.022364059 0.55599999 4292465612
-0.11881799 -0.022364091 0.55599999 4292597198
-0.11754834 -0.022323893 0.55500001 4292531155
-0.11628253 -0.02228369 0.55400002 4292531155
-0.11522858 -0.022283714 0.55400002 4292531153
-0.11417467 -0.022283727 0.55400002 4292465360
-0.11312085 -0.02228374 0.55400002 4292531405
-0.11166246 -0.022203296 0.55199999 4292531405
-0.11061253 -0.022203306 0.55199999 4292465360
-0.10956267 -0.022203306 0.55199999 4292465360
-0.10890602 -0.022283753 0.55400002 4292334031
-0.10804712 -0.022323972 0.55500001 4292334031
-0.10622062 -0.022163073 0.551 4292529870
-0.10517285 -0.022163065 0.551 4292793298
-0.10412516 -0.022163052 0.551 4292728270
-0.10307752 -0.022163041 0.551 4292596685
-0.10184475 -0.022122798 0.55000001 4292597198
-0.10079914 -0.022122784 0.55000001 4292531405
-0.099753559 -0.022122758 0.55000001 4292400589
-0.098887518 -0.022162961 0.551 4292400589
-0.097662583 -0.022122709 0.55000001 4292202958
-0.096617192 -0.022122685 0.55000001 4292268751
-0.095571831 -0.022122653 0.55000001 4292136138
-0.094354674 -0.022082401 0.54900002 4292464847
-0.093311332 -0.022082366 0.54900002 4292793809
-0.09226805 -0.022082329 0.54900002 4292465101
-0.091058649 -0.022042068 0.54799998 4292397509
-0.090017363 -0.022042027 0.54799998 4293120975
-0.088976152 -0.022041988 0.54799998 4293122513
-0.088095449 -0.02208217 0.54900002 4292793548
-0.087052442 -0.022082122 0.54900002 4292334283
-0.085852817 -0.022041859 0.54799998 4292268489
-0.084811799 -0.022041811 0.54799998 4292595655
-0.083770871 -0.022041762 0.54799998 4292595655
-0.082729958 -0.02204171 0.54799998 4292267206
-0.081838198 -0.022081885 0.54900002 4292595915
-0.080648318 -0.022041608 0.54799998 4292661962
-0.079607584 -0.022041555 0.54799998 4292661962
-0.078566909 -0.0220415 0.54799998 4292399305
-0.077667736 -0.022081669 0.54900002 4292530892
-0.076625273 -0.022081617 0.54900002 4292137933
-0.075582832 -0.022081556 0.54900002 4292072139
-0.074540444 -0.022081498 0.54900002 4292137933
-0.073631994 -0.022121662 0.55000001 4292203726
-0.072587818 -0.022121601 0.55000001 4291939788
-0.071543701 -0.022121541 0.55000001 4292268497
-0.070499614 -0.022121478 0.55000001 4292268751
-0.069581866 -0.022161637 0.551 4292334544
-0.068535991 -0.022161575 0.551 4292727757
-0.06749016 -0.022161514 0.551 4292859343
-0.06656497 -0.02220167 0.55199999 4292793550
-0.065636031 -0.022241827 0.55299997 4292727757
-0.064703345 -0.022281986 0.55400002 4292268238
-0.063652009 -0.022281919 0.55400002 4292465360
-0.062600724 -0.022281852 0.55400002 4292137160
-0.061549492 -0.02228179 0.55400002 4292005831
-0.060498286 -0.022281721 0.55400002 4292136901
-0.059447128 -0.022281654 0.55400002 4292531659
-0.058396034 -0.022281595 0.55400002 4292597450
-0.057344966 -0.022281526 0.55400002 4292663243
-0.056395564 -0.022321681 0.55500001 4292597200
-0.055442408 -0.022361834 0.55599999 4292465614
-0.054387681 -0.022361768 0.55599999 4292334029
-0.053428922 -0.022401921 0.55699998 4292465614
-0.052466407 -0.022442073 0.55800003 4292925648
-0.051408004 -0.022442006 0.55800003 4292794061
-0.050439876 -0.022482159 0.55900002 4292531405
-0.049379662 -0.022482095 0.55900002 4292597198
-0.048405919 -0.022522248 0.56 4292596939
-0.047428429 -0.022562401 0.56099999 4292596939
-0.036364403 -0.022963887 0.57099998 4292334031
-0.035281919 -0.022963824 0.57099998 4292531153
-0.034259368 -0.023003984 0.57200003 4292531405
-0.033233054 -0.023044147 0.57300001 4292334283
-0.03220297 -0.023084303 0.574 4292595915
-0.031114921 -0.023084244 0.574 4292661708
-0.03007921 -0.023124404 0.57499999 4292595915
-0.028989315 -0.023124348 0.57499999 4292595915
-0.028239097 -0.023405809 0.58200002 4292334029
-0.027135989 -0.023405755 0.58200002 4292202442
-0.026077632 -0.023445917 0.583 4292202442
-0.14476988 -0.022035737 0.57499999 4293056214
-0.14367485 -0.022035884 0.57499999 4292925650
-0.14282779 -0.022074344 0.57599998 4292925650
-0.14173093 -0.022074474 0.57599998 4292663508
-0.14063412 -0.022074601 0.57599998 4292597715
-0.13953736 -0.022074722 0.57599998 4292728786
-0.13531613 -0.021576624 0.56300002 4292926165
-0.13424422 -0.021576731 0.56300002 4292859602
-0.13317233 -0.021576833 0.56300002 4292859602
-0.13210054 -0.021576934 0.56300002 4292728786
-0.13079602 -0.021538701 0.56199998 4292991958
-0.1297262 -0.021538788 0.56199998 4292728786
-0.12819859 -0.021462226 0.56 4292662993
-0.1271327 -0.021462308 0.56 4292597713
-0.12606683 -0.021462385 0.56 4293058264
-0.12477784 -0.021424131 0.55900002 4292926161
-0.12349267 -0.021385873 0.55800003 4292926161
-0.12243078 -0.021385936 0.55800003 4292465360
-0.12136894 -0.021385994 0.55800003 4292662995
-0.11987596 -0.021309398 0.55599999 4292662995
-0.11881802 -0.02130945 0.55599999 4292728788
-0.11754836 -0.021271173 0.55500001 4292596950
-0.11649246 -0.021271219 0.55500001 4292596950
-0.11522861 -0.021232935 0.55400002 4292531153
-0.11417471 -0.021232974 0.55400002 4292662995
-0.11312085 -0.021233002 0.55400002 4292597450
-0.11186477 -0.021194708 0.55299997 4292465864
-0.11061256 -0.021156412 0.55199999 4292334292
-0.10956268 -0.021156436 0.55199999 4292466134
-0.10890604 -0.021233112 0.55400002 4292466382
-0.10785246 -0.02123313 0.55400002 4292729554
-0.10622062 -0.021118166 0.551 4292465101
-0.10517286 -0.021118177 0.551 4292530894
-0.10431413 -0.021156514 0.55199999 4292531405
-0.10307752 -0.021118196 0.551 4292465612
-0.10202992 -0.021118201 0.551 4292531405
-0.1009824 -0.021118205 0.551 4292531405
-0.099934921 -0.021118205 0.551 4292400589
-0.098887503 -0.021118205 0.551 4292400589
-0.097662576 -0.021079872 0.55000001 4292334031
-0.096617162 -0.021079862 0.55000001 4292531153
-0.095571801 -0.021079853 0.55000001 4292266963
-0.094526514 -0.021079848 0.55000001 4292266963
-0.093311302 -0.021041507 0.54900002 4292793296
-0.092268012 -0.021041488 0.54900002 4292793296
-0.09122479 -0.021041475 0.54900002 4292465099
-0.090181604 -0.021041455 0.54900002 4293057236
-0.089138493 -0.021041431 0.54900002 4292728270
-0.088095419 -0.02104141 0.54900002 4292267719
-0.08705242 -0.02104139 0.54900002 4292268238
-0.086009465 -0.021041363 0.54900002 4292334031
-0.084811769 -0.021003008 0.54799998 4292465099
-0.083770819 -0.021002974 0.54799998 4292333512
-0.082729921 -0.021002948 0.54799998 4292333260
-0.081838153 -0.021041242 0.54900002 4292925398
-0.080795467 -0.021041211 0.54900002 4292597450
-0.079607546 -0.02100285 0.54799998 4292334535
-0.078566864 -0.02100281 0.54799998 4292269003
-0.077667698 -0.021041103 0.54900002 4292202953
-0.076625213 -0.021041067 0.54900002 4292072137
-0.075582787 -0.021041026 0.54900002 4292137931
-0.074676171 -0.021079313 0.55000001 4292334283
-0.07363195 -0.021079272 0.55000001 4292334283
-0.072719738 -0.021117553 0.551 4292334029
-0.071673729 -0.021117512 0.551 4292597200
-0.070755921 -0.021155793 0.55199999 4292465101
-0.069708094 -0.021155749 0.55199999 4292399051
-0.068784706 -0.02119403 0.55299997 4292530371
-0.067735083 -0.021193981 0.55299997 4292728007
-0.066685498 -0.021193935 0.55299997 4292727757
-0.065754667 -0.021232218 0.55400002 4292727757
-0.064703286 -0.021232169 0.55400002 4292597200
-0.063651957 -0.021232117 0.55400002 4292728786
-0.062600665 -0.02123207 0.55400002 4292465099
-0.061549429 -0.02123202 0.55400002 4292465099
-0.060498234 -0.02123197 0.55400002 4292399303
-0.05944708 -0.021231921 0.55400002 4292465097
-0.058501381 -0.021270193 0.55500001 4292597191
-0.057448428 -0.021270145 0.55500001 4292794313
-0.056598734 -0.021346739 0.55699998 4292793809
-0.055542059 -0.021346688 0.55699998 4292793809
-0.054485444 -0.021346638 0.55699998 4292530894
-0.053428855 -0.021346582 0.55699998 4292530894
-0.052466352 -0.021384859 0.55800003 4292793548
-0.051407948 -0.021384807 0.55800003 4292990670
-0.05043982 -0.021423079 0.55900002 4292859602
-0.04937961 -0.021423027 0.55900002 4292596687
-0.048405863 -0.021461297 0.56 4292530892
-0.036364343 -0.021882236 0.57099998 4292530640
-0.035281867 -0.021882186 0.57099998 4292991191
-0.034259316 -0.021920461 0.57200003 4292465099
-0.033174995 -0.021920413 0.57200003 4292333512
-0.032202918 -0.02199701 0.574 4292333512
-0.031169072 -0.022035284 0.57499999 4292465099
-0.030079156 -0.022035234 0.57499999 4292465099
-0.02898927 -0.022035189 0.57499999 4292465099
-0.028239047 -0.022303397 0.58200002 4292268238
-0.027182564 -0.022341669 0.583 4292202444
-0.026077583 -0.022341628 0.583 4292137164
-0.14713354 -0.021126535 0.57999998 4292990674
-0.14602891 -0.021126704 0.57999998 4292990674
-0.14392486 -0.020981168 0.57599998 4292794580
-0.14282794 -0.020981332 0.57599998 4292794580
-0.14173105 -0.020981485 0.57599998 4292663255
-0.14063425 -0.020981638 0.57599998 4292466132
-0.1395375 -0.020981785 0.57599998 4292728788
-0.13555659 -0.020544801 0.56400001 4292991704
-0.13448279 -0.020544933 0.56400001 4292925652
-0.13317245 -0.020508636 0.56300002 4292793809
-0.13210063 -0.020508757 0.56300002 4292597198
-0.13079612 -0.020472443 0.56199998 4292926163
-0.12972629 -0.020472556 0.56199998 4292597713
-0.12819868 -0.020399811 0.56 4292597713
-0.12713279 -0.020399917 0.56 4292334542
-0.12606692 -0.020400016 0.56 4292466384
-0.12477791 -0.020363683 0.55900002 4292597200
-0.12371405 -0.020363772 0.55900002 4292662993
-0.12265027 -0.020363862 0.55900002 4292596687
-0.12158654 -0.020363944 0.55900002 4292793809
-0.12030724 -0.020327592 0.55800003 4292662993
-0.11903178 -0.020291235 0.55699998 4292728786
-0.11776023 -0.020254882 0.55599999 4292728788
-0.1164925 -0.020218519 0.55500001 4292662995
-0.11543664 -0.020218583 0.55500001 4292597202
-0.11417476 -0.020182215 0.55400002 4292597202
-0.11312089 -0.020182271 0.55400002 4292466382
-0.1120671 -0.020182325 0.55400002 4292466382
-0.11101336 -0.020182377 0.55400002 4292203728
-0.10995968 -0.020182423 0.55400002 4292137935
-0.10890606 -0.020182466 0.55400002 4292006092
-0.10785249 -0.020182511 0.55400002 4292400850
-0.10679898 -0.02018255 0.55400002 4292465614
-0.10555462 -0.020146148 0.55299997 4292465614
-0.10431415 -0.020109752 0.55199999 4292531405
-0.10326459 -0.02010978 0.55199999 4292465612
-0.10221511 -0.020109806 0.55199999 4292465610
-0.10116568 -0.020109836 0.55199999 4292597452
-0.10011631 -0.020109857 0.55199999 4292137164
-0.099066973 -0.020109871 0.55199999 4292334544
-0.098017715 -0.020109892 0.55199999 4292465614
-0.096968502 -0.020109907 0.55199999 4292465614
-0.095745571 -0.020073486 0.551 4292135886
-0.094698377 -0.0200735 0.551 4292333008
-0.093481265 -0.020037076 0.55000001 4292793550
-0.092436075 -0.020037081 0.55000001 4292595915
-0.091390938 -0.020037085 0.55000001 4292268489
-0.090181597 -0.020000653 0.54900002 4292597198
-0.089138471 -0.02000065 0.54900002 4292202953
-0.088095412 -0.020000653 0.54900002 4292005831
-0.087052405 -0.020000648 0.54900002 4292137162
-0.086009428 -0.020000642 0.54900002 4292400591
-0.084966525 -0.020000637 0.54900002 4292597198
-0.083923675 -0.020000627 0.54900002 4292531405
-0.082880877 -0.020000614 0.54900002 4292137164
-0.081987202 -0.020037033 0.55000001 4292334544
-0.080795437 -0.020000586 0.54900002 4292137931
-0.079752795 -0.020000573 0.54900002 4292072137
-0.078710213 -0.020000558 0.54900002 4292138185
-0.077667668 -0.020000538 0.54900002 4292138185
-0.076625198 -0.020000519 0.54900002 4292137160
-0.07558275 -0.020000499 0.54900002 4292202953
-0.074676134 -0.020036906 0.55000001 4292399305
-0.073631912 -0.020036882 0.55000001 4292465099
-0.072719708 -0.020073289 0.551 4292727757
-0.071803764 -0.020109693 0.55199999 4292793550
-0.070755884 -0.020109665 0.55199999 4292595915
-0.069834344 -0.020146072 0.55299997 4292530121
-0.068784669 -0.020146044 0.55299997 4292070595
-0.067735046 -0.020146012 0.55299997 4292531146
-0.066806048 -0.020182414 0.55400002 4292531405
-0.06575463 -0.020182384 0.55400002 4292531405
-0.064703248 -0.020182351 0.55400002 4292597198
-0.063651912 -0.020182321 0.55400002 4292597198
-0.062600628 -0.020182287 0.55400002 4292924364
-0.061660483 -0.02021868 0.55500001 4293056206
-0.060607392 -0.020218646 0.55500001 4292661962
-0.059554335 -0.020218614 0.55500001 4292530119
-0.058501337 -0.020218577 0.55500001 4292924618
-0.057551887 -0.020254971 0.55599999 4293187791
-0.056497075 -0.020254934 0.55599999 4292661195
-0.055542018 -0.020291327 0.55699998 4292858573
-0.054485392 -0.020291287 0.55699998 4292595917
-0.053428806 -0.020291252 0.55699998 4292595917
-0.052372273 -0.020291213 0.55699998 4292529608
-0.036364295 -0.020800585 0.57099998 4292398540
-0.035281822 -0.02080055 0.57099998 4292727505
-0.034199372 -0.020800507 0.57099998 4292595917
-0.033116955 -0.020800469 0.57099998 4292398538
-0.03220287 -0.020909717 0.574 4292070602
-0.031169031 -0.020946106 0.57499999 4292597202
-0.030079113 -0.020946065 0.57499999 4292728786
-0.029342139 -0.021201026 0.58200002 4292465614
-0.028287526 -0.021237414 0.583 4291873991
-0.027182521 -0.021237375 0.583 4292005833
-0.026077542 -0.02123734 0.583 4292202958
-0.14985807 -0.020094495 0.58200002 4292596948
-0.14874958 -0.020094706 0.58200002 4293057499
-0.14713372 -0.020025851 0.57999998 4293057238
-0.14552556 -0.019956995 0.57800001 4292991445
-0.14392504 -0.019888131 0.57599998 4293057751
-0.14282811 -0.019888313 0.57599998 4293057751
-0.14123911 -0.019819437 0.574 4292663255
-0.14014611 -0.01981961 0.574 4292466132
-0.13905315 -0.019819781 0.574 4292794584
-0.13555674 -0.019474648 0.56400001 4293386464
-0.13448291 -0.019474806 0.56400001 4292859604
-0.13317259 -0.019440426 0.56300002 4292793811
-0.13210078 -0.019440573 0.56300002 4292662991
-0.13079625 -0.019406183 0.56199998 4293057749
-0.12972641 -0.019406317 0.56199998 4292728786
-0.12819882 -0.019337393 0.56 4292794580
-0.12713291 -0.01933752 0.56 4292662993
-0.12606703 -0.019337643 0.56 4292597200
-0.12477802 -0.019303229 0.55900002 4292662995
-0.12371416 -0.019303342 0.55900002 4292662995
-0.12265038 -0.019303454 0.55900002 4292794063
-0.12158662 -0.01930356 0.55900002 4293188565
-0.12052293 -0.019303663 0.55900002 4292859856
-0.11924559 -0.019269228 0.55800003 4292859856
-0.1179721 -0.01923479 0.55699998 4292794063
-0.11670248 -0.019200349 0.55599999 4292728270
-0.11564472 -0.019200437 0.55599999 4292597200
-0.11438091 -0.019165985 0.55500001 4292531407
-0.11312097 -0.019131536 0.55400002 4292466382
-0.11206716 -0.019131608 0.55400002 4292729554
-0.11101342 -0.019131681 0.55400002 4292335055
-0.10995975 -0.019131754 0.55400002 4292203726
-0.10890611 -0.019131823 0.55400002 4292531407
-0.10785253 -0.01913188 0.55400002 4292597200
-0.10679903 -0.019131942 0.55400002 4292727757
-0.10555468 -0.019097464 0.55299997 4292727757
-0.10431419 -0.019062987 0.55199999 4292530892
-0.10326464 -0.019063037 0.55199999 4292399305
-0.10221515 -0.019063085 0.55199999 4292334535
-0.1011657 -0.019063132 0.55199999 4292926415
-0.10011632 -0.019063175 0.55199999 4292466130
-0.099067003 -0.019063216 0.55199999 4292400337
-0.098017745 -0.019063257 0.55199999 4292465612
-0.096968517 -0.019063292 0.55199999 4292597198
-0.095919348 -0.019063326 0.55199999 4292595917
-0.094870254 -0.019063355 0.55199999 4292859089
-0.093481272 -0.018994315 0.55000001 4292595663
-0.092436083 -0.018994343 0.55000001 4292332747
-0.09139096 -0.018994365 0.55000001 4292333512
-0.090345867 -0.018994385 0.55000001 4292728270
-0.089300856 -0.018994408 0.55000001 4292597452
-0.088255875 -0.018994426 0.55000001 4292729038
-0.087210976 -0.018994441 0.55000001 4292728268
-0.08600945 -0.018959921 0.54900002 4292794061
-0.084966518 -0.018959932 0.54900002 4292794059
-0.083923668 -0.018959939 0.54900002 4292794059
-0.082880877 -0.018959953 0.54900002 4292202190
-0.081987195 -0.018994493 0.55000001 4292465362
-0.080942594 -0.018994499 0.55000001 4292334281
-0.077667668 -0.018959969 0.54900002 4292531657
-0.076625183 -0.018959969 0.54900002 4292334796
-0.075582743 -0.018959964 0.54900002 4292334796
-0.074811913 -0.019029032 0.551 4292334796
-0.073765762 -0.019029027 0.551 4292269003
-0.072851658 -0.019063553 0.55199999 4292334283
-0.071933836 -0.019098084 0.55299997 4292334283
-0.070884034 -0.019098071 0.55299997 4292334283
-0.069834307 -0.019098062 0.55299997 4292662991
-0.068909034 -0.01913259 0.55400002 4292268489
-0.067857511 -0.019132577 0.55400002 4292334283
-0.066806041 -0.019132566 0.55400002 4292597450
-0.065754607 -0.019132553 0.55400002 4292663243
-0.064703234 -0.019132536 0.55400002 4292465610
-0.06365189 -0.019132517 0.55400002 4292465610
-0.062713593 -0.019167038 0.55500001 4292858571
-0.061660465 -0.019167021 0.55500001 4293056206
-0.060716569 -0.019201536 0.55599999 4292661962
-0.059661619 -0.019201515 0.55599999 4292530119
