# .PCD v0.7 - Point Cloud Data file format
VERSION 0.7
FIELDS x y z rgba
SIZE 4 4 4 4
TYPE F F F U
COUNT 1 1 1 1
WIDTH 1062
HEIGHT 1
VIEWPOINT 0 0 0 1 0 0 0
POINTS 1062
DATA ascii
-0.06055633 0.051265065 0.71600002 4294967295
-0.059032638 0.051120996 0.71399999 4294967295
-0.057678133 0.051120136 0.71399999 4294967295
-0.056323696 0.051119316 0.71399999 4294967295
-0.1653343 0.039463848 0.53500003 4294964974
-0.16431439 0.039462395 0.53500003 4294967295
-0.16329449 0.039460946 0.53500003 4294967295
-0.16227461 0.039459486 0.53500003 4294967295
-0.16457024 0.040269312 0.546 4293059296
-0.16352946 0.040267821 0.546 4288064713
-0.16248861 0.040266331 0.546 4284314512
-0.16144787 0.040264834 0.546 4284774220
-0.16040707 0.040263336 0.546 4285892444
-0.15936632 0.040261839 0.546 4288254333
-0.15832558 0.040260341 0.546 4289438607
-0.15728487 0.040258847 0.546 4287990437
-0.15767498 0.040626001 0.551 4280884792
-0.15690903 0.040698212 0.55199999 4280098581
-0.15585694 0.040696692 0.55199999 4279638030
-0.15508534 0.040768906 0.55299997 4278191365
-0.1540314 0.040767387 0.55299997 4285498500
-0.15325417 0.04083959 0.55400002 4288652977
-0.15219836 0.040838063 0.55400002 4294901759
-0.15141545 0.040910255 0.55500001 4294967295
-0.15089963 0.041056149 0.55699998 4294967039
-0.15064527 0.041275747 0.56 4294967295
-0.14957818 0.041274209 0.56 4294967295
-0.14877632 0.041346382 0.56099999 4294967295
-0.14770742 0.041344851 0.56099999 4293059037
-0.14689989 0.041417014 0.56199998 4291477690
-0.14608864 0.041489173 0.56300002 4278190080
-0.14501603 0.041487642 0.56300002 4278190080
-0.14394346 0.041486118 0.56300002 4278190080
-0.14337844 0.041631959 0.565 4285802764
-0.14230214 0.041630428 0.565 4291395169
-0.14122587 0.041628897 0.565 4293179300
-0.14014967 0.041627385 0.565 4294963164
-0.13907348 0.041625861 0.565 4294967290
-0.13799736 0.041624345 0.565 4294967288
-0.14144805 0.043682396 0.59299999 4292797675
-0.13984552 0.043533504 0.59100002 4291021264
-0.13872012 0.043531943 0.59100002 4289639877
-0.13759476 0.043530375 0.59100002 4288258224
-0.13646944 0.043528825 0.59100002 4287795370
-0.13671821 0.043969177 0.597 4287729577
-0.13580869 0.044041261 0.59799999 4287665567
-0.13512062 0.044186998 0.60000002 4287928739
-0.13397837 0.044185445 0.60000002 4287599767
-0.13327898 0.044331174 0.602 4288060318
-0.13213305 0.044329632 0.602 4288519583
-0.13156681 0.044915613 0.61000001 4288321950
-0.1304058 0.044914063 0.61000001 4288124827
-0.12945673 0.044986147 0.611 4287467924
-0.12850392 0.045058239 0.61199999 4287467924
-0.12733927 0.045056701 0.61199999 4287794577
-0.12658705 0.045202419 0.61400002 4287597198
-0.12541871 0.045200892 0.61400002 4287858566
-0.12505989 0.045493834 0.61799997 4287924360
-0.12488638 0.045860387 0.62300003 4287530891
-0.12350255 0.045785252 0.62199998 4287530891
-0.1221226 0.045710139 0.62099999 4287203471
-0.12094125 0.045708641 0.62099999 4287137678
-0.11975995 0.045707148 0.62099999 4287073167
-0.1183878 0.045632072 0.62 4287402131
-0.11720855 0.0456306 0.62 4287795090
-0.11818455 0.046952363 0.63800001 4288123790
-0.11697125 0.04695088 0.63800001 4288123790
-0.11575799 0.046949405 0.63800001 4288254608
-0.11454481 0.046947945 0.63800001 4288320401
-0.11333169 0.046946492 0.63800001 4288715663
-0.1124701 0.047092214 0.63999999 4288584334
-0.11125329 0.047090773 0.63999999 4288911007
-0.11003652 0.047089346 0.63999999 4289897902
-0.10881986 0.04708793 0.63999999 4290096299
-0.10793951 0.047233671 0.64200002 4290030505
-0.10639019 0.048185866 0.65499997 4290557363
-0.10514531 0.048184481 0.65499997 4290294447
-0.10437637 0.0484038 0.65799999 4290425009
-0.10312592 0.048402414 0.65799999 4290556852
-0.10125623 0.048106827 0.65399998 4290556850
-0.1000135 0.048105482 0.65399998 4290425263
-0.099223927 0.048324823 0.65700001 4289835693
-0.096932441 0.049056366 0.667 4290097582
-0.095235072 0.048834428 0.66399997 4290228400
-0.093973704 0.048833147 0.66399997 4290688951
-0.092991672 0.048978958 0.66600001 4290755511
-0.091726631 0.048977695 0.66600001 4290755511
-0.090597488 0.049049988 0.667 4291017149
-0.089196734 0.048975214 0.66600001 4291148991
-0.087931886 0.048973996 0.66600001 4290425013
-0.086667106 0.048972793 0.66600001 4290227635
-0.085402362 0.048971605 0.66600001 4290818743
-0.084390342 0.049117479 0.66799998 4289173661
-0.082138218 0.05168502 0.70300001 4278190080
-0.08080364 0.051683869 0.70300001 4285225817
-0.079469115 0.051682737 0.70300001 4291075237
-0.078134649 0.051681619 0.70300001 4294962421
-0.076800242 0.051680516 0.70300001 4294967295
-0.075573221 0.051752932 0.704 4292203478
-0.074237026 0.051751863 0.704 4287401627
-0.072900891 0.051750809 0.704 4279046172
-0.071768105 0.051896784 0.70599997 4279635226
-0.070827305 0.052189786 0.70999998 4280622377
-0.070067093 0.052629806 0.71600002 4279898395
-0.068804353 0.0527023 0.71700001 4278190080
-0.067631923 0.052848309 0.71899998 4278190080
-0.066267632 0.052847333 0.71899998 4278780928
-0.064903386 0.052846368 0.71899998 4286138917
-0.063362457 0.052698445 0.71700001 4291270771
-0.061915621 0.052624021 0.71600002 4294894547
-0.060557231 0.052623119 0.71600002 4294967295
-0.059033509 0.052475236 0.71399999 4294967295
-0.057678986 0.052474372 0.71399999 4294967295
-0.056324519 0.052473519 0.71399999 4294967295
-0.16542281 0.04025517 0.53200001 4282531389
-0.16502671 0.040405039 0.53399998 4282136631
-0.16400871 0.040403578 0.53399998 4285683055
-0.16299069 0.040402107 0.53399998 4292525526
-0.16197275 0.040400635 0.53399998 4294438359
-0.1609548 0.040399168 0.53399998 4294967281
-0.16353095 0.041305501 0.546 4294241535
-0.16219255 0.04122835 0.54500002 4292596711
-0.16085796 0.041151196 0.54400003 4290954428
-0.159821 0.041149687 0.54400003 4285032802
-0.15907596 0.04122382 0.54500002 4285493800
-0.15803711 0.041222308 0.54500002 4278914560
-0.15699831 0.041220788 0.54500002 4280158464
-0.15767649 0.041673068 0.551 4281079564
-0.15691057 0.041747164 0.55199999 4280952602
-0.15585847 0.041745622 0.55199999 4279176192
-0.15480644 0.041744087 0.55199999 4278190848
-0.15375441 0.041742552 0.55199999 4288261787
-0.15297903 0.041816633 0.55299997 4290624471
-0.15192515 0.041815095 0.55299997 4294967295
-0.15114416 0.041889179 0.55400002 4294967295
-0.15008843 0.041887637 0.55400002 4294967295
-0.15037781 0.042264137 0.55900002 4294967295
-0.14931262 0.042262588 0.55900002 4294967295
-0.14824747 0.042261034 0.55900002 4294967295
-0.14770895 0.042410683 0.56099999 4290953404
-0.14690146 0.042484723 0.56199998 4289963906
-0.14609019 0.042558771 0.56300002 4278190080
-0.14501755 0.042557217 0.56300002 4278190080
-0.14394501 0.042555671 0.56300002 4278780934
-0.14337997 0.042705283 0.565 4281073664
-0.14230369 0.042703733 0.565 4281204736
-0.14122741 0.042702187 0.565 4283302400
-0.14015119 0.042700645 0.565 4285539342
-0.13907503 0.04269911 0.565 4286538850
-0.13799886 0.042697567 0.565 4292262840
-0.1398471 0.044656031 0.59100002 4294967295
-0.13872169 0.04465444 0.59100002 4294701309
-0.13759634 0.044652868 0.59100002 4293648364
-0.136471 0.044651289 0.59100002 4291873754
-0.13671981 0.045103014 0.597 4289570999
-0.13581026 0.045176968 0.59799999 4287863466
-0.13489696 0.045250934 0.59899998 4287863466
-0.13375662 0.045249365 0.59899998 4287599765
-0.13283774 0.045323335 0.60000002 4287994523
-0.13147612 0.045246232 0.59899998 4288454040
-0.13033594 0.045244683 0.59899998 4288190868
-0.13156837 0.046073973 0.61000001 4288387491
-0.12997979 0.045921344 0.60799998 4288387491
-0.12882262 0.04591978 0.60799998 4288123803
-0.12808549 0.046069276 0.61000001 4287794838
-0.12713273 0.046143245 0.611 4287991188
-0.12617624 0.046217222 0.61199999 4288122775
-0.12501171 0.046215683 0.61199999 4288452239
-0.12384724 0.046214148 0.61199999 4288452239
-0.12468744 0.046967734 0.62199998 4288189585
-0.12330553 0.046890687 0.62099999 4287729034
-0.12212411 0.046889152 0.62099999 4287663250
-0.12094276 0.046887629 0.62099999 4287795092
-0.11976147 0.046886124 0.62099999 4287729299
-0.11838928 0.046809122 0.62 4287860886
-0.11721001 0.046807632 0.62 4287662737
-0.11584365 0.046730652 0.61900002 4287662737
-0.11466642 0.046729185 0.61900002 4287859854
-0.11678939 0.048086528 0.63700002 4288123027
-0.11557804 0.048085038 0.63700002 4288057485
-0.11436674 0.048083551 0.63700002 4287859850
-0.11333314 0.048157558 0.63800001 4287860354
-0.11212008 0.048156098 0.63800001 4288518284
-0.11090705 0.048154645 0.63800001 4288976550
-0.11003796 0.048304137 0.63999999 4289897652
-0.10882129 0.04830271 0.63999999 4290096039
-0.10777277 0.048376746 0.64099997 4290096039
-0.10655431 0.048375327 0.64099997 4289965483
-0.10639159 0.049429033 0.65499997 4290425782
-0.10514671 0.049427617 0.65499997 4290294195
-0.10390187 0.049426217 0.65499997 4290097330
-0.10250039 0.049349368 0.65399998 4289965744
-0.10125758 0.049347993 0.65399998 4289965744
-0.10001485 0.049346633 0.65399998 4290031537
-0.099225275 0.049571652 0.65700001 4289965998
-0.097976945 0.049570296 0.65700001 4289899949
-0.09672869 0.04956897 0.65700001 4289834659
-0.095625833 0.049643103 0.65799999 4289900453
-0.094949499 0.049943563 0.662 4289769135
-0.093691938 0.049942259 0.662 4290032050
-0.092992939 0.050242737 0.66600001 4290688949
-0.091727905 0.050241455 0.66600001 4290886585
-0.09059874 0.050315619 0.667 4291476157
-0.089331903 0.050314363 0.667 4292199623
-0.088065147 0.05031313 0.667 4290819002
-0.086798437 0.050311897 0.667 4290424500
-0.085531801 0.05031069 0.667 4290031787
-0.084391527 0.050384909 0.66799998 4287926410
-0.083123095 0.050383728 0.66799998 4288517285
-0.08332517 0.051287632 0.68000001 4291609299
-0.081792794 0.051135618 0.67799997 4289834426
-0.080505535 0.051134456 0.67799997 4285623674
-0.07921835 0.051133309 0.67799997 4278190936
-0.079470262 0.053016435 0.70300001 4278190105
-0.077913478 0.052864477 0.70099998 4278190110
-0.076582842 0.052863348 0.70099998 4284102692
-0.075466976 0.053013079 0.70300001 4287721564
-0.074238099 0.053087391 0.704 4286740812
-0.072901942 0.053086318 0.704 4280161536
-0.071565829 0.053085264 0.704 4280292901
-0.070429303 0.053235028 0.70599997 4280951087
-0.069187365 0.053309403 0.70700002 4280952100
-0.068229578 0.053609997 0.71100003 4281017894
-0.067068532 0.053759802 0.713 4281281322
-0.065992117 0.053985015 0.71600002 4280491549
-0.064723812 0.054059435 0.71700001 4280615680
-0.063275017 0.053983081 0.71600002 4279435264
-0.061743602 0.053831354 0.71399999 4284693034
-0.060388964 0.053830434 0.71399999 4294967280
-0.058951706 0.053754151 0.713 4294967295
-0.05759906 0.053753264 0.713 4294967295
-0.056246474 0.053752404 0.713 4294967295
-0.16471913 0.041342463 0.53299999 4278190139
-0.16401017 0.041418545 0.53399998 4280614912
-0.16299221 0.041417062 0.53399998 4288308067
-0.16197424 0.041415583 0.53399998 4292719535
-0.16095629 0.041414086 0.53399998 4294960866
-0.15993834 0.041412599 0.53399998 4294967032
-0.16219406 0.042264141 0.54500002 4294965233
-0.16085948 0.042185068 0.54400003 4294308849
-0.15982251 0.042183548 0.54400003 4291216579
-0.15878557 0.042182021 0.54400003 4286026654
-0.15745868 0.042102959 0.54299998 4279184182
-0.15642369 0.042101428 0.54299998 4279043592
-0.1579642 0.042797685 0.55199999 4280753954
-0.15662785 0.042718608 0.551 4281147935
-0.15557767 0.042717062 0.551 4278911232
-0.15452752 0.042715505 0.551 4278190080
-0.1534774 0.042713951 0.551 4291680464
-0.1529806 0.042867437 0.55299997 4292732395
-0.1519267 0.04286588 0.55299997 4294967295
-0.15114568 0.042941839 0.55400002 4294967295
-0.15008996 0.042940281 0.55400002 4294967295
-0.15011033 0.043248754 0.55800003 4294966526
-0.14904706 0.043247186 0.55800003 4294967295
-0.14798383 0.043245621 0.55800003 4294967295
-0.14771052 0.043476548 0.56099999 4287268485
-0.14664164 0.043474972 0.56099999 4287784531
-0.14583226 0.043550897 0.56199998 4279959552
-0.14501913 0.043626823 0.56300002 4278714627
-0.14394657 0.04362525 0.56300002 4279898901
-0.1431278 0.043701168 0.56400001 4279372301
-0.14230525 0.043777086 0.565 4278977799
-0.14122897 0.04377551 0.565 4278190113
-0.14015274 0.043773949 0.565 4278190105
-0.13907655 0.043772385 0.565 4282187776
-0.13800041 0.043770831 0.565 4289355865
-0.137409 0.043924209 0.56699997 4292127114
-0.13632914 0.043922652 0.56699997 4294957755
-0.13524933 0.043921106 0.56699997 4294962403
-0.13984869 0.045778587 0.59100002 4294964972
-0.1387233 0.045776986 0.59100002 4294964468
-0.13759792 0.045775384 0.59100002 4294964211
-0.13647257 0.045773778 0.59100002 4294242039
-0.13672139 0.04623688 0.597 4292136662
-0.13581187 0.046312723 0.59799999 4290363080
-0.13489856 0.046388563 0.59899998 4288586669
-0.13375823 0.046386968 0.59899998 4288910757
-0.13261791 0.046385378 0.59899998 4288713379
-0.13147768 0.046383787 0.59899998 4288059814
-0.13033751 0.046382215 0.59899998 4288191143
-0.12941308 0.04645808 0.60000002 4288585378
-0.12869865 0.046611357 0.602 4288519329
-0.1275529 0.046609789 0.602 4288584093
-0.1268272 0.046763074 0.60399997 4287991700
-0.12651007 0.047071196 0.60799998 4288318352
-0.12597163 0.047301896 0.611 4288647317
-0.12440044 0.047145505 0.60900003 4288584343
-0.12324169 0.047143962 0.60900003 4288518550
-0.12248389 0.047297239 0.611 4288453277
-0.12310849 0.047992364 0.62 4287992726
-0.12192899 0.047990818 0.62 4287991442
-0.12074953 0.047989272 0.62 4288057236
-0.11957013 0.04798774 0.62 4287991442
-0.11839079 0.047986217 0.62 4287925393
-0.11721151 0.047984701 0.62 4287596685
-0.11584514 0.04790581 0.61900002 4287596685
-0.11411212 0.047672145 0.616 4287661192
-0.11294065 0.04767067 0.616 4288187536
-0.11176921 0.047669206 0.616 4287991440
-0.11418869 0.049215399 0.63599998 4287925647
-0.11315699 0.049291294 0.63700002 4287925899
-0.11194582 0.049289811 0.63700002 4288583830
-0.11090852 0.049365703 0.63800001 4288911009
-0.10969555 0.049364243 0.63800001 4289897904
-0.10848265 0.04936279 0.63800001 4289898406
-0.10760608 0.049516071 0.63999999 4290095785
-0.1063895 0.04951464 0.63999999 4289965231
-0.10517298 0.049513213 0.63999999 4290096560
-0.10330682 0.04920236 0.63599998 4290360502
-0.10209803 0.04920096 0.63599998 4290360502
-0.10374466 0.05059202 0.65399998 4289836724
-0.10250179 0.050590616 0.65399998 4289441967
-0.10125897 0.050589222 0.65399998 4289769135
-0.10001621 0.050587833 0.65399998 4289966257
-0.099226624 0.050818514 0.65700001 4289965744
-0.097978301 0.050817147 0.65700001 4290097330
-0.096730031 0.050815798 0.65700001 4290032300
-0.095481828 0.050814465 0.65700001 4290032300
-0.094377115 0.050890476 0.65799999 4289441198
-0.093268655 0.050966498 0.65899998 4289638578
-0.092994258 0.051506564 0.66600001 4290359988
-0.091866918 0.05158259 0.667 4290754746
-0.090599999 0.051581301 0.667 4291474358
-0.089199238 0.051502701 0.66600001 4292329667
-0.087934352 0.051501434 0.66600001 4290885562
-0.086799666 0.051577523 0.667 4290622647
-0.085533001 0.051576283 0.667 4289246123
-0.084392726 0.051652394 0.66799998 4284903528
-0.083124287 0.051651195 0.66799998 4287789417
-0.083081275 0.052423202 0.67799997 4291934376
-0.081552684 0.05226738 0.676 4292595401
-0.080269225 0.052266207 0.676 4290226853
-0.078985818 0.052265048 0.676 4286878125
-0.077702455 0.052263901 0.676 4280628046
-0.078906178 0.053963631 0.69800001 4278648925
-0.077581167 0.053962491 0.69800001 4278190161
-0.076256223 0.053961359 0.69800001 4278190099
-0.074931316 0.053960241 0.69800001 4278782512
-0.073817372 0.054113753 0.69999999 4281018927
-0.072592348 0.054189969 0.70099998 4280558376
-0.071465239 0.05434351 0.70300001 4280623919
-0.070230819 0.054419752 0.704 4280689712
-0.069188394 0.054650608 0.70700002 4280690218
-0.068134621 0.054881468 0.70999998 4280887341
-0.066881403 0.054957759 0.71100003 4281149486
-0.065532245 0.054956757 0.71100003 4280951850
-0.064634502 0.055342242 0.71600002 4280096280
-0.06309922 0.055186696 0.71399999 4278190080
-0.061744522 0.055185739 0.71399999 4281142784
-0.060305305 0.05510753 0.713 4294964435
-0.058952603 0.05510661 0.713 4294967295
-0.057599947 0.055105712 0.713 4294967295
-0.056247335 0.055104841 0.713 4294967295
-0.16238324 0.042273127 0.53200001 4278190130
-0.16167241 0.042351082 0.53299999 4282843191
-0.16065633 0.042349577 0.53299999 4282843191
-0.15964033 0.042348079 0.53299999 4286135865
-0.15862429 0.042346571 0.53299999 4293833903
-0.16026962 0.043060079 0.542 4293581769
-0.15923643 0.043058541 0.542 4294108113
-0.1582033 0.043057002 0.542 4292334294
-0.15717021 0.04305546 0.542 4283780948
-0.15584908 0.042974494 0.54100001 4279438350
-0.15481789 0.042972952 0.54100001 4280491038
-0.15407102 0.043050837 0.542 4280491299
-0.15473212 0.043525849 0.54799998 4278190080
-0.15396821 0.043603722 0.54900002 4278589465
-0.15292186 0.043602154 0.54900002 4292208616
-0.15242888 0.043759432 0.551 4294967295
-0.15137881 0.043757856 0.551 4294967295
-0.15005594 0.043676876 0.55000001 4294967295
-0.14900783 0.043675311 0.55000001 4294967292
-0.14930487 0.044070784 0.55500001 4294967295
-0.1485144 0.044148602 0.55599999 4294967295
-0.14745499 0.044147026 0.55599999 4294967295
-0.1466589 0.044224847 0.55699998 4286018934
-0.14585902 0.044302665 0.55800003 4280095779
-0.1450554 0.044380475 0.55900002 4278255623
-0.14450555 0.044537671 0.56099999 4278587155
-0.14343677 0.044536088 0.56099999 4278323726
-0.14287558 0.044693287 0.56300002 4280157958
-0.14205495 0.044771072 0.56400001 4286145121
-0.14098059 0.044769488 0.56400001 4280288887
-0.13990624 0.044767905 0.56400001 4278190162
-0.13883196 0.044766329 0.56400001 4278190080
-0.13800198 0.044844121 0.565 4278190080
-0.13692589 0.044842545 0.565 4280287232
-0.13633071 0.044999704 0.56699997 4280745984
-0.13525088 0.044998135 0.56699997 4284023091
-0.13417111 0.04499656 0.56699997 4293168318
-0.13379559 0.045233071 0.56999999 4293906871
-0.13247737 0.045152154 0.56900001 4294964442
-0.13139392 0.045150589 0.56900001 4294965503
-0.13031054 0.045149036 0.56900001 4294963707
-0.12945431 0.045226838 0.56999999 4294636282
-0.13375983 0.047524605 0.59899998 4292927712
-0.13261952 0.047522992 0.59899998 4290427578
-0.13147928 0.047521379 0.59899998 4288192706
-0.13033909 0.047519781 0.59899998 4287337653
-0.12941465 0.047597524 0.60000002 4287469210
-0.12827265 0.047595926 0.60000002 4287863968
-0.12713072 0.04759435 0.60000002 4288058780
-0.12598886 0.047592774 0.60000002 4288190367
-0.12547126 0.047829159 0.60299999 4288649884
-0.12535466 0.04822417 0.60799998 4288978849
-0.12419773 0.04822259 0.60799998 4288847262
-0.12304085 0.048221026 0.60799998 4288584091
-0.12208453 0.048298791 0.60900003 4288453277
-0.12193055 0.04916802 0.62 4288650397
-0.12055631 0.049087159 0.61900002 4288716446
-0.11937881 0.049085606 0.61900002 4288386457
-0.11839232 0.04916336 0.62 4288255128
-0.11721303 0.049161822 0.62 4288189333
-0.11603379 0.049160291 0.62 4287991954
-0.11411362 0.048841622 0.616 4287991440
-0.11294213 0.048840128 0.616 4288254356
-0.11177068 0.048838634 0.616 4288254360
-0.11298084 0.050421264 0.63599998 4288583076
-0.1119473 0.050499041 0.63700002 4289372591
-0.11073616 0.050497543 0.63700002 4289307046
-0.10952509 0.050496057 0.63700002 4289767597
-0.10831407 0.050494581 0.63700002 4289767851
-0.10727126 0.050572388 0.63800001 4289767851
-0.10605849 0.050570928 0.63800001 4289899439
-0.10451708 0.050410964 0.63599998 4289899439
-0.10330821 0.050409529 0.63599998 4290360240
-0.10209943 0.050408121 0.63599998 4290557363
-0.1014152 0.051909734 0.65499997 4290097330
-0.10017055 0.051908322 0.65499997 4290294708
-0.099227987 0.052065425 0.65700001 4290162609
-0.097979665 0.052064046 0.65700001 4290162609
-0.096436918 0.051904187 0.65499997 4290163629
-0.095192499 0.051902834 0.65499997 4290294958
-0.093948133 0.051901486 0.65499997 4289703601
-0.09312845 0.052137878 0.65799999 4289901236
-0.092995562 0.052770428 0.66600001 4290359988
-0.09145502 0.052610643 0.66399997 4290754746
-0.090193801 0.052609343 0.66399997 4291476407
-0.089200504 0.052766509 0.66600001 4292265666
-0.087935612 0.052765228 0.66600001 4290951094
-0.086800925 0.052843198 0.667 4291016887
-0.08553423 0.052841939 0.667 4290099381
-0.084393956 0.052919917 0.66799998 4280756775
-0.083125494 0.052918702 0.66799998 4282065152
-0.082592331 0.053392798 0.67400002 4285552418
-0.081553884 0.053550027 0.676 4289698931
-0.080270387 0.053548839 0.676 4293909683
-0.078986958 0.053547654 0.676 4293517811
-0.077703595 0.053546499 0.676 4294833919
-0.076420285 0.05354536 0.676 4293124326
-0.077582315 0.055286787 0.69800001 4289637296
-0.076257348 0.055285636 0.69800001 4283917458
-0.074932426 0.055284508 0.69800001 4278190121
-0.073818482 0.055441797 0.69999999 4278190080
-0.072593436 0.055519894 0.70099998 4278192384
-0.071466312 0.055677209 0.70300001 4279178785
-0.070231885 0.055755332 0.704 4280099887
-0.069091581 0.055912666 0.70599997 4281083187
-0.067847759 0.055990819 0.70700002 4281148980
-0.066600204 0.056068983 0.708 4281215279
-0.065441072 0.056226365 0.70999998 4281149486
-0.06445495 0.056542128 0.71399999 4281018927
-0.06301181 0.05646196 0.713 4278190080
-0.061658997 0.056460999 0.713 4280746496
-0.060306232 0.056460053 0.713 4294958535
-0.058953509 0.056459125 0.713 4294967295
-0.057600837 0.056458216 0.713 4294967295
-0.05624821 0.056457318 0.713 4294967295
-0.15923801 0.044088658 0.542 4293707958
-0.15820488 0.044087104 0.542 4292136662
-0.15717177 0.044085544 0.542 4282070334
-0.15556255 0.043921318 0.54000002 4279372301
-0.15453331 0.043919768 0.54000002 4280885796
-0.15407258 0.044080868 0.542 4279571483
-0.15416899 0.044404622 0.546 4278190080
-0.15340884 0.044484369 0.54699999 4281872450
-0.15264487 0.044564106 0.54799998 4294307583
-0.15187718 0.044643857 0.54900002 4294967295
-0.15083089 0.044642266 0.54900002 4294967295
-0.14951186 0.044559371 0.54799998 4294967295
-0.14846757 0.044557799 0.54799998 4294967295
-0.14930645 0.045125369 0.55500001 4294967295
-0.1482489 0.045123771 0.55500001 4294967295
-0.14719136 0.045122173 0.55500001 4294506744
-0.14639717 0.045201879 0.55599999 4282992969
-0.14533781 0.045200285 0.55599999 4278190848
-0.14453797 0.045279976 0.55699998 4278258176
-0.14424953 0.04552225 0.56 4278456066
-0.14343837 0.045601942 0.56099999 4278190080
-0.14262341 0.045681618 0.56199998 4280942878
-0.1418047 0.045761302 0.56300002 4290482864
-0.14098218 0.045840979 0.56400001 4287734458
-0.13990784 0.045839369 0.56400001 4279839298
-0.13883355 0.045837775 0.56400001 4279894086
-0.13775931 0.04583618 0.56400001 4278386735
-0.13692747 0.045915857 0.565 4278190112
-0.13585141 0.045914266 0.565 4278190107
-0.13501392 0.045993935 0.56599998 4279500800
-0.13464598 0.046236128 0.56900001 4283443496
-0.13356243 0.046234544 0.56900001 4290084465
-0.13247894 0.046232954 0.56900001 4294426803
-0.13139549 0.046231367 0.56900001 4294436059
-0.1303121 0.046229798 0.56900001 4294964202
-0.12922876 0.046228226 0.56900001 4294967295
-0.12837067 0.046307903 0.56999999 4294967292
-0.13148089 0.048659012 0.59899998 4290562510
-0.1303407 0.048657391 0.59899998 4288851635
-0.12920055 0.048655782 0.59899998 4288784047
-0.12806046 0.048654176 0.59899998 4288520876
-0.12713233 0.048733801 0.60000002 4288322981
-0.12599044 0.048732199 0.60000002 4288322981
-0.12484861 0.048730608 0.60000002 4288651169
-0.12370683 0.048729021 0.60000002 4288782499
-0.1233822 0.049052298 0.60399997 4288650399
-0.12263769 0.049213141 0.60600001 4288650399
-0.12168513 0.049292769 0.60699999 4288650397
-0.12072884 0.049372409 0.60799998 4288650397
-0.12075213 0.049858056 0.61400002 4288650399
-0.11958408 0.049856484 0.61400002 4288584606
-0.11880179 0.05001732 0.616 4288189848
-0.11801194 0.050178148 0.61799997 4288255641
-0.11683645 0.050176594 0.61799997 4288321688
-0.11566103 0.050175052 0.61799997 4287992724
-0.1146709 0.05025471 0.61900002 4287991702
-0.11349369 0.050253179 0.61900002 4288057495
-0.11267943 0.05041403 0.62099999 4288254360
-0.11167807 0.050493699 0.62199998 4288517533
-0.11067298 0.050573371 0.62300003 4288780450
-0.10966413 0.050653052 0.62400001 4289307050
-0.11073765 0.051706806 0.63700002 4289045157
-0.10952657 0.051705293 0.63700002 4289637294
-0.10831556 0.051703796 0.63700002 4289637292
-0.10710459 0.051702317 0.63700002 4289769135
-0.10589371 0.051700845 0.63700002 4289965746
-0.10451853 0.051618218 0.63599998 4289899953
-0.10330964 0.051616766 0.63599998 4289965233
-0.10210085 0.051615331 0.63599998 4290293941
-0.10017194 0.053151518 0.65499997 4290424498
-0.099229395 0.053312391 0.65700001 4289767334
-0.097682782 0.053148702 0.65499997 4290227885
-0.096438289 0.053147316 0.65499997 4290163375
-0.095193855 0.053145945 0.65499997 4290294960
-0.093949474 0.053144574 0.65499997 4289965746
-0.092705168 0.053143222 0.65499997 4290097332
-0.091460921 0.053141899 0.65499997 4290557363
-0.090629928 0.053383969 0.65799999 4290820791
-0.089923427 0.053707168 0.662 4291215034
-0.08893393 0.053868115 0.66399997 4291675585
-0.087672815 0.053866819 0.66399997 4290690235
-0.086672045 0.054027792 0.66600001 4290887357
-0.08540725 0.054026525 0.66600001 4291018945
-0.084268853 0.054106388 0.667 4283057992
-0.083002277 0.054105155 0.667 4278190080
-0.08259356 0.054671738 0.67400002 4279177227
-0.081555083 0.054832738 0.676 4285744934
-0.080271587 0.054831527 0.676 4292455563
-0.07898815 0.054830335 0.676 4292924364
-0.077704757 0.05482915 0.676 4294108895
-0.076421425 0.054827988 0.676 4293847533
-0.075360447 0.054989051 0.67799997 4293189603
-0.074073441 0.054987922 0.67799997 4290300115
-0.073645309 0.055635616 0.68599999 4284707966
-0.0723432 0.055634499 0.68599999 4278200951
-0.071144722 0.055714507 0.68699998 4278196069
-0.071467407 0.057010971 0.70300001 4278190127
-0.07023295 0.057090972 0.704 4278851145
-0.068896905 0.057089902 0.704 4280688429
-0.067752838 0.057251029 0.70599997 4281148980
-0.06641309 0.057249986 0.70599997 4281281072
-0.065073393 0.057248965 0.70599997 4281215279
-0.063733749 0.057247963 0.70599997 4281019179
-0.062570907 0.057409152 0.708 4278190080
-0.06122756 0.057408176 0.708 4279828480
-0.059884261 0.057407223 0.708 4294759631
-0.058541011 0.057406288 0.708 4294967295
-0.057197805 0.057405371 0.708 4294967295
-0.055854645 0.05740447 0.708 4294967295
-0.15659338 0.044949181 0.54000002 4278190091
-0.15556408 0.044947609 0.54000002 4279372301
-0.15453485 0.044946034 0.54000002 4279832852
-0.15407418 0.045110922 0.542 4278321416
-0.15417059 0.045442257 0.546 4280887343
-0.15341043 0.045523886 0.54699999 4282659212
-0.15236792 0.045522291 0.54699999 4294963967
-0.1516021 0.04560392 0.54799998 4294967295
-0.1508325 0.045685545 0.54900002 4294967295
-0.14951345 0.045600723 0.54799998 4294967295
-0.14846914 0.045599122 0.54799998 4294967295
-0.14903903 0.046096776 0.55400002 4294967295
-0.1479834 0.046095166 0.55400002 4294966011
-0.14719296 0.04617675 0.55500001 4294505949
-0.14613549 0.046175137 0.55500001 4279439360
-0.1453394 0.046256717 0.55599999 4278190080
-0.14428008 0.046255104 0.55599999 4279045389
-0.14347839 0.046336684 0.55699998 4278387968
-0.14267293 0.046418261 0.55800003 4278519296
-0.14211746 0.046583015 0.56 4284368992
-0.14130253 0.046664577 0.56099999 4294963455
-0.14048383 0.046746138 0.56199998 4294966271
-0.1396614 0.046827704 0.56300002 4294570488
-0.13858901 0.046826087 0.56300002 4293126374
-0.13776091 0.046907634 0.56400001 4288389278
-0.13668671 0.046906032 0.56400001 4282538135
-0.13585301 0.046987582 0.565 4278190139
-0.13477698 0.046985973 0.565 4278190099
-0.13441093 0.047233846 0.56800002 4278190098
-0.13356403 0.0473154 0.56900001 4278321152
-0.13248055 0.047313794 0.56900001 4278976512
-0.13139708 0.047312189 0.56900001 4282908672
-0.13031369 0.047310598 0.56900001 4291655540
-0.12923034 0.047309011 0.56900001 4292327074
-0.12837224 0.047390554 0.56999999 4294959307
-0.1275104 0.047472112 0.57099998 4294963955
-0.12920216 0.0497934 0.59899998 4293520099
-0.12806208 0.049791779 0.59899998 4291348930
-0.12692203 0.049790151 0.59899998 4289441728
-0.12578203 0.049788531 0.59899998 4288191661
-0.1246421 0.049786925 0.59899998 4287929511
-0.12350223 0.049785327 0.59899998 4288192426
-0.12277098 0.049949955 0.60100001 4288782499
-0.12223451 0.050197683 0.60399997 4288848292
-0.12108531 0.050196096 0.60399997 4288914078
-0.12053185 0.050443821 0.60699999 4289111200
-0.11977038 0.050608445 0.60900003 4288913828
-0.11900134 0.050773062 0.611 4288847779
-0.1180319 0.050854586 0.61199999 4288716446
-0.11705871 0.050936099 0.61299998 4288650397
-0.11627084 0.051100727 0.61500001 4288716183
-0.11528824 0.051182251 0.616 4288650390
-0.11448717 0.051346872 0.61799997 4288386209
-0.11349522 0.051428415 0.61900002 4288188831
-0.11249949 0.051509958 0.62 4288714657
-0.11150003 0.051591504 0.62099999 4289241001
-0.11049683 0.051673058 0.62199998 4289241253
-0.10913839 0.051588476 0.62099999 4289701804
-0.10795765 0.051586967 0.62099999 4289505195
-0.10935613 0.052831504 0.63599998 4289899953
-0.10814699 0.052829985 0.63599998 4289965744
-0.10693794 0.052828487 0.63599998 4289965744
-0.10572892 0.052826989 0.63599998 4290096562
-0.10435566 0.052742455 0.63499999 4290096562
-0.10314867 0.052740991 0.63499999 4290096562
-0.10194173 0.052739535 0.63499999 4290622906
-0.10089352 0.052821152 0.63599998 4290228148
-0.099684812 0.052819718 0.63599998 4290096562
-0.10064388 0.053980961 0.64999998 4290425782
-0.09925577 0.053896483 0.64899999 4290688953
-0.098022535 0.053895064 0.64899999 4290359986
-0.097535044 0.054308854 0.65399998 4290228400
-0.096292451 0.054307453 0.65399998 4290426036
-0.095049888 0.054306064 0.65399998 4290820537
-0.093807407 0.054304674 0.65399998 4290557881
-0.092564985 0.054303315 0.65399998 4290492088
-0.091043353 0.054135907 0.65200001 4290951609
-0.089804828 0.05413457 0.65200001 4291214782
-0.08856637 0.054133244 0.65200001 4291411643
-0.087327965 0.054131944 0.65200001 4291872194
-0.087674126 0.055126932 0.66399997 4291478201
-0.086673334 0.055291668 0.66600001 4291215286
-0.085408531 0.05529039 0.66600001 4291084742
-0.084270112 0.05537213 0.667 4284044891
-0.083003521 0.055370867 0.667 4278979090
-0.082227156 0.055701666 0.671 4278190081
-0.081073731 0.055783451 0.67199999 4280352768
-0.079797812 0.055782236 0.67199999 4280549376
-0.078521952 0.055781025 0.67199999 4284040960
-0.077476047 0.055945851 0.67400002 4289172796
-0.076309547 0.056027681 0.67500001 4292264363
-0.075139306 0.056109514 0.676 4294967277
-0.074074574 0.056274366 0.67799997 4294967294
-0.072894946 0.056356236 0.67900002 4294967294
-0.071711577 0.056438114 0.68000001 4292139772
-0.070835136 0.056768987 0.68400002 4288257729
-0.069740243 0.056933876 0.68599999 4282996358
-0.068438292 0.056932811 0.68599999 4278190385
-0.067234248 0.057014726 0.68699998 4278190092
-0.067178093 0.058092549 0.69999999 4278190104
-0.065567493 0.057842534 0.69700003 4279439391
-0.064244859 0.057841513 0.69700003 4280558128
-0.063012555 0.057923488 0.69800001 4280821023
-0.061864864 0.058088459 0.69999999 4278190080
-0.060882602 0.058419414 0.704 4279828480
-0.059462294 0.058335468 0.70300001 4293180345
-0.058128506 0.058334526 0.70300001 4294967295
-0.057198718 0.058748499 0.708 4294967295
-0.055855542 0.058747582 0.708 4294967295
-0.1554971 0.046566665 0.54699999 4278190080
-0.15445453 0.046565052 0.54699999 4283060041
-0.15313157 0.04647832 0.546 4289237408
-0.15209098 0.046476711 0.546 4294966271
-0.15160371 0.046645336 0.54799998 4294967295
-0.15055937 0.046643719 0.54799998 4294967295
-0.14951503 0.046642102 0.54799998 4294966783
-0.14847074 0.046640482 0.54799998 4294967295
-0.14904067 0.047149524 0.55400002 4294967295
-0.147985 0.047147892 0.55400002 4294308338
-0.1469294 0.047146268 0.55400002 4291282885
-0.14587377 0.047144625 0.55400002 4278190080
-0.14507964 0.047228094 0.55500001 4278190080
-0.1440222 0.04722647 0.55500001 4279375372
-0.14322239 0.047309924 0.55599999 4278190080
-0.14216317 0.047308307 0.55599999 4279504143
-0.1416115 0.047476843 0.55800003 4287195011
-0.1408004 0.047560301 0.55900002 4294964479
-0.1402355 0.047728818 0.56099999 4294967295
-0.13941495 0.047812264 0.56199998 4294967295
-0.13834447 0.047810633 0.56199998 4294967295
-0.13751829 0.047894072 0.56300002 4292927206
-0.13668832 0.047977507 0.56400001 4287740366
-0.13585463 0.048060942 0.565 4283200648
-0.1347786 0.048059318 0.565 4281613671
-0.13393927 0.04814275 0.56599998 4278190893
-0.13309616 0.048226174 0.56699997 4278190121
-0.13224931 0.048309617 0.56800002 4278190115
-0.13116777 0.048308 0.56800002 4278190080
-0.13031527 0.048391428 0.56900001 4279241737
-0.12923193 0.048389822 0.56900001 4288106816
-0.12837385 0.048473254 0.56999999 4292843912
-0.12728867 0.048471652 0.56999999 4294299844
-0.12642498 0.048555091 0.57099998 4294963684
-0.12784992 0.050844405 0.59799999 4293321439
-0.12671177 0.050842758 0.59799999 4291022281
-0.12578365 0.050926138 0.59899998 4289114284
-0.12464372 0.050924513 0.59899998 4289111219
-0.12350386 0.050922893 0.59899998 4288913839
-0.12256829 0.051006284 0.60000002 4288717478
-0.12183139 0.051174693 0.602 4288651685
-0.12088641 0.051258087 0.60299999 4289044644
-0.12033487 0.051511496 0.60600001 4289176230
-0.11918195 0.051509894 0.60600001 4289045157
-0.11880817 0.051848289 0.61000001 4288913828
-0.11784062 0.051931687 0.611 4288781985
-0.11667836 0.051930103 0.611 4288716192
-0.11589429 0.052098498 0.61299998 4288781985
-0.11491552 0.052181922 0.61400002 4288650399
-0.11411823 0.052350316 0.616 4288452253
-0.11331341 0.052518722 0.61799997 4288583839
-0.11231959 0.05260215 0.61900002 4289174947
-0.11114249 0.052600596 0.61900002 4289306533
-0.11014306 0.052684028 0.62 4289241253
-0.10896418 0.052682497 0.62 4289701804
-0.10795917 0.052765951 0.62099999 4289636011
-0.10695041 0.052849401 0.62199998 4289965233
-0.10576791 0.052847903 0.62199998 4290359990
-0.1047536 0.05293138 0.62300003 4290162355
-0.10506548 0.053694535 0.63200003 4290292658
-0.10386411 0.053693041 0.63200003 4290358451
-0.10266282 0.053691562 0.63200003 4290096049
-0.10178266 0.05385999 0.634 4290622393
-0.10057768 0.053858537 0.634 4290557111
-0.099372767 0.053857088 0.634 4290622904
-0.098167904 0.05385565 0.634 4290623930
-0.097268999 0.054024123 0.63599998 4290557881
-0.098023966 0.055126946 0.64899999 4290360500
-0.097387336 0.05546527 0.653 4290426549
-0.095557652 0.055124097 0.64899999 4290558394
-0.094324589 0.055122696 0.64899999 4290624443
-0.093235023 0.055206232 0.64999998 4290887100
-0.092000194 0.055204868 0.64999998 4291018686
-0.090765417 0.055203501 0.64999998 4291543999
-0.089530684 0.055202153 0.64999998 4291412156
-0.088296004 0.055200823 0.64999998 4291608247
-0.087061398 0.0551995 0.64999998 4292200127
-0.085826851 0.0551982 0.64999998 4291740606
-0.084592357 0.0551969 0.64999998 4291280055
-0.085538052 0.056639206 0.667 4291018949
-0.084271386 0.05663792 0.667 4284834151
-0.083502568 0.056976292 0.671 4280229667
-0.082228415 0.056975029 0.671 4278650379
-0.081074968 0.057058677 0.67199999 4278519045
-0.079799034 0.05705744 0.67199999 4278190080
-0.078523152 0.057056215 0.67199999 4278190080
-0.077247344 0.057055011 0.67199999 4279834124
-0.076197669 0.057223622 0.67400002 4287781712
-0.075140461 0.057392232 0.676 4294229170
-0.074075714 0.057560872 0.67799997 4293650392
-0.072896078 0.057644621 0.67900002 4293650392
-0.071712695 0.057728373 0.68000001 4293584625
-0.070732698 0.057981938 0.68300003 4292137179
-0.06953802 0.058065716 0.68400002 4289639888
-0.068239838 0.058064628 0.68400002 4284179069
-0.067235313 0.058318216 0.68699998 4278986871
-0.066603325 0.058911365 0.69400001 4278192986
-0.065286316 0.05891031 0.69400001 4278190137
-0.063969359 0.058909267 0.69400001 4278915155
-0.062832996 0.059078015 0.69599998 4280686114
-0.061512332 0.05907701 0.69599998 4278190080
-0.060537651 0.059415545 0.69999999 4280156160
-0.059209503 0.059414573 0.69999999 4292916142
-0.057881389 0.059413616 0.69999999 4294176487
-0.056553323 0.059412684 0.69999999 4294967295
-0.1523717 0.046648949 0.53600001 4278190080
-0.15417381 0.047517635 0.546 4286942595
-0.1531332 0.047516011 0.546 4288779982
-0.15209258 0.047514379 0.546 4294965759
-0.15160532 0.047686785 0.54799998 4294967295
-0.15056098 0.047685158 0.54799998 4294967295
-0.14924385 0.047596518 0.54699999 4294967295
-0.14820148 0.047594883 0.54699999 4294967295
-0.14715907 0.047593247 0.54699999 4294967295
-0.14798665 0.048200659 0.55400002 4292861149
-0.14693101 0.048199002 0.55400002 4291347106
-0.14587544 0.048197359 0.55400002 4278190080
-0.14481986 0.048195709 0.55400002 4278321666
-0.14376435 0.048194066 0.55400002 4279703319
-0.14296645 0.048279412 0.55500001 4278190080
-0.14190909 0.048277762 0.55500001 4284177243
-0.14110558 0.048363108 0.55599999 4286802094
-0.14029829 0.048448447 0.55699998 4294964223
-0.13973719 0.04862076 0.55900002 4294967295
-0.1391685 0.048793055 0.56099999 4294967294
-0.13834609 0.048878383 0.56199998 4294967295
-0.13751993 0.048963703 0.56300002 4294967295
-0.13668996 0.04904902 0.56400001 4294967295
-0.13585626 0.04913434 0.565 4294967295
-0.13478023 0.049132694 0.565 4294836217
-0.13370425 0.049131047 0.565 4290494391
-0.1330978 0.049303319 0.56699997 4286615472
-0.13225093 0.049388632 0.56800002 4280496723
-0.13116939 0.049386993 0.56800002 4278190126
-0.13008788 0.049385358 0.56800002 4278190119
-0.12923355 0.049470671 0.56900001 4278190080
-0.12815022 0.049469046 0.56900001 4278714368
-0.12729029 0.049554367 0.56999999 4281794560
-0.12620518 0.049552754 0.56999999 4289224542
-0.12512012 0.049551141 0.56999999 4291076227
-0.1240351 0.049549535 0.56999999 4294563000
-0.12359724 0.049808718 0.57300001 4294966503
-0.12162792 0.049892437 0.574 4294967029
-0.1205355 0.049890846 0.574 4294965744
-0.11944313 0.049889263 0.574 4294177259
-0.118557 0.049974598 0.57499999 4291545795
-0.11746284 0.049973037 0.57499999 4289639359
-0.121833 0.052317951 0.602 4288586671
-0.12088805 0.05240323 0.60299999 4288651946
-0.11974077 0.05240161 0.60299999 4288849325
-0.11879021 0.052486885 0.60399997 4288650920
-0.11764114 0.052485276 0.60399997 4288782249
-0.11726362 0.052831255 0.60799998 4288650922
-0.11648899 0.053003434 0.61000001 4288650922
-0.11551775 0.053088725 0.611 4288913835
-0.1143556 0.053087145 0.611 4288979884
-0.11374929 0.053346206 0.61400002 4288978851
-0.11276492 0.053431515 0.61500001 4289044644
-0.11177678 0.053516813 0.616 4289240740
-0.11060537 0.053515255 0.616 4289701291
-0.10978929 0.053687442 0.61799997 4290096812
-0.10878994 0.053772777 0.61900002 4290228398
-0.10778684 0.053858101 0.62 4290031537
-0.10677999 0.05394344 0.62099999 4290031537
-0.10559935 0.05394192 0.62099999 4290163125
-0.10441878 0.053940412 0.62099999 4289965746
-0.10506697 0.054894354 0.63200003 4290096564
-0.1038656 0.054892838 0.63200003 4290359736
-0.1026643 0.054891348 0.63200003 4290294454
-0.10146306 0.054889854 0.63200003 4290163125
-0.10057915 0.055062074 0.634 4290557113
-0.099374235 0.05506061 0.634 4290754492
-0.098169349 0.05505915 0.634 4290820537
-0.097270414 0.055231396 0.63599998 4290754744
-0.096061885 0.055229962 0.63599998 4290558646
-0.09515167 0.055402216 0.63800001 4290624439
-0.094381154 0.055661313 0.64099997 4290493371
-0.093453951 0.055833571 0.64300001 4290032820
-0.093236431 0.056439992 0.64999998 4290886333
-0.092001565 0.056438591 0.64999998 4291149504
-0.090627134 0.056350384 0.64899999 4291412410
-0.089394286 0.056349017 0.64899999 4292136134
-0.088161491 0.056347676 0.64899999 4292005052
-0.086928777 0.056346338 0.64899999 4291873209
-0.085696124 0.056345023 0.64899999 4291807164
-0.084463514 0.056343712 0.64899999 4291017904
-0.083359197 0.056429233 0.64999998 4290887879
-0.082124807 0.056427956 0.64999998 4285361267
-0.080890462 0.056426693 0.64999998 4279576371
-0.079656169 0.056425441 0.64999998 4278190606
-0.081076227 0.058333952 0.67199999 4278193935
-0.079681523 0.058245897 0.671 4279115809
-0.078407533 0.058244657 0.671 4279635226
-0.077248551 0.058330242 0.67199999 4278190082
-0.076198876 0.058502637 0.67400002 4280090624
-0.075141653 0.058675028 0.676 4280680448
-0.073858373 0.058673844 0.676 4278910976
-0.07278987 0.058846265 0.67799997 4286077533
-0.071502902 0.058845107 0.67799997 4288975766
-0.070630252 0.059191141 0.68199998 4294964985
-0.069437459 0.059276812 0.68300003 4294967039
-0.06814117 0.059275705 0.68300003 4294834430
-0.066942781 0.059361406 0.68400002 4292599026
-0.066316485 0.05996782 0.69099998 4289309376
-0.065005146 0.059966754 0.69099998 4284901271
-0.063693859 0.059965696 0.69099998 4278453813
-0.062382631 0.059964679 0.69099998 4278190105
-0.061513335 0.060397547 0.69599998 4278190102
-0.060365673 0.060570102 0.69800001 4278190080
-0.059041295 0.060569126 0.69800001 4288782753
-0.057716966 0.060568165 0.69800001 4293845455
-0.15368107 0.047758229 0.537 4278190080
-0.1523733 0.047667682 0.53600001 4278190080
-0.15135172 0.047666073 0.53600001 4287928979
-0.15061063 0.047753379 0.537 4293318361
-0.14986575 0.047840685 0.53799999 4294966013
-0.14884043 0.047839068 0.53799999 4294966270
-0.14781514 0.047837444 0.53799999 4294967295
-0.14678986 0.047835823 0.53799999 4294967295
-0.14820309 0.04863441 0.54699999 4294967295
-0.14716072 0.048632763 0.54699999 4294967295
-0.14371426 0.047830965 0.53799999 4290558135
-0.14693268 0.049251784 0.55400002 4288908677
-0.14587709 0.049250115 0.55400002 4278910976
-0.14482152 0.04924845 0.55400002 4278521612
-0.14376599 0.049246784 0.55400002 4278323976
-0.14271051 0.049245123 0.55400002 4278190080
-0.14165507 0.049243461 0.55400002 4287071885
-0.14085343 0.049330685 0.55500001 4290622395
-0.14004806 0.049417906 0.55599999 4294967295
-0.13898891 0.049416255 0.55599999 4294967295
-0.13817787 0.049503468 0.55699998 4294966269
-0.13736308 0.049590688 0.55800003 4294967295
-0.13727731 0.049944498 0.56199998 4294835709
-0.13644928 0.050031703 0.56300002 4294967030
-0.135377 0.050030041 0.56300002 4294967295
-0.13454334 0.050117243 0.56400001 4294967295
-0.13346925 0.050115578 0.56400001 4294703605
-0.13262996 0.050202776 0.565 4291355119
-0.1317869 0.05028997 0.56599998 4287604918
-0.13070916 0.05028832 0.56599998 4282019216
-0.12963146 0.050286677 0.56599998 4278190372
-0.12878093 0.050373875 0.56699997 4278190099
-0.12770143 0.050372235 0.56699997 4278190096
-0.12684529 0.050459441 0.56800002 4278190080
-0.12598537 0.050546639 0.56900001 4278321152
-0.12490222 0.050545014 0.56900001 4285671936
-0.12403669 0.050632216 0.56999999 4291724888
-0.12316743 0.050719418 0.57099998 4293640364
-0.12208061 0.050717808 0.57099998 4294964705
-0.12120575 0.050805021 0.57200003 4294967281
-0.12053709 0.050981048 0.574 4294967281
-0.11944473 0.05097945 0.574 4294967295
-0.11855859 0.051066659 0.57499999 4293650404
-0.1174644 0.051065065 0.57499999 4291679190
-0.11657268 0.051152293 0.57599998 4289902779
-0.11567719 0.051239524 0.57700002 4289571518
-0.11457939 0.051237959 0.57700002 4289045173
-0.11348162 0.05123638 0.57700002 4288520617
-0.11238391 0.051234826 0.57700002 4288717739
-0.11147913 0.051322073 0.57800001 4288783782
-0.11649062 0.054161806 0.61000001 4288915624
-0.11533029 0.054160189 0.61000001 4289506480
-0.11435719 0.054247361 0.611 4289243052
-0.11338036 0.054334536 0.61199999 4288848033
-0.11239977 0.054421727 0.61299998 4289110948
-0.11123397 0.054420143 0.61299998 4289569191
-0.11060695 0.054684896 0.616 4290358451
-0.10979087 0.054860868 0.61799997 4290163888
-0.10861574 0.054859292 0.61799997 4290295731
-0.10761454 0.054946501 0.61900002 4290229686
-0.10643764 0.054944962 0.61900002 4290229686
-0.10543084 0.055032186 0.62 4290492090
-0.10425215 0.055030663 0.62 4290163125
-0.10323976 0.055117894 0.62099999 4289834676
-0.10353844 0.055915184 0.63 4290295227
-0.1023409 0.055913661 0.63 4290361785
-0.10146454 0.056089662 0.63200003 4290295992
-0.10026334 0.056088168 0.63200003 4290557111
-0.099375695 0.056264173 0.634 4290820539
-0.098170817 0.056262698 0.634 4290820539
-0.097118929 0.056349974 0.63499999 4290754746
-0.096063294 0.056437261 0.63599998 4290558396
-0.095003948 0.056524564 0.63700002 4290953154
-0.093940854 0.056611862 0.63800001 4290691266
-0.093019344 0.056787908 0.63999999 4290428093
-0.092950948 0.057496335 0.648 4291017916
-0.091861434 0.057583652 0.64899999 4291215295
-0.090628505 0.057582259 0.64899999 4291346363
-0.089395665 0.057580866 0.64899999 4291938501
-0.088162854 0.057579491 0.64899999 4291808452
-0.086930111 0.057578143 0.64899999 4291808452
-0.085697435 0.057576798 0.64899999 4291479748
-0.084464818 0.057575479 0.64899999 4291282626
-0.083232239 0.057574168 0.64899999 4291021516
-0.082126081 0.057661586 0.64999998 4285429111
-0.080891728 0.057660304 0.64999998 4280759103
-0.079902522 0.057836454 0.65200001 4278190087
-0.078664474 0.057835203 0.65200001 4278191360
-0.079682782 0.059519317 0.671 4279969812
-0.078408763 0.059518047 0.671 4280029511
-0.077249758 0.059605505 0.67199999 4278190123
-0.075973958 0.05960428 0.67199999 4278190080
-0.075031683 0.059869163 0.67500001 4278190080
-0.073750302 0.059867971 0.67500001 4278190112
-0.072576307 0.059955478 0.676 4278914623
-0.071293131 0.059954319 0.676 4285348872
-0.070424259 0.060307924 0.68000001 4292915067
-0.06913358 0.060306787 0.68000001 4293910230
-0.068042494 0.060483038 0.68199998 4293976023
-0.066845998 0.060570624 0.68300003 4293912306
-0.066029638 0.061012939 0.68800002 4293385962
-0.064723991 0.061011866 0.68800002 4290626779
-0.063418373 0.061010808 0.68800002 4285232009
-0.062112808 0.061009765 0.68800002 4279644804
-0.06098406 0.061186094 0.69 4278190158
-0.059934251 0.061451111 0.69300002 4278190080
-0.058703925 0.061538801 0.69400001 4286743686
-0.057552546 0.061715163 0.69599998 4292200116
-0.15033178 0.048683204 0.53600001 4293978862
-0.14958881 0.048772387 0.537 4294967295
-0.1485654 0.048770759 0.537 4294967294
-0.14754201 0.04876912 0.537 4294967294
-0.14651865 0.048767488 0.537 4294967295
-0.14549533 0.048765846 0.537 4294967295
-0.14474106 0.048855025 0.53799999 4294967295
-0.14371589 0.048853382 0.53799999 4289439652
-0.14269073 0.048851747 0.53799999 4285948246
-0.14587878 0.050302912 0.55400002 4278910976
-0.14482321 0.050301231 0.55400002 4279440147
-0.14376767 0.050299548 0.55400002 4278190080
-0.14271218 0.05029786 0.55400002 4278190080
-0.14165674 0.050296187 0.55400002 4288520613
-0.14085512 0.050385289 0.55500001 4291477198
-0.13979784 0.050383605 0.55500001 4294967295
-0.1387406 0.05038194 0.55500001 4294967295
-0.13768339 0.05038026 0.55500001 4294967039
-0.13736476 0.050650913 0.55800003 4294375408
-0.13727897 0.0510123 0.56199998 4285493353
-0.13645096 0.051101394 0.56300002 4286081604
-0.1353787 0.05109971 0.56300002 4290226562
-0.13430646 0.05109803 0.56300002 4293647528
-0.13347092 0.051187105 0.56400001 4294967249
-0.13239689 0.051185437 0.56400001 4294967295
-0.13132288 0.051183753 0.56400001 4294967295
-0.13047987 0.051272847 0.565 4294177023
-0.12940408 0.051271174 0.565 4292992499
-0.12832832 0.051269524 0.565 4290561215
-0.12747784 0.051358607 0.56599998 4284903017
-0.12662362 0.051447693 0.56699997 4278190182
-0.12576561 0.05153678 0.56800002 4278190171
-0.12490384 0.051625859 0.56900001 4278190080
-0.12403833 0.051714942 0.56999999 4278190080
-0.12295336 0.05171331 0.56999999 4282318848
-0.12186842 0.051711671 0.56999999 4285540636
-0.12099544 0.051800769 0.57099998 4287322472
-0.12032872 0.051980589 0.57300001 4293309635
-0.11944632 0.052069679 0.574 4294502608
-0.11835401 0.052068062 0.574 4294967271
-0.117466 0.052157156 0.57499999 4294966270
-0.11657427 0.052246258 0.57599998 4294966270
-0.11567879 0.052335374 0.57700002 4294440690
-0.11458097 0.052333776 0.57700002 4292400850
-0.11348319 0.052332193 0.57700002 4290559430
-0.11238547 0.052330613 0.57700002 4289111984
-0.11128782 0.052329052 0.57700002 4288258724
-0.11630128 0.055229533 0.60900003 4288587688
-0.11514285 0.055227898 0.60900003 4288850344
-0.11417165 0.055316951 0.61000001 4288850344
-0.11301143 0.055315331 0.61000001 4289308584
-0.11203466 0.055404406 0.611 4289374377
-0.11087265 0.0554028 0.611 4289636279
-0.11006983 0.055582549 0.61299998 4290425795
-0.10925949 0.055762313 0.61500001 4290492340
-0.10809006 0.055760734 0.61500001 4290492340
