# .PCD v0.7 - Point Cloud Data file format
VERSION 0.7
FIELDS x y z rgba
SIZE 4 4 4 4
TYPE F F F U
COUNT 1 1 1 1
WIDTH 1042
HEIGHT 1
VIEWPOINT 0 0 0 1 0 0 0
POINTS 1042
DATA ascii
0.079260156 -0.092976451 0.67000002 4294967295
0.080531411 -0.092977211 0.67000002 4294967295
0.081924811 -0.09311673 0.671 4294967295
0.083198041 -0.093117498 0.671 4294967295
0.084471323 -0.09311828 0.671 4294967295
0.086255819 -0.09367419 0.67500001 4294967295
0.08753676 -0.093674995 0.67500001 4294967295
0.088949367 -0.093814582 0.676 4294967295
0.090632752 -0.094231755 0.67900002 4294967295
-0.006122069 -0.095927179 0.70099998 4288845964
-0.0047454853 -0.094969124 0.69400001 4289438886
-0.0034300424 -0.094968945 0.69400001 4293386210
-0.0021115595 -0.094831981 0.69300002 4294242011
-0.00079802488 -0.094831839 0.69300002 4294899942
0.00051550422 -0.09483172 0.69300002 4294571240
0.0018237503 -0.094557941 0.69099998 4294439654
0.0031198766 -0.094147325 0.68800002 4294374129
0.004411058 -0.093873575 0.68599999 4294374129
0.0056863315 -0.093463004 0.68300003 4294505197
0.0069706719 -0.093326114 0.68199998 4294505197
0.0082633393 -0.093326099 0.68199998 4294701806
0.0095560066 -0.093326084 0.68199998 4294965749
0.010785049 -0.092778742 0.67799997 4294899442
0.012034536 -0.09250509 0.676 4294899442
0.013276445 -0.09223146 0.67400002 4294768369
0.014510777 -0.091957822 0.67199999 4294768369
0.015784506 -0.091957904 0.67199999 4294637299
0.017058246 -0.091957994 0.67199999 4294966778
0.018304715 -0.091821253 0.671 4294966001
0.019576572 -0.09182138 0.671 4294966516
0.020817373 -0.091684677 0.67000002 4294965750
0.021988455 -0.091274291 0.667 4294966522
0.023252761 -0.091274455 0.667 4294967037
0.024517076 -0.091274634 0.667 4294967295
0.025781408 -0.091274828 0.667 4294967035
0.027005201 -0.091138192 0.66600001 4294967294
0.028267659 -0.091138422 0.66600001 4294967294
0.029530134 -0.091138653 0.66600001 4294967037
0.030700155 -0.090865232 0.66399997 4294967039
0.031910744 -0.090728655 0.66299999 4294967295
0.033167578 -0.090728931 0.66299999 4294967293
0.034372516 -0.090592392 0.662 4294967294
0.035627488 -0.09059269 0.662 4294967294
0.036882486 -0.09059301 0.662 4294967294
0.038137507 -0.090593345 0.662 4294967294
0.03921403 -0.090183161 0.65899998 4294967295
0.040463395 -0.090183511 0.65899998 4294967295
0.041839395 -0.090457596 0.66100001 4294967295
0.04296222 -0.090184286 0.65899998 4294967295
0.044211652 -0.090184689 0.65899998 4294967295
0.045461122 -0.090185106 0.65899998 4294967295
0.046852384 -0.090459242 0.66100001 4294967295
0.048105687 -0.090459697 0.66100001 4294967295
0.049209677 -0.090186432 0.65899998 4294967295
0.050459247 -0.090186916 0.65899998 4294967295
0.051708847 -0.090187401 0.65899998 4294967295
0.052958477 -0.090187885 0.65899998 4294967295
0.054208145 -0.090188399 0.65899998 4294967295
0.055626146 -0.090462647 0.66100001 4294967295
0.056965705 -0.090600036 0.662 4294967295
0.058309089 -0.09073744 0.66299999 4294967295
0.059566464 -0.090738021 0.66299999 4294967295
0.060823865 -0.09073858 0.66299999 4294967295
0.062081303 -0.090739176 0.66299999 4294967295
0.063338764 -0.090739757 0.66299999 4294967295
0.064498849 -0.090603508 0.662 4294967295
0.065754496 -0.090604134 0.662 4294967295
0.067111403 -0.090741627 0.66299999 4294967295
0.068369016 -0.090742268 0.66299999 4294967295
0.069731683 -0.090879783 0.66399997 4294967295
0.071205102 -0.091154188 0.66600001 4294967295
0.072468519 -0.091154866 0.66600001 4294967295
0.073842689 -0.091292426 0.667 4294967295
0.075220682 -0.091429994 0.66799998 4294967295
0.076488018 -0.091430709 0.66799998 4294967295
0.077755384 -0.091431424 0.66799998 4294967295
0.07902281 -0.091432162 0.66799998 4294967295
0.080530651 -0.091706641 0.67000002 4294967295
0.081801951 -0.091707401 0.67000002 4294967295
0.083073281 -0.091708161 0.67000002 4294967295
0.084344663 -0.091708943 0.67000002 4294967295
0.086127229 -0.092257231 0.67400002 4294967295
0.087406285 -0.092258021 0.67400002 4294967295
0.088816971 -0.092395708 0.67500001 4294967295
0.090498447 -0.092807159 0.67799997 4294967295
-0.0061218822 -0.094598219 0.70099998 4289637015
-0.0047931783 -0.094598033 0.70099998 4291083696
-0.0034298878 -0.093653254 0.69400001 4294373346
-0.0021114212 -0.093518153 0.69300002 4294177000
-0.00079790299 -0.093518026 0.69300002 4294571758
0.00051412219 -0.093248017 0.69099998 4294505195
0.0018212008 -0.093112975 0.69 4294439402
0.0031108805 -0.092573114 0.68599999 4294505197
0.0043982556 -0.092303149 0.68400002 4294505197
0.0056863734 -0.092168167 0.68300003 4294636013
0.0069400356 -0.091628335 0.67900002 4294636013
0.0081906505 -0.091223478 0.676 4294701806
0.0094719324 -0.091223478 0.676 4294965235
0.010737307 -0.091088556 0.67500001 4294899953
0.011998896 -0.090953641 0.67400002 4294834160
0.013236996 -0.090683773 0.67199999 4294439402
0.014510711 -0.09068384 0.67199999 4294637038
0.015784426 -0.090683915 0.67199999 4294636786
0.017032765 -0.090549059 0.671 4294768115
0.018304601 -0.090549149 0.671 4294833649
0.019547272 -0.090414345 0.67000002 4294965235
0.02081723 -0.090414472 0.67000002 4294768369
0.021988293 -0.090009756 0.667 4294966776
0.023252584 -0.090009928 0.667 4294967035
0.024516886 -0.090010099 0.667 4294967035
0.025781203 -0.090010308 0.667 4294966778
0.027004985 -0.089875557 0.66600001 4294967292
0.028267432 -0.089875787 0.66600001 4294967295
0.02952989 -0.089876011 0.66600001 4294967294
0.030699898 -0.089606367 0.66399997 4294966780
0.031910468 -0.089471668 0.66299999 4294967295
0.033117272 -0.089337029 0.662 4294967292
0.034372211 -0.089337289 0.662 4294967292
0.03557336 -0.089202657 0.66100001 4294967294
0.036826447 -0.089202978 0.66100001 4294967294
0.037964337 -0.088933401 0.65899998 4294967293
0.039154168 -0.088798806 0.65799999 4294967295
0.04040163 -0.088799156 0.65799999 4294967295
0.041712414 -0.088934481 0.65899998 4294967295
0.042896632 -0.088799909 0.65799999 4294967295
0.044144165 -0.088800311 0.65799999 4294967295
0.045391716 -0.088800728 0.65799999 4294967295
0.046639297 -0.088801146 0.65799999 4294967295
0.047959689 -0.088936545 0.65899998 4294967295
0.049134549 -0.08880204 0.65799999 4294967295
0.050382204 -0.088802502 0.65799999 4294967295
0.051629901 -0.088802993 0.65799999 4294967295
0.05287762 -0.088803463 0.65799999 4294967295
0.05412538 -0.088803969 0.65799999 4294967295
0.055457305 -0.088939428 0.65899998 4294967295
0.056879118 -0.089209892 0.66100001 4294967295
0.058132645 -0.089210428 0.66100001 4294967295
0.059476055 -0.089345954 0.662 4294967295
0.060823292 -0.08948148 0.66299999 4294967295
0.062080704 -0.089482039 0.66299999 4294967295
0.063338175 -0.089482635 0.66299999 4294967295
0.064498238 -0.089348271 0.662 4294967295
0.06575387 -0.089348882 0.662 4294967295
0.067009546 -0.089349508 0.662 4294967295
0.068368375 -0.089485116 0.66299999 4294967295
0.069731034 -0.089620717 0.66399997 4294967295
0.0709906 -0.089621373 0.66399997 4294967295
0.07225021 -0.089622043 0.66399997 4294967295
0.073731288 -0.089892678 0.66600001 4294967295
0.075107381 -0.090028338 0.667 4294967295
0.076487303 -0.090163998 0.66799998 4294967295
0.077754661 -0.090164714 0.66799998 4294967295
0.07902208 -0.090165451 0.66799998 4294967295
0.08028952 -0.090166159 0.66799998 4294967295
0.081557006 -0.090166889 0.66799998 4294967295
0.082824543 -0.090167649 0.66799998 4294967295
0.08409211 -0.090168417 0.66799998 4294967295
0.085359737 -0.090169184 0.66799998 4294967295
0.087016448 -0.090574913 0.671 4294967295
0.088289849 -0.090575695 0.671 4294967295
0.090497635 -0.091521405 0.67799997 4294967295
-0.0060605668 -0.092337914 0.69400001 4292926152
-0.0047451472 -0.092337742 0.69400001 4293780695
-0.0034297362 -0.092337593 0.69400001 4294767590
-0.0021112852 -0.092204385 0.69300002 4294439404
-0.0007954801 -0.091938153 0.69099998 4294439404
0.00051199395 -0.091538899 0.68800002 4294439402
0.0018160101 -0.091538802 0.68800002 4294571244
0.0031109534 -0.091272615 0.68599999 4294439404
0.0043983124 -0.091006465 0.68400002 4294373611
0.0056447857 -0.090208098 0.67799997 4294636013
0.00692984 -0.090208061 0.67799997 4294636013
0.0081906617 -0.089941956 0.676 4294701806
0.0094579151 -0.089808889 0.67500001 4294701806
0.010721379 -0.089675859 0.67400002 4294767856
0.011998858 -0.089675903 0.67400002 4294899442
0.013236945 -0.089409828 0.67199999 4294637038
0.014510643 -0.089409888 0.67199999 4294899953
0.015784346 -0.089409977 0.67199999 4294768369
0.017032672 -0.089276999 0.671 4294636784
0.018304491 -0.089277096 0.671 4294636788
0.019547146 -0.089144178 0.67000002 4294965753
0.020817086 -0.089144297 0.67000002 4294966263
0.021988142 -0.088745303 0.667 4294967293
0.023252415 -0.088745452 0.667 4294967033
0.024479948 -0.088612579 0.66600001 4294967033
0.025742356 -0.08861278 0.66600001 4294966778
0.027004773 -0.088612974 0.66600001 4294966521
0.028182317 -0.08834707 0.66399997 4294966780
0.029440969 -0.088347308 0.66399997 4294967295
0.030699642 -0.088347547 0.66399997 4294967037
0.031862073 -0.088081703 0.662 4294967294
0.033116985 -0.088081986 0.662 4294967035
0.034371912 -0.088082261 0.662 4294967292
0.035465416 -0.087683402 0.65899998 4294967294
0.036714699 -0.087683715 0.65899998 4294967295
0.037963998 -0.087684035 0.65899998 4294967295
0.039153825 -0.087551326 0.65799999 4294967295
0.040401272 -0.087551683 0.65799999 4294967294
0.041648746 -0.087552056 0.65799999 4294967294
0.042896237 -0.087552428 0.65799999 4294967295
0.044143755 -0.087552816 0.65799999 4294967295
0.045391306 -0.087553233 0.65799999 4294967295
0.046638869 -0.087553628 0.65799999 4294967295
0.047959242 -0.087687142 0.65899998 4294967295
0.049134091 -0.087554522 0.65799999 4294967295
0.050381742 -0.087554961 0.65799999 4294967295
0.051629424 -0.087555446 0.65799999 4294967295
0.052877132 -0.087555923 0.65799999 4294967295
0.054124866 -0.087556414 0.65799999 4294967295
0.055456784 -0.087689988 0.65899998 4294967295
0.056706484 -0.087690502 0.65899998 4294967295
0.058132108 -0.087957188 0.66100001 4294967295
0.059475496 -0.088090777 0.662 4294967295
0.060730986 -0.088091336 0.662 4294967295
0.062080137 -0.088224985 0.66299999 4294967295
0.063337579 -0.088225551 0.66299999 4294967295
0.064497642 -0.088093072 0.662 4294967295
0.065753266 -0.088093676 0.662 4294967295
0.067008913 -0.088094287 0.662 4294967295
0.068367735 -0.08822798 0.66299999 4294967295
0.06962537 -0.088228635 0.66299999 4294967295
0.070883028 -0.088229269 0.66299999 4294967295
0.072249554 -0.088362984 0.66399997 4294967295
0.073730618 -0.088629827 0.66600001 4294967295
0.075106688 -0.08876358 0.667 4294967295
0.076372102 -0.08876425 0.667 4294967295
0.077637561 -0.088764973 0.667 4294967295
0.079021357 -0.088898756 0.66799998 4294967295
0.080288798 -0.088899471 0.66799998 4294967295
0.081556268 -0.088900201 0.66799998 4294967295
0.082823798 -0.088900946 0.66799998 4294967295
0.084091343 -0.088901669 0.66799998 4294967295
0.08535897 -0.088902436 0.66799998 4294967295
0.086885996 -0.089169376 0.67000002 4294967295
0.088157468 -0.089170143 0.67000002 4294967295
0.089429043 -0.089170948 0.67000002 4294967295
0.093207702 -0.090370364 0.67900002 4294967295
0.094496459 -0.090371192 0.67900002 4294967295
0.09578526 -0.090372004 0.67900002 4294967295
0.097074114 -0.090372823 0.67900002 4294967295
-0.004738145 -0.090890974 0.69300002 4294045159
-0.0034246447 -0.09089081 0.69300002 4294308588
-0.0021020118 -0.090497196 0.69 4294373611
-0.00079190888 -0.090234764 0.68800002 4294439404
0.00051135197 -0.0901035 0.68699998 4294438889
0.0018134573 -0.090103403 0.68699998 4294438889
0.003101954 -0.089709871 0.68400002 4294175462
0.0043597859 -0.088922866 0.67799997 4294636013
0.0056281751 -0.088660516 0.676 4294571244
0.006909423 -0.088660479 0.676 4294571244
0.0081785545 -0.088529311 0.67500001 4294636267
0.0094579104 -0.088529304 0.67500001 4294636267
0.010689544 -0.088135861 0.67199999 4294505197
0.011963219 -0.088135876 0.67199999 4294636784
0.013236896 -0.08813592 0.67199999 4294636784
0.014510578 -0.088135965 0.67199999 4294899955
0.015760778 -0.088004902 0.671 4294769139
0.017032577 -0.088004984 0.671 4294637297
0.018304382 -0.088005088 0.671 4294768115
0.019547021 -0.087874055 0.67000002 4294965750
0.02072374 -0.087480709 0.667 4294966005
0.021987986 -0.087480843 0.667 4294967290
0.023217391 -0.087349847 0.66600001 4294966776
0.024479771 -0.087350033 0.66600001 4294966776
0.02574216 -0.087350212 0.66600001 4294966265
0.026923466 -0.087088093 0.66399997 4294966265
0.028139649 -0.086957149 0.66299999 4294834678
0.029396396 -0.086957373 0.66299999 4294967292
0.030606925 -0.086826473 0.662 4294967292
0.031861808 -0.086826719 0.662 4294967035
0.033066683 -0.086695828 0.66100001 4294967292
0.03421586 -0.086433783 0.65899998 4294967292
0.035411291 -0.086302936 0.65799999 4294967292
0.036602959 -0.086172074 0.65700001 4294967294
0.037848454 -0.086172402 0.65700001 4294967295
0.038974963 -0.085910402 0.65499997 4294967295
0.040216714 -0.08591076 0.65499997 4294967294
0.04158508 -0.086173445 0.65700001 4294967294
0.042830668 -0.086173818 0.65700001 4294967295
0.044076275 -0.086174212 0.65700001 4294967295
0.045321912 -0.086174615 0.65700001 4294967295
0.04656757 -0.08617501 0.65700001 4294967295
0.047813259 -0.086175434 0.65700001 4294967295
0.049133644 -0.086307026 0.65799999 4294967295
0.050381284 -0.086307488 0.65799999 4294967295
0.051628951 -0.08630795 0.65799999 4294967295
0.05287664 -0.08630842 0.65799999 4294967295
0.05412437 -0.086308911 0.65799999 4294967295
0.055372123 -0.086309403 0.65799999 4294967293
0.056705959 -0.086441077 0.65899998 4294967294
0.058131568 -0.086703949 0.66100001 4294967295
0.059474956 -0.08683566 0.662 4294967295
0.060730424 -0.086836211 0.662 4294967294
0.06207956 -0.086967923 0.66299999 4294967295
0.063241467 -0.086837336 0.662 4294967295
0.064497046 -0.086837918 0.662 4294967295
0.06575267 -0.086838506 0.662 4294967295
0.067008317 -0.086839117 0.662 4294967295
0.068264 -0.086839721 0.662 4294967295
0.069519721 -0.086840346 0.662 4294967295
0.070882395 -0.086972162 0.66299999 4294967295
0.07214009 -0.086972803 0.66299999 4294967295
0.073840655 -0.087498203 0.667 4294967295
0.074993409 -0.087367676 0.66600001 4294967295
0.076256931 -0.087368362 0.66600001 4294967295
0.07752046 -0.08736904 0.66600001 4294967295
0.078902356 -0.08750093 0.667 4294967295
0.08016789 -0.08750163 0.667 4294967295
0.081433453 -0.087502338 0.667 4294967295
0.082699075 -0.087503068 0.667 4294967295
0.083964728 -0.087503798 0.667 4294967295
0.085230432 -0.087504543 0.667 4294967295
0.086625852 -0.087636478 0.66799998 4294967295
0.087893553 -0.087637238 0.66799998 4294967295
0.089161292 -0.087638006 0.66799998 4294967295
0.090429068 -0.08763878 0.66799998 4294967295
0.093069613 -0.088951528 0.67799997 4294967295
0.09435647 -0.088952348 0.67799997 4294967295
0.095643371 -0.088953152 0.67799997 4294967295
0.09693031 -0.088953957 0.67799997 4294967295
-0.0060602073 -0.089706711 0.69400001 4294964974
-0.0047379821 -0.08957728 0.69300002 4294767856
-0.0034146139 -0.089318596 0.69099998 4294570220
-0.0020957883 -0.088930704 0.68800002 4294373609
-0.00079064188 -0.088801302 0.68699998 4294637038
0.0005107082 -0.088671945 0.68599999 4294373098
0.0018056236 -0.088413335 0.68400002 4294307305
0.0030793492 -0.08776696 0.67900002 4294307305
0.0043598399 -0.087637626 0.67799997 4294701806
0.0056282147 -0.087379061 0.676 4294636265
0.0069094482 -0.087379046 0.676 4294636265
0.0081785657 -0.087249771 0.67500001 4294636265
0.0094579058 -0.087249748 0.67500001 4294767852
0.010689526 -0.08686199 0.67199999 4294636784
0.011945384 -0.086732775 0.671 4294636784
0.013217149 -0.08673279 0.671 4294768369
0.014488922 -0.086732849 0.671 4294965748
0.015737209 -0.086603664 0.67000002 4294965748
0.017007098 -0.086603746 0.67000002 4294966263
0.018304275 -0.086733103 0.671 4294966519
0.019576075 -0.086733222 0.671 4294966776
0.020692533 -0.086087056 0.66600001 4294966263
0.021954874 -0.08608719 0.66600001 4294967033
0.023147505 -0.085828826 0.66399997 4294966263
0.024406077 -0.085828997 0.66399997 4294966263
0.025664665 -0.085829176 0.66399997 4294966521
0.026882719 -0.08570011 0.66299999 4294966521
0.028139431 -0.085700311 0.66299999 4294966267
0.029351827 -0.085571297 0.662 4294967294
0.03060668 -0.085571513 0.662 4294967292
0.03181342 -0.085442521 0.66100001 4294967035
0.032966357 -0.085184246 0.65899998 4294967035
0.034163658 -0.085055254 0.65799999 4294967292
0.035357185 -0.0849263 0.65700001 4294967292
0.036491219 -0.084668063 0.65499997 4294967292
0.037732914 -0.084668376 0.65499997 4294967295
0.038974628 -0.084668703 0.65499997 4294967295
0.040216364 -0.084669046 0.65499997 4294967295
0.041458119 -0.084669389 0.65499997 4294967295
0.042699903 -0.084669746 0.65499997 4294967295
0.04394171 -0.084670149 0.65499997 4294967295
0.045183543 -0.084670529 0.65499997 4294967295
0.046425398 -0.084670939 0.65499997 4294967295
0.047667276 -0.084671341 0.65499997 4294967295
0.049058534 -0.084930323 0.65700001 4294967295
0.050304268 -0.084930763 0.65700001 4294967295
0.051628478 -0.085060485 0.65799999 4294967295
0.052876174 -0.085060954 0.65799999 4294967295
0.054123886 -0.085061438 0.65799999 4294967295
0.055371631 -0.085061938 0.65799999 4294967293
0.056705453 -0.085191704 0.65899998 4294967293
0.058131054 -0.085450776 0.66100001 4294967295
0.059474416 -0.085580558 0.662 4294967295
0.060729876 -0.085581109 0.662 4294967295
0.061985373 -0.08558166 0.662 4294967295
0.063240901 -0.085582219 0.662 4294967295
0.064496458 -0.085582785 0.662 4294967295
0.065752082 -0.085583381 0.662 4294967295
0.067007706 -0.085583963 0.662 4294967295
0.068160266 -0.085455291 0.66100001 4294967295
0.069414079 -0.085455894 0.66100001 4294967295
0.070667937 -0.085456535 0.66100001 4294967295
0.071921833 -0.085457169 0.66100001 4294967295
0.073397167 -0.085716374 0.66299999 4294967295
0.074654929 -0.085717015 0.66299999 4294967295
0.075912751 -0.0857177 0.66299999 4294967295
0.077170596 -0.085718371 0.66299999 4294967295
0.078901663 -0.086236201 0.667 4294967295
0.080047004 -0.086107627 0.66600001 4294967295
0.08131066 -0.086108319 0.66600001 4294967295
0.08257436 -0.086109027 0.66600001 4294967295
0.083963998 -0.08623904 0.667 4294967295
0.085229702 -0.08623977 0.667 4294967295
0.086495452 -0.086240515 0.667 4294967295
0.087761231 -0.086241253 0.667 4294967295
0.089160532 -0.086371303 0.66799998 4294967295
0.0904283 -0.08637207 0.66799998 4294967295
0.091696128 -0.086372837 0.66799998 4294967295
0.094355665 -0.087666631 0.67799997 4294967295
0.095360428 -0.087408826 0.676 4294967295
0.096643589 -0.087409616 0.676 4294967295
-0.0073754149 -0.088391356 0.69400001 4293584095
-0.0060600326 -0.08839117 0.69400001 4294570990
-0.0047378223 -0.088263646 0.69300002 4294176233
-0.0034144695 -0.088008769 0.69099998 4294176233
-0.0020956586 -0.087626524 0.68800002 4294176233
-0.00078937708 -0.087371677 0.68599999 4294373611
0.0005093182 -0.08711686 0.68400002 4294373098
0.0017925079 -0.086479954 0.67900002 4294307305
0.0030794176 -0.086479872 0.67900002 4294307305
0.004359894 -0.08635243 0.67799997 4294438891
0.0056282524 -0.086097658 0.676 4294175716
0.0069094729 -0.086097635 0.676 4294636267
0.0081785759 -0.085970268 0.67500001 4294637038
0.0094438894 -0.085842907 0.67400002 4294637038
0.010689505 -0.085588165 0.67199999 4294768369
0.011945349 -0.085460842 0.671 4294768369
0.0132171 -0.085460879 0.671 4294768369
0.014467268 -0.085333578 0.67000002 4294966005
0.015737135 -0.085333645 0.67000002 4294834162
0.017007008 -0.08533372 0.67000002 4294966005
0.018276891 -0.085333817 0.67000002 4294966521
0.019459259 -0.084951833 0.667 4294966521
0.020692402 -0.084824599 0.66600001 4294768885
0.0218888 -0.084570013 0.66399997 4294966778
0.023112483 -0.084442794 0.66299999 4294966261
0.024369147 -0.084442951 0.66299999 4294966261
0.025625829 -0.084443145 0.66299999 4294899955
0.026882514 -0.084443338 0.66299999 4294966263
0.028096775 -0.084316179 0.662 4294966521
0.0293516 -0.084316395 0.662 4294967035
0.030606436 -0.084316619 0.662 4294967033
0.031813163 -0.084189504 0.66100001 4294966776
0.032916069 -0.083807677 0.65799999 4294966263
0.034163371 -0.083807938 0.65799999 4294967292
0.035356887 -0.083680861 0.65700001 4294967291
0.036435202 -0.083299041 0.65399998 4294967292
0.03767499 -0.083299354 0.65399998 4294967295
0.038914796 -0.083299674 0.65399998 4294967295
0.040154621 -0.083300017 0.65399998 4294967295
0.041394472 -0.083300345 0.65399998 4294967295
0.042634353 -0.083300717 0.65399998 4294967295
0.04394133 -0.083428457 0.65499997 4294967295
0.045183145 -0.083428837 0.65499997 4294967295
0.046424989 -0.083429232 0.65499997 4294967295
0.047666866 -0.083429649 0.65499997 4294967295
0.049058102 -0.083684824 0.65700001 4294967295
0.050303821 -0.083685264 0.65700001 4294967295
0.051549565 -0.083685704 0.65700001 4294967295
0.052875705 -0.083813541 0.65799999 4294967295
0.054123409 -0.08381401 0.65799999 4294967295
0.055371135 -0.083814487 0.65799999 4294967295
0.056704957 -0.083942369 0.65899998 4294967295
0.057954639 -0.083942868 0.65899998 4294967295
0.059384044 -0.08419814 0.66100001 4294967295
0.060637608 -0.084198676 0.66100001 4294967295
0.061891191 -0.084199212 0.66100001 4294967295
0.063144818 -0.084199779 0.66100001 4294967295
0.064398468 -0.08420033 0.66100001 4294967295
0.065652169 -0.084200896 0.66100001 4294967295
0.066905901 -0.084201477 0.66100001 4294967295
0.06815967 -0.084202081 0.66100001 4294967295
0.069413468 -0.084202684 0.66100001 4294967295
0.070667312 -0.084203295 0.66100001 4294967295
0.071485966 -0.083694361 0.65700001 4294967295
0.073396519 -0.084459327 0.66299999 4294967295
0.074654281 -0.084459975 0.66299999 4294967295
0.075797573 -0.084333234 0.662 4294967295
0.077053525 -0.084333897 0.662 4294967295
0.078309506 -0.084334567 0.662 4294967295
0.080046304 -0.084844828 0.66600001 4294967295
0.081065774 -0.084590718 0.66399997 4294967295
0.082325689 -0.084591426 0.66399997 4294967295
0.08383739 -0.084846921 0.66600001 4294967295
0.085101195 -0.084847644 0.66600001 4294967295
0.086494699 -0.084975757 0.667 4294967295
0.087760493 -0.084976502 0.667 4294967295
0.089026317 -0.084977239 0.667 4294967295
0.090292186 -0.084977992 0.667 4294967295
0.091558091 -0.084978737 0.667 4294967295
0.093241557 -0.085361734 0.67000002 4294967295
0.094795391 -0.085617311 0.67199999 4294967295
0.096642785 -0.086127728 0.676 4294967295
0.097925976 -0.086128518 0.676 4294967295
0.099502712 -0.086384125 0.67799997 4294967295
0.10108713 -0.086639769 0.68000001 4294967295
0.10267917 -0.086895414 0.68199998 4294967295
0.10412639 -0.087023668 0.68300003 4294967295
-0.0073752264 -0.087075844 0.69400001 4294438637
-0.0060511273 -0.086950205 0.69300002 4294570222
-0.0047239908 -0.086699098 0.69099998 4294176487
-0.0033995034 -0.086322553 0.68800002 4294176487
-0.0020924853 -0.086196944 0.68699998 4294176233
-0.00078581308 -0.085694954 0.68300003 4294176233
0.00050569174 -0.085192978 0.67900002 4294373098
0.0017925901 -0.085192889 0.67900002 4294307305
0.0030749498 -0.085067339 0.67799997 4294241255
0.0043599475 -0.085067295 0.67799997 4294570220
0.0056282915 -0.084816299 0.676 4294439404
0.0068992758 -0.084690809 0.67500001 4294636784
0.0081785852 -0.084690794 0.67500001 4294767856
0.0094438856 -0.084565327 0.67400002 4294701806
0.010689488 -0.084314398 0.67199999 4294636786
0.011945316 -0.084188946 0.671 4294965750
0.013217054 -0.08418899 0.671 4294965748
0.014424022 -0.083812632 0.66799998 4294967033
0.015690083 -0.083812699 0.66799998 4294834678
0.01693077 -0.083687313 0.667 4294834678
0.018194953 -0.083687402 0.667 4294966009
0.019429967 -0.083562046 0.66600001 4294834680
0.020630131 -0.083311237 0.66399997 4294768887
0.021855691 -0.083185904 0.66299999 4294967037
0.023112331 -0.083186053 0.66299999 4294966261
0.024368977 -0.083186209 0.66299999 4294834932
0.025625641 -0.083186388 0.66299999 4294834680
0.026841771 -0.083061107 0.662 4294966780
0.028096566 -0.083061315 0.662 4294966005
0.029307039 -0.082936071 0.66100001 4294966005
0.030559968 -0.082936302 0.66100001 4294966263
0.031716656 -0.08268559 0.65899998 4294966521
0.032915805 -0.082560375 0.65799999 4294966778
0.034163099 -0.082560629 0.65799999 4294967293
0.035356604 -0.082435451 0.65700001 4294967291
0.036434904 -0.082059324 0.65399998 4294967291
0.03767468 -0.082059637 0.65399998 4294967295
0.038914468 -0.082059927 0.65399998 4294967295
0.040154286 -0.082060263 0.65399998 4294967295
0.041394126 -0.082060613 0.65399998 4294967295
0.042633984 -0.082060963 0.65399998 4294967295
0.043940954 -0.082186796 0.65499997 4294967295
0.045182757 -0.082187176 0.65499997 4294967295
0.046566352 -0.082438536 0.65700001 4294967295
0.047812 -0.082438938 0.65700001 4294967295
0.048908338 -0.08218839 0.65499997 4294967295
0.050150253 -0.082188807 0.65499997 4294967295
0.051549111 -0.082440212 0.65700001 4294967295
0.052794881 -0.082440674 0.65700001 4294967295
0.054040682 -0.082441121 0.65700001 4294967295
0.055286508 -0.082441613 0.65700001 4294967295
0.056618415 -0.082567573 0.65799999 4294967295
0.057866197 -0.082568072 0.65799999 4294967295
0.059383538 -0.082945026 0.66100001 4294967295
0.060637072 -0.082945548 0.66100001 4294967295
0.061890643 -0.082946084 0.66100001 4294967295
0.063144259 -0.082946613 0.66100001 4294967295
0.064397909 -0.082947172 0.66100001 4294967295
0.065651596 -0.082947738 0.66100001 4294967295
0.066905312 -0.082948305 0.66100001 4294967295
0.068159066 -0.082948878 0.66100001 4294967295
0.06920284 -0.082698487 0.65899998 4294967295
0.070239067 -0.082448125 0.65700001 4294967295
0.071485355 -0.082448728 0.65700001 4294967295
0.073174492 -0.082951315 0.66100001 4294967295
0.074428439 -0.082951948 0.66100001 4294967295
0.075682431 -0.082952581 0.66100001 4294967295
0.076936476 -0.082953252 0.66100001 4294967295
0.078190565 -0.0829539 0.66100001 4294967295
0.07980524 -0.083331063 0.66399997 4294967295
0.081065096 -0.083331749 0.66399997 4294967295
0.082324989 -0.083332419 0.66399997 4294967295
0.083836697 -0.08358413 0.66600001 4294967295
0.085100479 -0.08358483 0.66600001 4294967295
0.086364307 -0.083585545 0.66600001 4294967295
0.087759763 -0.083711766 0.667 4294967295
0.089025564 -0.083712488 0.667 4294967295
0.090291433 -0.083713226 0.667 4294967295
0.091557331 -0.083713964 0.667 4294967295
0.093240805 -0.084091261 0.67000002 4294967295
0.094794609 -0.084343024 0.67199999 4294967295
0.096499048 -0.084720343 0.67500001 4294967295
0.097780317 -0.084721111 0.67500001 4294967295
0.099501923 -0.085098445 0.67799997 4294967295
0.10093766 -0.085224748 0.67900002 4294967295
0.10222669 -0.085225545 0.67900002 4294967295
0.10366821 -0.085351862 0.68000001 4294967295
-0.007375042 -0.085760377 0.69400001 4294307305
-0.0060509574 -0.085636638 0.69300002 4294307305
-0.0047238362 -0.085389324 0.69099998 4294176487
-0.0033993633 -0.085018463 0.68800002 4294176487
-0.0020801779 -0.084400468 0.68300003 4294373096
-0.00078110147 -0.083906047 0.67900002 4294373096
0.00050504203 -0.083782375 0.67799997 4294307818
0.0017900307 -0.083782285 0.67799997 4294176233
0.0030750164 -0.083782218 0.67799997 4294110439
0.0043471381 -0.083535008 0.676 4294505197
0.0056283302 -0.083534978 0.676 4294570990
0.006899301 -0.083411373 0.67500001 4294636784
0.0081785936 -0.083411343 0.67500001 4294701806
0.0094578927 -0.083411358 0.67500001 4294701806
0.010625841 -0.082546353 0.66799998 4294570992
0.011874076 -0.082422808 0.667 4294965750
0.013138219 -0.082422853 0.667 4294965748
0.014402367 -0.082422882 0.667 4294966263
0.01566652 -0.082422957 0.667 4294768885
0.016905297 -0.082299463 0.66600001 4294834678
0.018167574 -0.082299568 0.66600001 4294966267
0.019429851 -0.082299665 0.66600001 4294834680
0.020630004 -0.082052633 0.66399997 4294703092
0.02185555 -0.081929207 0.66299999 4294966521
0.023112174 -0.081929348 0.66299999 4294966261
0.024332054 -0.081805944 0.662 4294966261
0.025586806 -0.081806101 0.662 4294834678
0.026841577 -0.081806295 0.662 4294966778
0.028053911 -0.081682913 0.66100001 4294965748
0.029218139 -0.081435971 0.65899998 4294966005
0.030467264 -0.081436202 0.65899998 4294966005
0.031668283 -0.081312865 0.65799999 4294966776
0.032915544 -0.081313103 0.65799999 4294967033
0.034110911 -0.081189804 0.65700001 4294966776
0.035356317 -0.081190072 0.65700001 4294966005
0.036490321 -0.080943212 0.65499997 4294967291
0.037731975 -0.080943495 0.65499997 4294967293
0.038914151 -0.080820233 0.65399998 4294967295
0.04015395 -0.08082056 0.65399998 4294967295
0.041393779 -0.080820888 0.65399998 4294967295
0.04263363 -0.080821246 0.65399998 4294967295
0.043873504 -0.080821604 0.65399998 4294967295
0.045182377 -0.080945544 0.65499997 4294967295
0.046565961 -0.081193112 0.65700001 4294967295
0.047666039 -0.080946326 0.65499997 4294967295
0.048907928 -0.080946736 0.65499997 4294967295
0.050149821 -0.080947153 0.65499997 4294967295
0.051391747 -0.080947578 0.65499997 4294967295
0.052633721 -0.080948032 0.65499997 4294967295
0.053875715 -0.080948487 0.65499997 4294967295
0.05511773 -0.080948941 0.65499997 4294967295
0.05653188 -0.081196599 0.65700001 4294967295
0.057777759 -0.08119709 0.65700001 4294967295
0.059203345 -0.081444763 0.65899998 4294967295
0.060453076 -0.081445262 0.65899998 4294967295
0.061702851 -0.081445791 0.65899998 4294967295
0.062952653 -0.081446305 0.65899998 4294967295
0.064202495 -0.081446856 0.65899998 4294967295
0.065651029 -0.081694603 0.66100001 4294967295
0.066904739 -0.081695162 0.66100001 4294967295
0.068158485 -0.081695728 0.66100001 4294967295
0.069202252 -0.081449129 0.65899998 4294967295
0.070238471 -0.081202529 0.65700001 4294967295
0.071484745 -0.081203133 0.65700001 4294967295
0.073173873 -0.081698127 0.66100001 4294967295
0.074202605 -0.081451535 0.65899998 4294967295
0.075452805 -0.081452169 0.65899998 4294967295
0.07693582 -0.081700012 0.66100001 4294967295
0.078189895 -0.081700653 0.66100001 4294967295
0.079564199 -0.081824921 0.662 4294967295
0.080942325 -0.081949182 0.66299999 4294967295
0.082200319 -0.081949852 0.66299999 4294967295
0.083584242 -0.082074143 0.66399997 4294967295
0.085099787 -0.082322054 0.66600001 4294967295
0.086363614 -0.082322754 0.66600001 4294967295
0.087627478 -0.082323454 0.66600001 4294967295
0.089024834 -0.082447775 0.667 4294967295
0.09029071 -0.082448512 0.667 4294967295
0.091556594 -0.082449228 0.667 4294967295
0.092961706 -0.082573578 0.66799998 4294967295
0.094793849 -0.083068781 0.67199999 4294967295
0.096355312 -0.083316766 0.67400002 4294967295
0.097779542 -0.083441153 0.67500001 4294967295
0.099207625 -0.083565533 0.676 4294967295
0.10078821 -0.083813548 0.67799997 4294967295
0.10222588 -0.083937965 0.67900002 4294967295
0.10351495 -0.083938748 0.67900002 4294967295
0.10495844 -0.08406318 0.68000001 4294967295
-0.0087152533 -0.084688507 0.69599998 4294439139
-0.0073748603 -0.084444955 0.69400001 4294176487
-0.0060507902 -0.084323108 0.69300002 4294373609
-0.004716848 -0.083957911 0.69 4294176487
-0.0033893439 -0.083471052 0.68599999 4294110693
-0.00207701 -0.082984224 0.68199998 4294241509
-0.00078099372 -0.082619071 0.67900002 4294373096
0.00050513574 -0.082497291 0.67799997 4294373098
0.0017901107 -0.082497209 0.67799997 4294307305
0.0030660112 -0.082253776 0.676 4294176235
0.0043471898 -0.082253717 0.676 4294570992
0.0056200419 -0.082131997 0.67500001 4294570990
0.0068686595 -0.081766941 0.67199999 4294768369
0.0081180222 -0.081523567 0.67000002 4294833649
0.0093598068 -0.081280217 0.66799998 4294899442
0.010609917 -0.081158549 0.667 4294899442
0.011874043 -0.081158563 0.667 4294965749
0.013138176 -0.081158608 0.667 4294965748
0.014380716 -0.081036977 0.66600001 4294966005
0.015595985 -0.080793686 0.66399997 4294834932
0.016829062 -0.080672078 0.66299999 4294769139
0.018085638 -0.08067219 0.66299999 4294965750
0.019313045 -0.080550611 0.662 4294966007
0.020567741 -0.080550723 0.662 4294834932
0.021822449 -0.080550864 0.662 4294966261
0.02307716 -0.080550998 0.662 4294965748
0.02433189 -0.080551155 0.662 4294966263
0.025547979 -0.080429643 0.66100001 4294967035
0.026800839 -0.080429837 0.66100001 4294967295
0.027968829 -0.080186658 0.65899998 4294967029
0.029173587 -0.080065191 0.65799999 4294967286
0.030420803 -0.080065407 0.65799999 4294966265
0.031619918 -0.079943977 0.65700001 4294966522
0.032865271 -0.079944208 0.65700001 4294967033
0.034110647 -0.079944469 0.65700001 4294966776
0.035356037 -0.079944737 0.65700001 4294966778
0.036490031 -0.079701662 0.65499997 4294967293
0.037674069 -0.07958027 0.65399998 4294967291
0.038913842 -0.079580575 0.65399998 4294967295
0.040153626 -0.079580888 0.65399998 4294967294
0.041393436 -0.079581216 0.65399998 4294967295
0.042568088 -0.079459883 0.653 4294967295
0.043806057 -0.079460226 0.653 4294967295
0.045044042 -0.079460591 0.653 4294967295
0.046352938 -0.079582654 0.65399998 4294967295
0.047592875 -0.079583041 0.65399998 4294967295
0.048907507 -0.079705127 0.65499997 4294967295
0.050072841 -0.079583846 0.65399998 4294967295
0.05131286 -0.079584271 0.65399998 4294967295
0.052552927 -0.079584718 0.65399998 4294967295
0.053793009 -0.079585142 0.65399998 4294967295
0.055033125 -0.079585612 0.65399998 4294967295
0.056359313 -0.079707757 0.65499997 4294967295
0.057601392 -0.079708248 0.65499997 4294967295
0.059023168 -0.079952113 0.65700001 4294967295
0.060269106 -0.079952613 0.65700001 4294967295
0.061515078 -0.079953127 0.65700001 4294967295
0.062761083 -0.079953656 0.65700001 4294967295
0.064007111 -0.07995417 0.65700001 4294967295
0.065650485 -0.080441505 0.66100001 4294967295
0.06690418 -0.080442049 0.66100001 4294967295
0.068157919 -0.080442607 0.66100001 4294967295
0.069201678 -0.080199793 0.65899998 4294967295
0.070237882 -0.079956979 0.65700001 4294967295
0.071484149 -0.079957552 0.65700001 4294967295
0.072951853 -0.080201544 0.65899998 4294967295
0.074202001 -0.080202162 0.65899998 4294967295
0.075452171 -0.080202773 0.65899998 4294967295
0.076702401 -0.080203407 0.65899998 4294967295
0.077952661 -0.080204025 0.65899998 4294967295
0.079563551 -0.080569804 0.662 4294967295
0.080819584 -0.080570452 0.662 4294967295
0.082199648 -0.080692813 0.66299999 4294967295
0.083583549 -0.080815189 0.66399997 4294967295
0.084843539 -0.080815881 0.66399997 4294967295
0.086362906 -0.081059985 0.66600001 4294967295
0.08762677 -0.081060678 0.66600001 4294967295
0.089024141 -0.081183098 0.667 4294967295
0.09028998 -0.081183814 0.667 4294967295
0.091555871 -0.081184521 0.667 4294967295
0.092960984 -0.081306957 0.66799998 4294967295
0.094652049 -0.08167284 0.671 4294967295
0.096354559 -0.082038738 0.67400002 4294967295
0.09777879 -0.082161218 0.67500001 4294967295
0.09920685 -0.082283691 0.676 4294967295
0.10078744 -0.082527898 0.67799997 4294967295
0.10222511 -0.082650393 0.67900002 4294967295
0.10351416 -0.082651168 0.67900002 4294967295
0.10495765 -0.082773685 0.68000001 4294967295
-0.0087150605 -0.08336933 0.69599998 4294175716
-0.007374682 -0.083129577 0.69400001 4293978853
-0.0060506258 -0.083009623 0.69300002 4294307818
-0.0047030267 -0.082410552 0.68800002 4294373609
-0.0033892095 -0.082170852 0.68599999 4294176487
-0.0020677538 -0.081332251 0.67900002 4294307041
-0.00077973749 -0.081212349 0.67799997 4294569957
0.000505228 -0.081212237 0.67799997 4294503912
0.0017901892 -0.081212156 0.67799997 4294438119
0.0030660755 -0.080972522 0.676 4294307305
0.0043472415 -0.080972478 0.676 4294570220
0.0056117536 -0.080732867 0.67400002 4294636013
0.006858462 -0.080373488 0.671 4294899442
0.0080937985 -0.080014125 0.66799998 4294833647
0.0093457922 -0.079894349 0.667 4294833647
0.0106099 -0.079894349 0.667 4294899442
0.011856211 -0.079774603 0.66600001 4294965492
0.013118434 -0.079774641 0.66600001 4294767856
0.014380661 -0.079774685 0.66600001 4294965492
0.015572428 -0.079415403 0.66299999 4294966261
0.016778214 -0.079175912 0.66100001 4294966261
0.018030984 -0.079176001 0.66100001 4294965748
0.01928376 -0.079176098 0.66100001 4294966005
0.020536549 -0.079176217 0.66100001 4294966261
0.021789346 -0.079176344 0.66100001 4294966261
0.023042155 -0.079176486 0.66100001 4294769139
0.024294971 -0.079176635 0.66100001 4294966519
0.025547804 -0.079176798 0.66100001 4294967035
0.026719561 -0.078937411 0.65899998 4294967035
0.02792619 -0.078817829 0.65799999 4294966263
0.029173378 -0.078818031 0.65799999 4294966776
0.030374354 -0.078698464 0.65700001 4294966263
0.031619679 -0.078698687 0.65700001 4294967292
0.032764971 -0.078459352 0.65499997 4294967292
0.034006543 -0.078459606 0.65499997 4294967035
0.035248138 -0.078459874 0.65499997 4294967037
0.036434036 -0.078340359 0.65399998 4294967295
0.037616171 -0.078220867 0.653 4294967291
0.038794525 -0.078101367 0.65200001 4294967294
0.040030517 -0.078101687 0.65200001 4294967292
0.041266527 -0.078102 0.65200001 4294967295
0.042502556 -0.078102335 0.65200001 4294967295
0.0438057 -0.078222476 0.653 4294967295
0.045043681 -0.078222841 0.653 4294967295
0.046281688 -0.078223199 0.653 4294967295
0.047519721 -0.078223579 0.653 4294967295
0.048832439 -0.078343749 0.65399998 4294967295
0.049995858 -0.078224368 0.653 4294967295
0.051233977 -0.078224778 0.653 4294967295
0.052472133 -0.07822521 0.653 4294967295
0.053710304 -0.078225642 0.653 4294967295
0.054948509 -0.078226089 0.653 4294967295
0.056272797 -0.078346349 0.65399998 4294967295
0.057512969 -0.078346811 0.65399998 4294967295
0.05902268 -0.078706674 0.65700001 4294967295
0.059993397 -0.078347765 0.65399998 4294967295
0.06123367 -0.078348272 0.65399998 4294967295
0.062473979 -0.078348786 0.65399998 4294967295
0.063714318 -0.0783493 0.65399998 4294967295
0.065252662 -0.07870923 0.65700001 4294967295
0.066498764 -0.078709766 0.65700001 4294967295
0.067744896 -0.07871031 0.65700001 4294967295
0.068991087 -0.078710884 0.65700001 4294967295
0.070023492 -0.078471832 0.65499997 4294967295
0.071265943 -0.078472406 0.65499997 4294967295
0.072729856 -0.078712597 0.65700001 4294967295
0.07408879 -0.078832999 0.65799999 4294967295
0.075337067 -0.07883361 0.65799999 4294967295
0.07658539 -0.078834221 0.65799999 4294967295
0.07795205 -0.078954652 0.65899998 4294967295
0.079562902 -0.079314724 0.662 4294967295
0.080818936 -0.079315357 0.662 4294967295
0.082198992 -0.07943581 0.66299999 4294967295
0.083457008 -0.079436466 0.66299999 4294967295
0.084842861 -0.079556957 0.66399997 4294967295
0.086102881 -0.07955762 0.66399997 4294967295
0.087626062 -0.079797938 0.66600001 4294967295
0.089023419 -0.079918437 0.667 4294967295
0.090289272 -0.079919145 0.667 4294967295
0.091555148 -0.079919837 0.667 4294967295
0.092960253 -0.080040373 0.66799998 4294967295
0.094510257 -0.080280736 0.67000002 4294967295
0.096067898 -0.080521114 0.67199999 4294967295
0.09763319 -0.0807615 0.67400002 4294967295
0.099206112 -0.081001885 0.676 4294967295
0.10078666 -0.081242278 0.67799997 4294967295
0.10207378 -0.081243038 0.67799997 4294967295
0.10351339 -0.081363633 0.67900002 4294967295
0.10495687 -0.081484228 0.68000001 4294967295
0.1068729 -0.081964329 0.68400002 4294967295
-0.0087148705 -0.082050174 0.69599998 4293978340
-0.0073745064 -0.081814237 0.69400001 4293913060
-0.0060504647 -0.081696175 0.69300002 4294307818
-0.0047028796 -0.081106588 0.68800002 4294505195
-0.0033742557 -0.080517009 0.68300003 4294439402
-0.0020676355 -0.080045328 0.67900002 4294373096
-0.00077963324 -0.079927325 0.67799997 4294636267
0.00050531881 -0.079927236 0.67799997 4294570472
0.0017849855 -0.07969138 0.676 4294570472
0.00306614 -0.079691321 0.676 4294439404
0.0043408601 -0.079573371 0.67500001 4294439404
0.0056117903 -0.07945545 0.67400002 4294505197
0.0068584853 -0.079101749 0.671 4294768369
0.0080816923 -0.078630187 0.667 4294767856
0.0093457866 -0.078630179 0.667 4294636013
0.010593977 -0.078512304 0.66600001 4294636786
0.011820577 -0.07827656 0.66399997 4294966265
0.013078994 -0.078276597 0.66399997 4294965748
0.014315827 -0.078158759 0.66299999 4294966005
0.015548871 -0.078040928 0.662 4294965748
0.016778132 -0.077923119 0.66100001 4294966005
0.018030889 -0.077923201 0.66100001 4294965748
0.019283654 -0.077923305 0.66100001 4294899955
0.020536426 -0.07792341 0.66100001 4294966261
0.021723282 -0.077687763 0.65899998 4294966776
0.022972289 -0.077687904 0.65899998 4294769139
0.024221303 -0.077688053 0.65899998 4294834932
0.025431687 -0.077570327 0.65799999 4294966261
0.02663829 -0.077452615 0.65700001 4294966519
0.027883554 -0.077452794 0.65700001 4294966007
0.029128835 -0.077453002 0.65700001 4294966007
0.030281667 -0.07721743 0.65499997 4294966780
0.031523194 -0.077217646 0.65499997 4294967295
0.032764729 -0.077217884 0.65499997 4294967292
0.03400629 -0.077218138 0.65499997 4294967035
0.035194054 -0.077100508 0.65399998 4294967039
0.036433753 -0.077100776 0.65399998 4294967295
0.03761588 -0.076983169 0.653 4294967295
0.038794227 -0.076865576 0.65200001 4294967295
0.0400302 -0.076865867 0.65200001 4294967295
0.041266203 -0.076866187 0.65200001 4294967295
0.042502224 -0.076866515 0.65200001 4294967295
0.043738272 -0.076866858 0.65200001 4294967295
0.044974338 -0.076867208 0.65200001 4294967295
0.046210442 -0.076867566 0.65200001 4294967295
0.047519334 -0.076985836 0.653 4294967295
0.048682719 -0.076868325 0.65200001 4294967295
0.049918897 -0.076868713 0.65200001 4294967295
0.051155116 -0.076869123 0.65200001 4294967295
0.05239135 -0.07686954 0.65200001 4294967295
0.053627621 -0.076869957 0.65200001 4294967295
0.054863922 -0.076870404 0.65200001 4294967295
0.056272335 -0.07710664 0.65399998 4294967295
0.057512499 -0.077107102 0.65399998 4294967295
0.058752686 -0.077107564 0.65399998 4294967295
0.059992917 -0.077108055 0.65399998 4294967295
0.061233178 -0.07710854 0.65399998 4294967295
0.062377948 -0.076991133 0.653 4294967295
0.063616388 -0.07699164 0.653 4294967295
0.064854853 -0.076992154 0.653 4294967295
0.06629578 -0.077228487 0.65499997 4294967295
0.067538127 -0.07722903 0.65499997 4294967295
0.068780497 -0.077229574 0.65499997 4294967295
0.070022918 -0.077230126 0.65499997 4294967295
0.07126537 -0.077230692 0.65499997 4294967295
0.072729275 -0.077467084 0.65700001 4294967295
0.074088208 -0.077585585 0.65799999 4294967295
0.075336464 -0.077586167 0.65799999 4294967295
0.076584779 -0.07758677 0.65799999 4294967295
0.077951416 -0.077705294 0.65899998 4294967295
0.079442084 -0.077941753 0.66100001 4294967295
0.080818295 -0.078060284 0.662 4294967295
0.082074374 -0.078060925 0.662 4294967295
0.083456352 -0.078179486 0.66299999 4294967295
0.08484219 -0.078298055 0.66399997 4294967295
0.086102188 -0.078298703 0.66399997 4294967295
0.087362245 -0.078299381 0.66399997 4294967295
0.088889286 -0.0785359 0.66600001 4294967295
0.090288579 -0.078654505 0.667 4294967295
0.091554463 -0.078655198 0.667 4294967295
0.09295956 -0.078773819 0.66799998 4294967295
0.094227426 -0.078774519 0.66799998 4294967295
0.095781274 -0.079011083 0.67000002 4294967295
0.097342737 -0.079247646 0.67199999 4294967295
0.099058621 -0.079602167 0.67500001 4294967295
0.10048863 -0.079720825 0.676 4294967295
0.10207304 -0.079957426 0.67799997 4294967295
0.10351265 -0.080076113 0.67900002 4294967295
0.10480174 -0.080076858 0.67900002 4294967295
0.10687212 -0.080667302 0.68400002 4294967295
-0.0046685589 -0.079222694 0.68300003 4294439402
-0.0033741253 -0.079222552 0.68300003 4294373609
-0.0020644744 -0.078642465 0.67799997 4294241507
-0.0007795305 -0.078642361 0.67799997 4294570472
0.00050391728 -0.078410283 0.676 4294570472
0.0017850614 -0.078410201 0.676 4294570472
0.0030616666 -0.078294143 0.67500001 4294439404
0.0043344791 -0.0781781 0.67400002 4294570990
0.0055951737 -0.077946074 0.67199999 4294637038
0.0068482873 -0.077714071 0.67000002 4294637038
0.0080817034 -0.077366076 0.667 4294636784
0.0093457857 -0.077366076 0.667 4294570990
0.010593961 -0.077250086 0.66600001 4294374127
0.011802747 -0.076902136 0.66299999 4294768885
0.013059256 -0.076902173 0.66299999 4294899955
0.014294179 -0.076786235 0.662 4294899955
0.015548805 -0.07678628 0.662 4294899955
0.016778054 -0.076670371 0.66100001 4294899955
0.0180308 -0.076670453 0.66100001 4294965748
0.019225201 -0.076438554 0.65899998 4294965748
0.020474175 -0.076438665 0.65899998 4294966005
0.021723157 -0.0764388 0.65899998 4294966263
0.022972148 -0.076438934 0.65899998 4294768369
0.024147643 -0.076207094 0.65700001 4294965748
0.025392871 -0.07620725 0.65700001 4294966005
0.026557019 -0.075975433 0.65499997 4294966005
0.027798483 -0.075975619 0.65499997 4294834678
0.029039957 -0.075975806 0.65499997 4294966521
0.030281454 -0.075976029 0.65499997 4294966778
0.031474836 -0.07586024 0.65399998 4294967293
0.032714467 -0.075860463 0.65399998 4294967291
0.033954121 -0.075860716 0.65399998 4294967290
0.035193793 -0.07586097 0.65399998 4294966780
0.03637778 -0.075745247 0.653 4294967295
0.037615594 -0.075745508 0.653 4294967292
0.038793929 -0.075629801 0.65200001 4294967295
0.040029895 -0.075630106 0.65200001 4294967294
0.041265883 -0.075630404 0.65200001 4294967295
0.042501897 -0.075630724 0.65200001 4294967295
0.043737929 -0.07563106 0.65200001 4294967295
0.044973996 -0.075631417 0.65200001 4294967295
0.046210077 -0.075631753 0.65200001 4294967295
0.047446195 -0.075632125 0.65200001 4294967295
0.048682332 -0.075632505 0.65200001 4294967295
0.049918503 -0.075632885 0.65200001 4294967295
0.051154695 -0.07563328 0.65200001 4294967295
0.052390937 -0.075633697 0.65200001 4294967295
0.0536272 -0.075634114 0.65200001 4294967295
0.054863486 -0.075634539 0.65200001 4294967295
0.056185849 -0.075750977 0.653 4294967295
0.057424106 -0.075751431 0.653 4294967295
0.058662388 -0.075751893 0.653 4294967295
0.059900701 -0.075752355 0.653 4294967295
0.061139051 -0.075752832 0.653 4294967295
0.062377457 -0.075753324 0.653 4294967295
0.063615881 -0.075753823 0.653 4294967295
0.064854346 -0.07575433 0.653 4294967295
0.06619405 -0.075870849 0.65399998 4294967295
0.067537591 -0.075987376 0.65499997 4294967295
0.068779968 -0.07598792 0.65499997 4294967295
0.070236184 -0.07622049 0.65700001 4294967295
0.07148242 -0.076221041 0.65700001 4294967295
0.072728701 -0.076221608 0.65700001 4294967295
0.07408762 -0.076338194 0.65799999 4294967295
0.075335875 -0.076338775 0.65799999 4294967295
0.076584183 -0.076339364 0.65799999 4294967295
0.077832535 -0.076339968 0.65799999 4294967295
0.079441473 -0.076688625 0.66100001 4294967295
0.080695592 -0.076689236 0.66100001 4294967295
0.082073733 -0.076805875 0.662 4294967295
0.083455712 -0.076922528 0.66299999 4294967295
0.084713772 -0.076923177 0.66299999 4294967295
0.086101539 -0.077039838 0.66399997 4294967295
0.087361574 -0.077040486 0.66399997 4294967295
0.0888886 -0.077273205 0.66600001 4294967295
0.090287894 -0.077389896 0.667 4294967295
0.091553777 -0.077390574 0.667 4294967295
0.092819691 -0.077391252 0.667 4294967295
0.094226718 -0.077507973 0.66799998 4294967295
0.095494635 -0.077508673 0.66799998 4294967295
0.097052328 -0.077741437 0.67000002 4294967295
0.098617643 -0.077974215 0.67199999 4294967295
0.1004879 -0.078439064 0.676 4294967295
0.10207228 -0.07867185 0.67799997 4294967295
0.10335945 -0.078672588 0.67799997 4294967295
0.10480099 -0.078789368 0.67900002 4294967295
0.10687137 -0.079370297 0.68400002 4294967295
0.10864449 -0.079719171 0.68699998 4294967295
0.10994895 -0.079719938 0.68699998 4294967295
0.11141539 -0.079836741 0.68800002 4294967295
-0.0033492977 -0.07735765 0.67799997 4294702058
-0.0020643605 -0.077357531 0.67799997 4294307555
-0.00077713048 -0.077129237 0.676 4294307555
0.000504005 -0.07712914 0.676 4294373350
0.0017824954 -0.077014968 0.67500001 4294439143
0.0030571923 -0.076900795 0.67400002 4294570218
0.0043216655 -0.076672554 0.67199999 4294767854
0.0055868831 -0.076558419 0.671 4294767852
0.0068278662 -0.076216087 0.66799998 4294965744
0.0080817118 -0.076101974 0.667 4294570990
0.0093317693 -0.075987875 0.66600001 4294505197
0.010546225 -0.075645611 0.66299999 4294374127
0.011784918 -0.075531527 0.662 4294703092
0.013039518 -0.075531565 0.662 4294703090
0.014272535 -0.075417519 0.66100001 4294769139
0.015525251 -0.075417563 0.66100001 4294899955
0.016777974 -0.075417638 0.66100001 4294899955
0.018030709 -0.075417735 0.66100001 4294899955
0.0192251 -0.075189628 0.65899998 4294965748
