# .PCD v0.7 - Point Cloud Data file format
VERSION 0.7
FIELDS x y z rgba
SIZE 4 4 4 4
TYPE F F F U
COUNT 1 1 1 1
WIDTH 1054
HEIGHT 1
VIEWPOINT 0 0 0 1 0 0 0
POINTS 1054
DATA ascii
-0.0035239267 -0.1861009 0.70999998 4294440438
-0.0021767591 -0.18610065 0.70999998 4294045678
-0.00082959706 -0.18610039 0.70999998 4294045678
0.0005175597 -0.18610018 0.70999998 4294176748
0.0018647116 -0.18609998 0.70999998 4294242541
0.0032118608 -0.18609983 0.70999998 4294110955
0.0045590051 -0.18609963 0.70999998 4294110955
0.0059144669 -0.18636167 0.71100003 4294045159
0.007263504 -0.18636151 0.71100003 4294374381
0.0086004259 -0.18609932 0.70999998 4294177263
0.0099475635 -0.18609926 0.70999998 4294308849
0.0112947 -0.18609919 0.70999998 4294374640
0.01264184 -0.18609919 0.70999998 4294374640
0.013949572 -0.18557495 0.708 4294440436
0.015292918 -0.18557498 0.708 4294769400
0.016636267 -0.18557505 0.708 4294506229
0.018030407 -0.18609934 0.70999998 4294440436
0.019404849 -0.18636152 0.71100003 4294506229
0.020753901 -0.18636167 0.71100003 4294506229
0.022102954 -0.18636177 0.71100003 4294637299
0.023452014 -0.18636195 0.71100003 4294768885
0.024801083 -0.18636212 0.71100003 4294440436
0.026150154 -0.18636233 0.71100003 4294374642
0.027460558 -0.18610044 0.70999998 4294637814
0.028807744 -0.18610068 0.70999998 4294703607
0.030197419 -0.18636306 0.71100003 4294506231
0.031546518 -0.18636335 0.71100003 4294637560
0.032988168 -0.18688789 0.713 4294506483
0.034341089 -0.18688823 0.713 4294637812
0.035744075 -0.18715066 0.71399999 4294638582
0.037098911 -0.18715104 0.71399999 4294638582
0.038561478 -0.18767567 0.71600002 4294572791
0.039920133 -0.1876761 0.71600002 4294704377
0.041278798 -0.1876765 0.71600002 4294703607
0.04263749 -0.18767701 0.71600002 4294506229
0.044057626 -0.18793958 0.71700001 4294637814
0.045418236 -0.18794008 0.71700001 4294637814
0.04690934 -0.18846482 0.71899998 4294703353
0.048475191 -0.18925172 0.722 4294769146
0.04984533 -0.18925226 0.722 4294769400
0.051286422 -0.18951494 0.72299999 4294835193
0.052804165 -0.1900398 0.72500002 4294704377
0.054329518 -0.19056466 0.727 4294901500
0.055785839 -0.19082744 0.72799999 4294901502
0.057167456 -0.19082808 0.72799999 4294967295
0.058549091 -0.19082873 0.72799999 4294967295
0.059930746 -0.19082944 0.72799999 4294967295
0.061480857 -0.19135439 0.73000002 4294967295
0.062866352 -0.19135514 0.73000002 4294901502
0.064603925 -0.19240439 0.73400003 4294967295
0.065997042 -0.19240515 0.73400003 4294967295
0.067573808 -0.19293022 0.736 4294967295
0.069251895 -0.19371742 0.73900002 4294967295
0.070941396 -0.1945046 0.74199998 4294967295
0.072544813 -0.19502974 0.74400002 4294967295
0.073957033 -0.1950306 0.74400002 4294967295
0.075369261 -0.19503146 0.74400002 4294967295
0.076987922 -0.19555664 0.74599999 4294967295
-0.058600571 -0.19310749 0.74199998 4292531405
-0.057114907 -0.19284612 0.741 4292794834
-0.055557895 -0.19232449 0.73900002 4292729038
-0.053935215 -0.19154267 0.736 4292992210
-0.052395355 -0.19102113 0.73400003 4293057749
-0.051002059 -0.19102006 0.73400003 4293123542
-0.049608797 -0.19101903 0.73400003 4292926935
-0.048149876 -0.19075774 0.73299998 4293321693
-0.046630993 -0.1902363 0.73100001 4293189851
-0.045181613 -0.18997507 0.73000002 4293255644
-0.043676056 -0.18945366 0.72799999 4293321693
-0.04223622 -0.1891925 0.727 4293321693
-0.040856402 -0.18919161 0.727 4293387486
-0.039205093 -0.18788953 0.722 4293584608
-0.037730008 -0.18736823 0.72000003 4293322206
-0.036363535 -0.18736739 0.72000003 4293453792
-0.034948483 -0.18710636 0.71899998 4293519586
-0.03358395 -0.18710557 0.71899998 4293453792
-0.03221944 -0.18710481 0.71899998 4293518815
-0.030769126 -0.18658359 0.71700001 4293584608
-0.029408451 -0.18658288 0.71700001 4293715682
-0.028047796 -0.18658221 0.71700001 4293847267
-0.026687153 -0.18658152 0.71700001 4293847267
-0.025326533 -0.18658088 0.71700001 4293847267
-0.0239325 -0.18631999 0.71600002 4293847267
-0.022573808 -0.1863194 0.71600002 4293913060
-0.02121513 -0.1863188 0.71600002 4293650402
-0.019801 -0.1857978 0.71399999 4294045159
-0.018446144 -0.18579726 0.71399999 4293914343
-0.017067367 -0.18553649 0.713 4293980137
-0.015714439 -0.18553603 0.713 4294110955
-0.014321235 -0.18501511 0.71100003 4294110955
-0.012972124 -0.18501468 0.71100003 4294045161
-0.011623022 -0.18501423 0.71100003 4294110955
-0.010273932 -0.18501386 0.71100003 4294045678
-0.0089248512 -0.18501346 0.71100003 4294045678
-0.0075757778 -0.18501307 0.71100003 4293980139
-0.0062267152 -0.18501277 0.71100003 4294177261
-0.0048776586 -0.18501246 0.71100003 4294308849
-0.0035286096 -0.18501215 0.71100003 4294243056
-0.0021795672 -0.18501186 0.71100003 4294242543
-0.00082936231 -0.18475141 0.70999998 4294176750
0.00051777175 -0.1847512 0.70999998 4294176748
0.0018649013 -0.18475096 0.70999998 4294242541
0.003212027 -0.18475081 0.70999998 4294176748
0.004559149 -0.18475066 0.70999998 4294176748
0.0059062694 -0.18475054 0.70999998 4294110955
0.0072533851 -0.18475041 0.70999998 4294374127
0.0086005013 -0.1847503 0.70999998 4293980398
0.0099476175 -0.18475026 0.70999998 4294243826
0.011294732 -0.18475021 0.70999998 4294243824
0.012641846 -0.1847502 0.70999998 4294243824
0.013988963 -0.1847502 0.70999998 4294571252
0.015336082 -0.18475021 0.70999998 4294637301
0.016683204 -0.18475029 0.70999998 4294571252
0.01805572 -0.18501057 0.71100003 4294505458
0.019404747 -0.18501067 0.71100003 4294308338
0.020753775 -0.18501079 0.71100003 4294374131
0.022102807 -0.18501091 0.71100003 4294505199
0.023451848 -0.18501107 0.71100003 4294636786
0.024800889 -0.18501125 0.71100003 4294571506
0.026149938 -0.18501146 0.71100003 4294505712
0.027499003 -0.18501171 0.71100003 4294308849
0.028848067 -0.18501192 0.71100003 4294374642
0.030197142 -0.18501221 0.71100003 4294440438
0.031546224 -0.1850125 0.71100003 4294506231
0.032895312 -0.18501282 0.71100003 4294308849
0.034340747 -0.18553358 0.713 4294374642
0.035693653 -0.18553393 0.713 4294440438
0.037098527 -0.18579452 0.71399999 4294703353
0.038561072 -0.18631534 0.71600002 4294506742
0.039919704 -0.18631575 0.71600002 4294704377
0.041278355 -0.18631622 0.71600002 4294769398
0.042696569 -0.1865769 0.71700001 4294703605
0.044057138 -0.18657735 0.71700001 4294703607
0.045417726 -0.18657786 0.71700001 4294703607
0.046974067 -0.18735905 0.72000003 4294440438
0.048340365 -0.18735956 0.72000003 4294440438
0.049844772 -0.18788058 0.722 4294571252
0.051285833 -0.18814138 0.72299999 4294768887
0.052803565 -0.18866244 0.72500002 4294835195
0.054328885 -0.1891835 0.727 4294900989
0.055708561 -0.18918411 0.727 4294704123
0.057166789 -0.18944499 0.72799999 4294967295
0.058548413 -0.18944572 0.72799999 4294835709
0.059930045 -0.18944637 0.72799999 4294967295
0.061311696 -0.18944709 0.72799999 4294967295
0.062865615 -0.18996827 0.73000002 4294967295
0.064603157 -0.19100997 0.73400003 4294901502
0.065996267 -0.19101073 0.73400003 4294967295
0.067573026 -0.191532 0.736 4294967295
0.069157369 -0.19205326 0.73799998 4294901502
0.071131788 -0.19361548 0.74400002 4294835709
0.072543956 -0.19361636 0.74400002 4294967295
0.073956162 -0.19361718 0.74400002 4294901502
0.075368382 -0.19361807 0.74400002 4294967295
0.076987036 -0.19413945 0.74599999 4294967295
-0.058520451 -0.19143938 0.741 4292465610
-0.057113782 -0.19143823 0.741 4292729038
-0.05533126 -0.19014537 0.736 4292729038
-0.053787582 -0.18962759 0.73400003 4292926161
-0.052394286 -0.18962653 0.73400003 4292926165
-0.05100102 -0.18962546 0.73400003 4293057751
-0.049540196 -0.1893661 0.73299998 4292926935
-0.048148885 -0.18936509 0.73299998 4293255644
-0.046630017 -0.18884739 0.73100001 4293255898
-0.045180656 -0.18858807 0.73000002 4293584606
-0.043675125 -0.18807048 0.72799999 4293519067
-0.042235311 -0.18781121 0.727 4293519067
-0.040743116 -0.18729368 0.72500002 4293387486
-0.039095636 -0.18600109 0.72000003 4293650402
-0.037729166 -0.18600024 0.72000003 4293518815
-0.036362719 -0.18599939 0.72000003 4293782244
-0.034947686 -0.18574029 0.71899998 4293584606
-0.033583175 -0.18573947 0.71899998 4293518813
-0.032218687 -0.18573873 0.71899998 4293387745
-0.030768398 -0.18522134 0.71700001 4293387745
-0.029407738 -0.18522057 0.71700001 4293649888
-0.028047103 -0.18521988 0.71700001 4293715682
-0.026686488 -0.18521923 0.71700001 4293715682
-0.025325887 -0.18521856 0.71700001 4293715682
-0.02393188 -0.18495962 0.71600002 4293847267
-0.022573208 -0.18495901 0.71600002 4294110439
-0.021214552 -0.18495841 0.71600002 4293716708
-0.019800449 -0.18444121 0.71399999 4293782757
-0.018445613 -0.18444064 0.71399999 4293848550
-0.017090797 -0.18444017 0.71399999 4293914343
-0.015713952 -0.18418132 0.713 4294110953
-0.014320775 -0.18366423 0.71100003 4294242795
-0.012971684 -0.18366377 0.71100003 4294242795
-0.011622607 -0.18366337 0.71100003 4294308588
-0.01027354 -0.18366298 0.71100003 4294176746
-0.0089244796 -0.18366256 0.71100003 4294110953
-0.0075754318 -0.18366222 0.71100003 4294110953
-0.0062263892 -0.18366188 0.71100003 4294571504
-0.0048773568 -0.18366157 0.71100003 4294308588
-0.0035283302 -0.18366125 0.71100003 4294176746
-0.0021762454 -0.18340269 0.70999998 4294045678
-0.00082912907 -0.18340242 0.70999998 4294045678
0.00051798206 -0.18340221 0.70999998 4294045932
0.0018650887 -0.18340203 0.70999998 4294374640
0.0032121914 -0.18340182 0.70999998 4294045678
0.0045592906 -0.18340167 0.70999998 4294045678
0.0059063877 -0.18340157 0.70999998 4294242543
0.0072534825 -0.18340144 0.70999998 4294571252
0.0086005758 -0.18340136 0.70999998 4294308847
0.0099476688 -0.18340129 0.70999998 4294506483
0.011294761 -0.18340127 0.70999998 4294374640
0.012641853 -0.18340126 0.70999998 4294308847
0.013988947 -0.18340127 0.70999998 4294374642
0.015357643 -0.1836596 0.71100003 4294374642
0.01670664 -0.18365969 0.71100003 4294440438
0.018055638 -0.18365975 0.71100003 4294440438
0.019404642 -0.18365985 0.71100003 4294308338
0.020753646 -0.18365996 0.71100003 4294374131
0.02210266 -0.1836601 0.71100003 4294308336
0.023451673 -0.18366025 0.71100003 4294505458
0.024800695 -0.18366045 0.71100003 4294308849
0.026149726 -0.18366066 0.71100003 4294440436
0.027498765 -0.18366089 0.71100003 4294374644
0.02884781 -0.18366115 0.71100003 4294308595
0.030196862 -0.18366142 0.71100003 4294440438
0.031545922 -0.1836617 0.71100003 4294703353
0.032894991 -0.183662 0.71100003 4294308595
0.034340404 -0.18417898 0.713 4294374644
0.035693288 -0.18417932 0.713 4294440951
0.037098143 -0.18443801 0.71399999 4294506744
0.038452946 -0.18443839 0.71399999 4294637814
0.039807763 -0.18443879 0.71399999 4294703607
0.041277912 -0.18495594 0.71600002 4294703603
0.042696096 -0.18521467 0.71700001 4294703603
0.044056647 -0.18521515 0.71700001 4294703605
0.045417223 -0.18521568 0.71700001 4294835191
0.046973534 -0.18599118 0.72000003 4294637560
0.048339818 -0.18599172 0.72000003 4294506231
0.049844202 -0.18650894 0.722 4294506231
0.051214319 -0.18650949 0.722 4294703353
0.05265728 -0.18676841 0.72299999 4294703353
0.054328252 -0.18780234 0.727 4294835195
0.055707917 -0.18780297 0.727 4294704123
0.057166122 -0.188062 0.72799999 4294967295
0.058547713 -0.18806264 0.72799999 4294967295
0.059929341 -0.18806335 0.72799999 4294835709
0.061310977 -0.1880641 0.72799999 4294901502
0.062864862 -0.18858147 0.73000002 4294967295
0.064514376 -0.18935719 0.73299998 4294967293
0.065995492 -0.18961634 0.73400003 4294901500
0.067572214 -0.1901338 0.736 4294901502
0.069156565 -0.19065127 0.73799998 4294835709
0.071130946 -0.19220211 0.74400002 4294901502
0.072543107 -0.19220297 0.74400002 4294901502
0.073955297 -0.19220383 0.74400002 4294835709
0.07536751 -0.19220474 0.74400002 4294967295
-0.0585193 -0.1900315 0.741 4292005831
-0.05711266 -0.1900304 0.741 4292597711
-0.05533015 -0.188747 0.736 4292662991
-0.053786498 -0.18823303 0.73400003 4292794834
-0.052393232 -0.18823199 0.73400003 4292728786
-0.050999977 -0.18823092 0.73400003 4293057751
-0.049539175 -0.18797342 0.73299998 4293058264
-0.048147872 -0.1879724 0.73299998 4293255644
-0.046629038 -0.18745856 0.73100001 4292927448
-0.045179706 -0.18720117 0.73000002 4293256157
-0.043674197 -0.18668731 0.72799999 4293321693
-0.042234398 -0.18642996 0.727 4293321693
-0.040742226 -0.18591619 0.72500002 4293255644
-0.039094776 -0.18463315 0.72000003 4293584608
-0.037728325 -0.18463227 0.72000003 4293321693
-0.036361903 -0.18463145 0.72000003 4293584608
-0.034995493 -0.18463066 0.72000003 4293387999
-0.033629108 -0.18462986 0.72000003 4293322206
-0.032262746 -0.1846291 0.72000003 4293518815
-0.030853488 -0.18437192 0.71899998 4293584608
-0.029489061 -0.18437122 0.71899998 4293584608
-0.028124651 -0.18437049 0.71899998 4293650402
-0.02676026 -0.18436982 0.71899998 4293387486
-0.025325241 -0.18385632 0.71700001 4293650402
-0.023964681 -0.1838557 0.71700001 4293715682
-0.022572609 -0.18359864 0.71600002 4293847267
-0.021213973 -0.18359804 0.71600002 4293519586
-0.019799896 -0.18308465 0.71399999 4293716708
-0.018445084 -0.18308412 0.71399999 4293782757
-0.017090291 -0.18308359 0.71399999 4293914343
-0.015735509 -0.1830831 0.71399999 4294045159
-0.014360595 -0.18282622 0.713 4294110953
-0.013007736 -0.18282577 0.713 4294176746
-0.011654884 -0.18282533 0.713 4294242795
-0.010302044 -0.18282494 0.713 4293979366
-0.0089492155 -0.18282458 0.713 4294045159
-0.0075963922 -0.18282418 0.713 4294110439
-0.006226066 -0.18231101 0.71100003 4294176233
-0.0048770555 -0.18231072 0.71100003 4294176746
-0.0035280525 -0.18231042 0.71100003 4294242795
-0.0021759907 -0.18205371 0.70999998 4294177261
-0.00082889741 -0.18205351 0.70999998 4294177261
0.00051819085 -0.18205328 0.70999998 4294046445
0.0018652744 -0.18205309 0.70999998 4294112238
0.0032123544 -0.1820529 0.70999998 4293783273
0.0045594312 -0.18205275 0.70999998 4293914603
0.005906505 -0.18205263 0.70999998 4294176750
0.0072535775 -0.18205254 0.70999998 4294374129
0.0086006476 -0.18205245 0.70999998 4294045680
0.0099477172 -0.18205239 0.70999998 4294374644
0.011294786 -0.18205234 0.70999998 4294308847
0.012641858 -0.18205233 0.70999998 4294308847
0.013988929 -0.18205234 0.70999998 4294440436
0.015336002 -0.18205236 0.70999998 4294440436
0.016706577 -0.18230885 0.71100003 4294506229
0.018055553 -0.18230896 0.71100003 4294440436
0.019404532 -0.18230902 0.71100003 4294177009
0.020753514 -0.18230914 0.71100003 4294308595
0.022102505 -0.18230927 0.71100003 4294374127
0.023517467 -0.18282229 0.713 4294374127
0.024800498 -0.18230961 0.71100003 4294374640
0.026149506 -0.18230985 0.71100003 4294308847
0.027498521 -0.18231009 0.71100003 4294243826
0.028847547 -0.18231031 0.71100003 4294375156
0.030196579 -0.18231061 0.71100003 4294506229
0.031545617 -0.18231092 0.71100003 4294506229
0.032894671 -0.18231125 0.71100003 4294243056
0.034340054 -0.18282437 0.713 4294440436
0.035692915 -0.18282473 0.713 4294506742
0.037045795 -0.18282513 0.713 4294572791
0.038398683 -0.18282554 0.713 4294375156
0.039807338 -0.18308236 0.71399999 4294243826
0.041277453 -0.18359567 0.71600002 4294243054
0.04263607 -0.18359612 0.71600002 4294506483
0.044056159 -0.18385305 0.71700001 4294506483
0.045416705 -0.18385352 0.71700001 4294637812
0.047103465 -0.18513615 0.722 4294637814
0.048339255 -0.18462385 0.72000003 4294506229
0.049705558 -0.18462446 0.72000003 4294703353
0.051213719 -0.18513785 0.722 4294637560
0.052656669 -0.18539488 0.72299999 4294308595
0.054327618 -0.18642123 0.727 4294703353
0.055707257 -0.18642189 0.727 4294704123
0.05716544 -0.18667893 0.72799999 4294901502
0.058547024 -0.18667965 0.72799999 4294967295
0.059928626 -0.18668036 0.72799999 4294901502
0.061478682 -0.18719393 0.73000002 4294704123
0.062864125 -0.18719469 0.73000002 4294835709
0.064337604 -0.1874519 0.73100001 4294835707
0.065994702 -0.18822195 0.73400003 4294835707
0.067571409 -0.18873559 0.736 4294835709
0.069155745 -0.18924929 0.73799998 4294704123
0.071130104 -0.19078878 0.74400002 4294835709
0.072542243 -0.19078963 0.74400002 4294835709
0.073954426 -0.19079049 0.74400002 4294769146
0.075366609 -0.19079135 0.74400002 4294966782
-0.058991987 -0.19015104 0.74699998 4292334283
-0.057111528 -0.18862258 0.741 4292662991
-0.055704929 -0.18862145 0.741 4292662991
-0.053931978 -0.18734762 0.736 4292794834
-0.05239217 -0.18683743 0.73400003 4292729300
-0.05099893 -0.18683639 0.73400003 4292926935
-0.049538147 -0.18658081 0.73299998 4292926935
-0.048146881 -0.18657979 0.73299998 4293255644
-0.04656427 -0.18581519 0.73000002 4293124057
-0.045054972 -0.18530513 0.72799999 4293255644
-0.043673262 -0.18530421 0.72799999 4293255644
-0.042233482 -0.18504873 0.727 4293255644
-0.040741343 -0.18453878 0.72500002 4293321441
-0.039202508 -0.18377426 0.722 4293716199
-0.037727486 -0.18326436 0.72000003 4293518815
-0.03636108 -0.18326353 0.72000003 4293584608
-0.034994699 -0.18326274 0.72000003 4293387486
-0.03362833 -0.18326192 0.72000003 4293321693
-0.032351606 -0.18377022 0.722 4293518302
-0.030895663 -0.18326041 0.72000003 4293649888
-0.029529365 -0.18325971 0.72000003 4293649888
-0.02812396 -0.18300445 0.71899998 4293913060
-0.026759587 -0.18300377 0.71899998 4293715936
-0.025324602 -0.18249409 0.71700001 4293847265
-0.023930639 -0.18223892 0.71600002 4293650402
-0.022572011 -0.18223831 0.71600002 4293650402
-0.021154143 -0.18172868 0.71399999 4293585379
-0.019799342 -0.18172815 0.71399999 4293782757
-0.018444557 -0.18172757 0.71399999 4293782757
-0.017089784 -0.18172707 0.71399999 4293914343
-0.015735025 -0.18172657 0.71399999 4294045159
-0.014380274 -0.18172611 0.71399999 4294110953
-0.013007297 -0.18147114 0.713 4294110953
-0.011654468 -0.18147069 0.713 4294176746
-0.010301652 -0.18147029 0.713 4294110953
-0.0089488449 -0.18146992 0.713 4294045159
-0.0075960462 -0.18146957 0.713 4293978851
-0.0062257443 -0.18096025 0.71100003 4294110693
-0.0048767566 -0.18095991 0.71100003 4294110953
-0.0035277766 -0.18095964 0.71100003 4294176746
-0.0021757376 -0.18070479 0.70999998 4294045930
-0.00082866731 -0.18070456 0.70999998 4294177259
0.00051839801 -0.18070437 0.70999998 4294243054
0.001865459 -0.18070418 0.70999998 4294374640
0.0032125157 -0.18070401 0.70999998 4294177263
0.0045595695 -0.18070383 0.70999998 4294243056
0.0059066205 -0.18070371 0.70999998 4294374129
0.0072536687 -0.18070361 0.70999998 4294637301
0.0086007155 -0.18070355 0.70999998 4294177011
0.0099477647 -0.18070351 0.70999998 4294374390
0.01129481 -0.18070343 0.70999998 4294308849
0.012641857 -0.18070342 0.70999998 4294308849
0.013988907 -0.18070342 0.70999998 4294374640
0.015335959 -0.18070348 0.70999998 4294440690
0.016706508 -0.18095806 0.71100003 4294440690
0.018055461 -0.18095814 0.71100003 4294637812
0.019404419 -0.18095821 0.71100003 4294243056
0.020753382 -0.18095836 0.71100003 4294243056
0.022102349 -0.18095851 0.71100003 4294308847
0.023451321 -0.18095869 0.71100003 4294374640
0.024800299 -0.18095887 0.71100003 4294308847
0.026222842 -0.18146813 0.713 4294243054
0.027498281 -0.18095931 0.71100003 4294308847
0.028847283 -0.18095957 0.71100003 4294440690
0.030196289 -0.18095985 0.71100003 4294440688
0.031545307 -0.18096012 0.71100003 4294309101
0.032894339 -0.18096048 0.71100003 4294308847
0.034243371 -0.1809608 0.71100003 4294506483
0.035592429 -0.18096116 0.71100003 4294506996
0.036941495 -0.18096158 0.71100003 4294704375
0.038398266 -0.18147098 0.713 4294308595
0.03975115 -0.18147142 0.713 4294242802
0.041161697 -0.18172637 0.71399999 4294243056
0.042635601 -0.1822359 0.71600002 4294506229
0.044055659 -0.1824909 0.71700001 4294506229
0.045416191 -0.18249142 0.71700001 4294506229
0.046907209 -0.18300098 0.71899998 4294506229
0.048338704 -0.18325606 0.72000003 4294637814
0.049704973 -0.18325661 0.72000003 4294703353
0.051071256 -0.18325724 0.72000003 4294769146
0.052583218 -0.18376689 0.722 4294703607
0.054326978 -0.18504016 0.727 4294637814
0.055706602 -0.18504079 0.727 4294704377
0.057164762 -0.18529595 0.72799999 4294835707
0.058546331 -0.18529665 0.72799999 4294901502
0.059927911 -0.18529737 0.72799999 4294901502
0.061477948 -0.18580717 0.73000002 4294704123
0.062863365 -0.18580791 0.73000002 4294704123
0.064336821 -0.18606319 0.73100001 4294704123
0.066173732 -0.18733665 0.736 4294835709
0.067754216 -0.18784653 0.73799998 4294704123
0.069904558 -0.18988365 0.74599999 4294638330
0.071129255 -0.18937543 0.74400002 4294704123
0.072541378 -0.18937629 0.74400002 4294704123
0.073953532 -0.18937714 0.74400002 4294704123
0.075365715 -0.18937805 0.74400002 4294901502
0.076984301 -0.18988803 0.74599999 4294967295
-0.061992452 -0.18923949 0.74900001 4292136651
-0.06040886 -0.18873301 0.74699998 4292268238
-0.058911871 -0.1884792 0.74599999 4292202953
-0.057341617 -0.18797272 0.74400002 4292400589
-0.055778999 -0.18746631 0.74199998 4292269003
-0.05393089 -0.18594933 0.736 4292795347
-0.052533861 -0.18594822 0.736 4292861140
-0.050997898 -0.18544191 0.73400003 4292795347
-0.049537126 -0.1851882 0.73299998 4292597713
-0.048145872 -0.18518719 0.73299998 4293058264
-0.046563298 -0.18442827 0.73000002 4293058262
-0.045054015 -0.18392205 0.72799999 4293255898
-0.043612342 -0.18366846 0.727 4293255644
-0.042232577 -0.18366753 0.727 4293255644
-0.040740453 -0.18316135 0.72500002 4293256157
-0.039255939 -0.18265522 0.72299999 4293519586
-0.037831441 -0.18240172 0.722 4293387999
-0.036461264 -0.1824009 0.722 4293322206
-0.034993902 -0.18189485 0.72000003 4293255644
-0.033627555 -0.18189403 0.72000003 4293321693
-0.032261238 -0.18189329 0.72000003 4293452509
-0.030894935 -0.18189253 0.72000003 4293452509
-0.029487638 -0.18163916 0.71899998 4293452509
-0.028045045 -0.18113321 0.71700001 4293649888
-0.026684489 -0.18113253 0.71700001 4293518300
-0.02528864 -0.18087928 0.71600002 4293847265
-0.023930022 -0.18087864 0.71600002 4293650656
-0.022508366 -0.18037279 0.71399999 4293716449
-0.021153571 -0.18037219 0.71399999 4293585379
-0.019798793 -0.18037164 0.71399999 4293716708
-0.018444028 -0.18037111 0.71399999 4293716708
-0.017089281 -0.18037058 0.71399999 4293782757
-0.015734542 -0.18037009 0.71399999 4293848037
-0.014359676 -0.18011701 0.713 4293979366
-0.013006862 -0.18011653 0.713 4293848037
-0.011654056 -0.18011613 0.713 4294110953
-0.010315708 -0.18036832 0.71399999 4294110953
-0.008948477 -0.18011534 0.713 4294110953
-0.0075957016 -0.18011501 0.713 4294045159
-0.0062254234 -0.17960945 0.71100003 4294110953
-0.004876459 -0.17960912 0.71100003 4293980137
-0.0035275014 -0.17960884 0.71100003 4294045930
-0.0021754862 -0.17935593 0.70999998 4294045930
-0.00082843885 -0.1793557 0.70999998 4294177259
0.00051860366 -0.17935549 0.70999998 4294243056
0.0018656414 -0.17935529 0.70999998 4294243056
0.0032126757 -0.17935514 0.70999998 4294242795
0.004559706 -0.17935498 0.70999998 4294374381
0.0059067332 -0.17935485 0.70999998 4294308847
0.00725376 -0.17935474 0.70999998 4294374640
0.0086007845 -0.17935468 0.70999998 4294044909
0.0099478103 -0.17935464 0.70999998 4294242289
0.011294832 -0.17935459 0.70999998 4294045678
0.012641859 -0.17935459 0.70999998 4294308849
0.013988884 -0.17935459 0.70999998 4294243824
0.015335914 -0.17935464 0.70999998 4294178031
0.016706442 -0.17960733 0.71100003 4294045678
0.018055374 -0.17960741 0.71100003 4294374642
0.019404305 -0.17960748 0.71100003 4294308849
0.020753248 -0.17960761 0.71100003 4294308849
0.022102192 -0.17960776 0.71100003 4294374642
0.02345114 -0.17960794 0.71100003 4294243056
0.024800098 -0.17960815 0.71100003 4294176748
0.026222613 -0.18011357 0.713 4294308334
0.027575383 -0.18011382 0.713 4294243054
0.028847011 -0.17960884 0.71100003 4294243054
0.030196002 -0.17960915 0.71100003 4294308847
0.031544998 -0.17960945 0.71100003 4294308847
0.032894004 -0.17960975 0.71100003 4294178033
0.034243025 -0.17961007 0.71100003 4294375156
0.035592053 -0.17961046 0.71100003 4294375156
0.036941092 -0.17961085 0.71100003 4294243826
0.038290147 -0.17961125 0.71100003 4294308595
0.039639212 -0.1796117 0.71100003 4294308595
0.041161235 -0.18036996 0.71399999 4294177263
0.04263512 -0.18087575 0.71600002 4294440436
0.04405516 -0.18112883 0.71700001 4294374642
0.04541567 -0.18112929 0.71700001 4294506229
0.046906665 -0.1816351 0.71899998 4294440949
0.048338145 -0.18188828 0.72000003 4294440949
0.049704392 -0.18188886 0.72000003 4294506742
0.051070657 -0.18188944 0.72000003 4294572791
0.052582603 -0.18239532 0.722 4294703607
0.054176882 -0.18315384 0.72500002 4294703607
0.055705935 -0.18365975 0.727 4294638584
0.057164084 -0.18391305 0.72799999 4294638584
0.05854563 -0.18391372 0.72799999 4294638330
0.059927199 -0.18391444 0.72799999 4294835709
0.061308779 -0.18391517 0.72799999 4294704123
0.062862612 -0.18442118 0.73000002 4294638330
0.064248033 -0.18442194 0.73000002 4294704377
0.066172928 -0.18593852 0.736 4294835707
0.067753412 -0.18644464 0.73799998 4294704123
0.069903709 -0.18846653 0.74599999 4294704123
0.071128398 -0.18796213 0.74400002 4294704123
0.072540507 -0.18796298 0.74400002 4294835709
0.073952645 -0.18796386 0.74400002 4294704123
0.075364813 -0.18796477 0.74400002 4294704123
0.076983392 -0.18847096 0.74599999 4294835709
-0.061991259 -0.18781653 0.74900001 4292202442
-0.06040768 -0.18731381 0.74699998 4292334029
-0.058910713 -0.18706192 0.74599999 4292268485
-0.057340484 -0.18655924 0.74400002 4292465864
-0.055777889 -0.18605666 0.74199998 4292465612
-0.054296177 -0.18580478 0.741 4293057749
-0.052532792 -0.18454994 0.736 4292926161
-0.050996859 -0.18404743 0.73400003 4292794832
-0.049536113 -0.18379565 0.73299998 4292663255
-0.048144877 -0.18379463 0.73299998 4292926683
-0.046626106 -0.18329218 0.73100001 4293058516
-0.045053065 -0.18253899 0.72799999 4293190103
-0.043611407 -0.18228728 0.727 4293255385
-0.042231668 -0.18228637 0.727 4293386714
-0.040739562 -0.18178399 0.72500002 4293321693
-0.039255075 -0.18128163 0.72299999 4293650402
-0.037830599 -0.18103005 0.722 4293518813
-0.036460441 -0.18102925 0.722 4293321691
-0.035090309 -0.18102843 0.722 4293452509
-0.033720184 -0.18102762 0.722 4293649888
-0.032260478 -0.18052539 0.72000003 4293584093
-0.03085129 -0.18027394 0.71899998 4293584093
-0.029486932 -0.18027322 0.71899998 4293518052
-0.028044358 -0.17977107 0.71700001 4293715432
-0.026646614 -0.17951965 0.71600002 4293650142
-0.025287997 -0.17951903 0.71600002 4293847265
-0.0239294 -0.1795184 0.71600002 4293650656
-0.022507774 -0.17901635 0.71399999 4293650656
-0.021152999 -0.17901576 0.71399999 4293585379
-0.019798243 -0.17901517 0.71399999 4293519586
-0.018443502 -0.17901461 0.71399999 4293782244
-0.017088775 -0.17901409 0.71399999 4293848037
-0.015734062 -0.17901362 0.71399999 4293848037
-0.01435922 -0.17876244 0.713 4293848037
-0.013006426 -0.17876199 0.713 4293848037
-0.011653642 -0.17876156 0.713 4294045159
-0.010300872 -0.17876114 0.713 4293914343
-0.008948111 -0.17876078 0.713 4293914343
-0.0075740539 -0.17825902 0.71100003 4293914091
-0.0062251035 -0.17825869 0.71100003 4293914091
-0.0048761619 -0.17825836 0.71100003 4293914343
-0.0035272283 -0.17825811 0.71100003 4293980137
-0.0021752361 -0.17800708 0.70999998 4293980137
-0.00082821195 -0.17800687 0.70999998 4294045930
0.00051880744 -0.17800663 0.70999998 4294243056
0.0018658222 -0.17800646 0.70999998 4294177263
0.0032128333 -0.17800631 0.70999998 4294242541
0.004559841 -0.17800616 0.70999998 4294308334
0.0059068459 -0.17800602 0.70999998 4294374381
0.0072538499 -0.17800592 0.70999998 4294637297
0.0086008506 -0.17800586 0.70999998 4294176496
0.0099478522 -0.1780058 0.70999998 4294308338
0.011294854 -0.17800577 0.70999998 4294242802
0.012641857 -0.17800577 0.70999998 4294440438
0.013988858 -0.17800575 0.70999998 4294374894
0.015335865 -0.17800581 0.70999998 4294177259
0.016706372 -0.1782566 0.71100003 4294177263
0.018055277 -0.17825666 0.71100003 4294243056
0.01940419 -0.17825678 0.71100003 4294243056
0.02075311 -0.17825694 0.71100003 4294374642
0.022102032 -0.17825709 0.71100003 4294243056
0.023516925 -0.17875867 0.713 4294045678
0.024869652 -0.17875884 0.713 4294045678
0.026222387 -0.17875907 0.713 4294308849
0.027575133 -0.17875932 0.713 4294177261
0.028927885 -0.17875957 0.713 4294177261
0.030280642 -0.17875984 0.713 4294243056
0.031633414 -0.17876014 0.713 4294308849
0.032893669 -0.17825906 0.71100003 4294177779
0.034242667 -0.1782594 0.71100003 4294375158
0.035591681 -0.17825978 0.71100003 4294177779
0.036940694 -0.17826016 0.71100003 4294177779
0.038289726 -0.17826056 0.71100003 4294308595
0.039638773 -0.17826101 0.71100003 4294374644
0.041160773 -0.17901358 0.71399999 4294374642
0.042634632 -0.17951553 0.71600002 4294637814
0.044054653 -0.17976677 0.71700001 4294440436
0.045541819 -0.1802687 0.71899998 4294374642
0.046971366 -0.18052 0.72000003 4294506229
0.048471849 -0.18102199 0.722 4294637814
0.049841873 -0.18102257 0.722 4294506229
0.051211908 -0.18102315 0.722 4294506229
0.052581973 -0.18102378 0.722 4294440688
0.054026779 -0.18127514 0.72299999 4294703603
0.055705272 -0.18227872 0.727 4294638584
0.057084873 -0.18227938 0.727 4294572791
0.058544926 -0.18253079 0.72799999 4294638330
0.059926469 -0.18253154 0.72799999 4294704123
0.06130803 -0.18253227 0.72799999 4294638330
0.062689625 -0.18253303 0.72799999 4294572537
0.064247258 -0.18303525 0.73000002 4294704377
0.066172123 -0.18454042 0.736 4294835707
0.067752585 -0.18504272 0.73799998 4294704377
0.069902875 -0.18704943 0.74599999 4294704377
0.071127541 -0.18654883 0.74400002 4294704377
0.072539642 -0.18654971 0.74400002 4294835707
0.073951758 -0.1865506 0.74400002 4294638584
0.075363897 -0.1865515 0.74400002 4294506742
0.077395245 -0.18805689 0.75 4294638330
-0.060406506 -0.18589471 0.74699998 4292333260
-0.058988519 -0.18589355 0.74699998 4292136134
-0.057339348 -0.18514585 0.74400002 4292465099
-0.055776771 -0.18464704 0.74199998 4292334283
-0.054295078 -0.18439707 0.741 4292794834
-0.052531723 -0.18315175 0.736 4292663245
-0.050995819 -0.18265302 0.73400003 4292663245
-0.049535096 -0.18240313 0.73299998 4292662993
-0.048143875 -0.1824021 0.73299998 4292991958
-0.046625126 -0.18190345 0.73100001 4292861140
-0.045052107 -0.18115595 0.72799999 4293058262
-0.04361048 -0.18090616 0.727 4292991956
-0.042230755 -0.18090524 0.727 4293057749
-0.040738676 -0.18040669 0.72500002 4293057751
-0.039362799 -0.1804058 0.72500002 4293386716
-0.037882157 -0.17990729 0.72299999 4293386716
-0.036510117 -0.17990644 0.72299999 4293255131
-0.035089508 -0.1796568 0.722 4293189337
-0.033719406 -0.179656 0.722 4293518302
-0.032259725 -0.17915758 0.72000003 4293452507
-0.030850558 -0.17890801 0.71899998 4293452507
-0.029363193 -0.17816082 0.71600002 4293386462
-0.027926335 -0.17766245 0.71399999 4293584097
-0.02657152 -0.17766178 0.71399999 4293584095
-0.02528736 -0.1781588 0.71600002 4293584095
-0.02392878 -0.17815815 0.71600002 4293321693
-0.022570224 -0.17815755 0.71600002 4293584608
-0.021152427 -0.17765932 0.71399999 4293519586
-0.019797696 -0.17765878 0.71399999 4293585379
-0.018442977 -0.17765822 0.71399999 4293716195
-0.01713614 -0.17815538 0.71600002 4293716195
-0.015733577 -0.1776572 0.71399999 4293650402
-0.0143789 -0.17765675 0.71399999 4293782244
-0.013024233 -0.17765631 0.71399999 4293716708
-0.011669575 -0.17765589 0.71399999 4293848550
-0.010300484 -0.17740664 0.713 4293848550
-0.0089477459 -0.1774063 0.713 4293914343
-0.0075737126 -0.17690833 0.71100003 4293914089
-0.0062247864 -0.176908 0.71100003 4293980139
-0.0048758672 -0.17690769 0.71100003 4293914343
-0.0035269565 -0.17690741 0.71100003 4293980137
-0.0021749879 -0.1766583 0.70999998 4293980137
-0.00082798646 -0.17665808 0.70999998 4294045930
0.00051900977 -0.17665787 0.70999998 4294177263
0.0018660014 -0.17665768 0.70999998 4294045678
0.0032129895 -0.1766575 0.70999998 4293980139
0.0045599742 -0.17665735 0.70999998 4294243054
0.0059069558 -0.17665723 0.70999998 4294243052
0.007253937 -0.17665714 0.70999998 4294243052
0.0086009149 -0.17665707 0.70999998 4294242541
0.0099478923 -0.17665701 0.70999998 4294374127
0.01129487 -0.17665698 0.70999998 4294374131
0.012641852 -0.17665699 0.70999998 4294374131
0.014008535 -0.17690583 0.71100003 4294243054
0.015357415 -0.17690586 0.71100003 4294308847
0.016706297 -0.17690593 0.71100003 4294308849
0.018055182 -0.176906 0.71100003 4294243056
0.019458653 -0.17740372 0.713 4293979885
0.020811344 -0.17740387 0.713 4294243056
0.022164037 -0.17740402 0.713 4294243056
0.023516737 -0.17740418 0.713 4294177263
0.024904324 -0.17765321 0.71399999 4294110955
0.026258938 -0.17765343 0.71399999 4294176748
0.027613556 -0.17765366 0.71399999 4294110955
0.028968178 -0.17765392 0.71399999 4294308334
0.030322816 -0.17765422 0.71399999 4294112240
0.031677462 -0.17765452 0.71399999 4294178033
0.032985859 -0.17740606 0.713 4294243572
0.034338627 -0.17740639 0.713 4294243572
0.035691414 -0.17740677 0.713 4294178033
0.037044201 -0.17740715 0.713 4294243826
0.03839701 -0.17740758 0.713 4294308847
0.039749831 -0.17740801 0.713 4294374640
0.041160312 -0.17765728 0.71399999 4294440690
0.042634148 -0.17815542 0.71600002 4294440690
0.044054143 -0.17840473 0.71700001 4294440436
0.045541294 -0.17890289 0.71899998 4294374642
0.046905573 -0.17890342 0.71899998 4294440436
0.048471272 -0.17965047 0.722 4294440436
0.049841274 -0.17965102 0.722 4294440436
0.051211301 -0.17965165 0.722 4294506229
0.05258134 -0.17965226 0.722 4294440436
0.054026127 -0.17990173 0.72299999 4294637814
0.05570459 -0.18089771 0.727 4294703353
0.057084188 -0.18089841 0.727 4294769146
0.058544215 -0.18114793 0.72799999 4294638330
0.059925746 -0.18114865 0.72799999 4294638330
0.061307289 -0.18114938 0.72799999 4294440951
0.062688857 -0.18115014 0.72799999 4294572537
0.064246476 -0.18164858 0.73000002 4294572791
0.066171326 -0.18314239 0.736 4294572791
0.067751758 -0.18364087 0.73799998 4294243572
0.069152392 -0.1836417 0.73799998 4294572537
0.071126662 -0.18513559 0.74400002 4294638584
0.072733752 -0.18563418 0.74599999 4294638584
0.07444784 -0.18638158 0.74900001 4294506742
0.075869456 -0.18638249 0.74900001 4294506742
0.077394292 -0.18663225 0.75 4294572537
0.07902804 -0.18713088 0.75199997 4294967295
-0.05898736 -0.18447447 0.74699998 4292136136
-0.057338208 -0.18373245 0.74400002 4292465101
-0.055775654 -0.18323743 0.74199998 4292334283
-0.054293994 -0.18298937 0.741 4292729040
-0.052673411 -0.18224746 0.73799998 4292663245
-0.050994769 -0.1812586 0.73400003 4292597452
-0.049534068 -0.18101062 0.73299998 4292662993
-0.04814288 -0.18100962 0.73299998 4292991958
-0.046624146 -0.18051474 0.73100001 4292861140
-0.045051154 -0.17977294 0.72799999 4293190105
-0.043669533 -0.17977202 0.72799999 4293123796
-0.042229846 -0.17952415 0.727 4293123796
-0.040850166 -0.17952324 0.727 4293057751
-0.039470516 -0.17952235 0.727 4293386716
-0.037881315 -0.17853378 0.72299999 4293255131
-0.036509298 -0.17853294 0.72299999 4293255131
-0.035137307 -0.17853212 0.72299999 4293255133
-0.033718631 -0.17828441 0.722 4293518304
-0.032258976 -0.17778978 0.72000003 4293452761
-0.030892737 -0.17778905 0.72000003 4293518554
-0.029362487 -0.17680062 0.71600002 4293255644
-0.027925655 -0.17630605 0.71399999 4293518815
-0.026570858 -0.17630537 0.71399999 4293518302
-0.025286719 -0.1767986 0.71600002 4293518302
-0.023928165 -0.17679796 0.71600002 4293321693
-0.022569628 -0.17679736 0.71600002 4293650402
-0.021151859 -0.17630292 0.71399999 4293650656
-0.019797146 -0.17630236 0.71399999 4293650656
-0.018442452 -0.17630184 0.71399999 4293650404
-0.017135635 -0.17679517 0.71600002 4293584610
-0.0157331 -0.17630082 0.71399999 4293650404
-0.014378442 -0.17630036 0.71399999 4293847783
-0.013005557 -0.17605299 0.713 4293782244
-0.011652823 -0.17605259 0.713 4293979366
-0.010300098 -0.17605218 0.713 4293848548
-0.0089473817 -0.17605181 0.713 4293782755
-0.0075946748 -0.17605147 0.713 4293914343
-0.0062419772 -0.17605112 0.713 4294045930
-0.0048892885 -0.17605084 0.713 4293980137
-0.0035266855 -0.1755567 0.71100003 4293980137
-0.002177804 -0.17555647 0.71100003 4293980137
-0.00082892861 -0.17555623 0.71100003 4293980137
0.00051994179 -0.17555602 0.71100003 4293980139
0.0018688077 -0.17555583 0.71100003 4293980139
0.0032176692 -0.17555566 0.71100003 4293980139
0.0045665279 -0.17555551 0.71100003 4294308847
0.0059153843 -0.17555541 0.71100003 4294177259
0.0072642388 -0.17555529 0.71100003 4294045930
0.0086009772 -0.17530832 0.70999998 4294176748
0.0099479323 -0.17530824 0.70999998 4294242541
0.011294886 -0.17530823 0.70999998 4294242802
0.012641845 -0.17530824 0.70999998 4294242802
0.014008504 -0.17555515 0.71100003 4294243054
0.015357361 -0.1755552 0.71100003 4294374640
0.016706221 -0.17555527 0.71100003 4294308847
0.018055085 -0.17555536 0.71100003 4294243054
0.019458534 -0.17604929 0.713 4294177009
0.020811198 -0.17604944 0.713 4294440438
0.022163874 -0.17604959 0.713 4294506483
0.023549533 -0.17629667 0.71399999 4294440690
0.024973871 -0.17679068 0.71600002 4294177261
0.026332255 -0.17679092 0.71600002 4294177261
0.027690649 -0.17679118 0.71600002 4294243054
0.02904905 -0.17679144 0.71600002 4294506483
0.030322518 -0.17629789 0.71399999 4294308847
0.031677142 -0.1762982 0.71399999 4294308847
0.032985512 -0.17605163 0.713 4294243572
0.034338262 -0.17605196 0.713 4294243572
0.035691023 -0.17605233 0.713 4294308849
0.037043799 -0.17605275 0.713 4294243056
0.038450431 -0.17630006 0.71399999 4294243054
0.039805133 -0.17630051 0.71399999 4294308847
0.041275136 -0.17679481 0.71600002 4294308847
0.042633656 -0.17679532 0.71600002 4294308847
0.044053633 -0.17704274 0.71700001 4294308849
0.045540757 -0.17753708 0.71899998 4294374642
0.046905022 -0.17753765 0.71899998 4294374642
0.048336428 -0.17778513 0.72000003 4294374642
0.049840685 -0.17827956 0.722 4294374644
0.05121069 -0.17828017 0.722 4294637560
0.052580703 -0.17828079 0.722 4294506231
0.054025471 -0.17852835 0.72299999 4294440438
0.055703919 -0.17951676 0.727 4294506231
0.057083484 -0.17951742 0.727 4294769146
0.0585435 -0.17976505 0.72799999 4294704125
0.059925012 -0.17976579 0.72799999 4294638332
0.06147496 -0.18026039 0.73000002 4294572791
0.062946424 -0.18050809 0.73100001 4294901500
0.064333692 -0.18050887 0.73100001 4294572791
0.066170514 -0.18174437 0.736 4294506742
0.067750931 -0.18223906 0.73799998 4294440951
0.069151551 -0.18223989 0.73799998 4294506744
0.07112579 -0.18372236 0.74400002 4294572791
0.072732843 -0.18421711 0.74599999 4294572791
0.074446931 -0.18495888 0.74900001 4294440949
0.075868532 -0.18495978 0.74900001 4294440949
0.07739336 -0.18520766 0.75 4294506742
0.079027094 -0.18570249 0.75199997 4294967295
-0.058907229 -0.18281034 0.74599999 4291938754
-0.057337075 -0.18231909 0.74400002 4292465099
-0.055699371 -0.18158281 0.741 4292269003
-0.054073088 -0.18084656 0.73799998 4292466382
-0.052529603 -0.1803554 0.736 4292466382
-0.050993729 -0.17986426 0.73400003 4292597711
-0.049533054 -0.17961816 0.73299998 4292662991
-0.048141874 -0.17961715 0.73299998 4292729040
-0.046623178 -0.17912608 0.73100001 4292597711
-0.0450502 -0.17838998 0.72799999 4292926933
-0.043668598 -0.17838906 0.72799999 4292926933
-0.042228937 -0.17814308 0.727 4292861140
-0.04084928 -0.17814219 0.727 4292926165
-0.039469644 -0.17814131 0.727 4293386716
-0.037985254 -0.17765036 0.72500002 4293255385
-0.036609463 -0.17764954 0.72500002 4293255385
-0.03513651 -0.17715867 0.72299999 4292991958
-0.033717856 -0.17691284 0.722 4293386716
-0.03225822 -0.17642203 0.72000003 4293386716
-0.030849101 -0.17617625 0.71899998 4293386716
-0.029402792 -0.1756855 0.71700001 4293255644
-0.027924974 -0.17494969 0.71399999 4293387486
-0.026570199 -0.17494902 0.71399999 4293387484
-0.025286078 -0.17543842 0.71600002 4293387484
-0.023927551 -0.17543781 0.71600002 4293189851
-0.022569036 -0.17543721 0.71600002 4293518815
-0.021210536 -0.17543662 0.71600002 4293518813
-0.019796602 -0.17494603 0.71399999 4293584606
-0.018441929 -0.17494549 0.71399999 4293584608
-0.017135132 -0.17543502 0.71600002 4293584608
-0.015732622 -0.17494448 0.71399999 4293715682
-0.014377989 -0.17494403 0.71399999 4293649888
-0.013005129 -0.17469856 0.713 4293321693
-0.011652413 -0.17469814 0.713 4293782244
-0.010299711 -0.17469773 0.713 4293848550
-0.0089470195 -0.17469738 0.713 4293716708
-0.0075730341 -0.17420699 0.71100003 4293519588
-0.006224154 -0.17420666 0.71100003 4293848296
-0.0048752818 -0.17420636 0.71100003 4293585379
-0.0035264175 -0.17420609 0.71100003 4293848550
-0.0021744957 -0.1739608 0.70999998 4293848550
-0.0008275407 -0.17396058 0.70999998 4293980137
0.00051940948 -0.17396034 0.70999998 4293980137
0.0018663547 -0.17396016 0.70999998 4293980137
0.0032178222 -0.17420503 0.71100003 4294045930
0.0045666578 -0.17420489 0.71100003 4294045930
0.0059154909 -0.17420477 0.71100003 4294045930
0.0072643221 -0.17420466 0.71100003 4293980137
0.0086010378 -0.1739596 0.70999998 4294045930
0.0099479714 -0.17395955 0.70999998 4294045930
0.011294901 -0.17395949 0.70999998 4293979887
0.012641837 -0.17395952 0.70999998 4293979887
0.014008475 -0.17420456 0.71100003 4294177261
0.015357308 -0.1742046 0.71100003 4294177261
0.016706146 -0.17420468 0.71100003 4294243052
0.018105773 -0.17469478 0.713 4294243052
0.019485701 -0.1749399 0.71399999 4293914605
0.020840241 -0.17494 0.71399999 4294112240
0.02219479 -0.17494018 0.71399999 4294112240
0.023549344 -0.17494038 0.71399999 4294112240
0.024973663 -0.17543061 0.71600002 4294177259
0.026332024 -0.17543085 0.71600002 4294045930
0.02769039 -0.17543107 0.71600002 4294177263
0.029048767 -0.17543136 0.71600002 4294374642
0.030407159 -0.17543165 0.71600002 4293980139
0.031676825 -0.17494193 0.71399999 4294177261
0.03303143 -0.17494226 0.71399999 4294045680
0.034386057 -0.17494261 0.71399999 4294308595
0.035740696 -0.17494299 0.71399999 4294178033
0.037095346 -0.1749434 0.71399999 4294178033
0.038450006 -0.1749438 0.71399999 4294243054
0.039804682 -0.17494425 0.71399999 4294308847
0.041274663 -0.17543475 0.71600002 4294178031
0.042633161 -0.17543523 0.71600002 4294178031
0.044053119 -0.17568077 0.71700001 4294243826
0.045540221 -0.17617132 0.71899998 4294243826
0.046904463 -0.17617187 0.71899998 4294374642
0.04833585 -0.17641747 0.72000003 4294374642
0.049702026 -0.17641807 0.72000003 4294375156
0.051210068 -0.17690873 0.722 4294440949
0.052580073 -0.17690934 0.722 4294506231
0.054024812 -0.177155 0.72299999 4294440438
0.055703241 -0.17813581 0.727 4294440438
0.057082787 -0.1781365 0.727 4294703353
0.058462366 -0.17813721 0.727 4294769146
0.059924271 -0.17838295 0.72799999 4294703353
0.061474212 -0.17887376 0.73000002 4294637814
0.062945649 -0.17911957 0.73100001 4294637814
0.064332895 -0.17912035 0.73100001 4294506742
0.066169702 -0.18034634 0.736 4294572791
0.067750081 -0.18083723 0.73799998 4294506744
0.069150694 -0.18083808 0.73799998 4294506744
0.070933722 -0.1818191 0.74199998 4294243572
0.072731964 -0.18280014 0.74599999 4294375158
0.074446015 -0.18353619 0.74900001 4294177009
0.075968891 -0.18378216 0.75 4294308595
0.077598788 -0.18427317 0.75199997 4294243572
0.079236291 -0.18476422 0.75400001 4294967295
0.080667466 -0.1847652 0.75400001 4294966776
-0.058906071 -0.18139321 0.74599999 4292071108
-0.057335939 -0.18090576 0.74400002 4292465610
-0.055698268 -0.1801752 0.741 4292334535
-0.054072004 -0.17944463 0.73799998 4292465864
-0.052528538 -0.17895728 0.736 4292597198
-0.050992679 -0.17846991 0.73400003 4292597198
-0.04953203 -0.17822573 0.73299998 4292662991
-0.04814088 -0.17822474 0.73299998 4292729040
-0.046622198 -0.17773746 0.73100001 4292728786
-0.04504925 -0.17700705 0.72799999 4292991958
-0.043667667 -0.17700613 0.72799999 4292991956
-0.042228028 -0.17676206 0.727 4292926163
-0.040848393 -0.17676117 0.727 4292991956
-0.03946878 -0.17676027 0.727 4293452507
-0.037984416 -0.17627317 0.72500002 4293255383
-0.036608644 -0.17627233 0.72500002 4293189589
-0.035135705 -0.17578524 0.72299999 4293057753
-0.033717077 -0.17554133 0.722 4293386462
-0.032257471 -0.17505431 0.72000003 4293255131
-0.030848375 -0.17481044 0.71899998 4293189337
-0.029402085 -0.17432342 0.71700001 4293124057
-0.027924294 -0.17359337 0.71399999 4293321693
-0.026569545 -0.17359272 0.71399999 4293452761
-0.025285445 -0.17407832 0.71600002 4293584347
-0.023926934 -0.17407769 0.71600002 4293255644
-0.022568448 -0.17407709 0.71600002 4293518815
-0.021209966 -0.17407651 0.71600002 4293519067
-0.019796057 -0.17358969 0.71399999 4293584860
-0.018441405 -0.17358917 0.71399999 4293584608
-0.01708677 -0.17358866 0.71399999 4293518815
-0.015732145 -0.17358817 0.71399999 4293649888
-0.014357398 -0.17334458 0.713 4293649888
-0.013004697 -0.17334414 0.713 4293518561
-0.011652005 -0.1733437 0.713 4293650404
-0.010299328 -0.17334333 0.713 4293782244
-0.008946659 -0.17334297 0.713 4293782244
-0.0075726975 -0.17285639 0.71100003 4293781990
-0.0062238402 -0.17285606 0.71100003 4294110955
-0.0048749917 -0.17285576 0.71100003 4293979366
-0.00352615 -0.17285548 0.71100003 4294045159
-0.0021742522 -0.17261212 0.70999998 4294045159
-0.00082731986 -0.17261186 0.70999998 4293979366
0.00051960687 -0.17261165 0.70999998 4293980137
0.0018665291 -0.17261147 0.70999998 4293980137
0.0032270253 -0.17334065 0.713 4293980137
0.0045796321 -0.17334053 0.713 4294045930
0.0059155957 -0.17285417 0.71100003 4293980137
0.0072644036 -0.17285408 0.71100003 4293980137
0.0086132102 -0.17285402 0.71100003 4294176746
0.0099620167 -0.17285398 0.71100003 4294308588
0.011310825 -0.17285398 0.71100003 4293979885
0.012659632 -0.17285395 0.71100003 4293979885
0.014008442 -0.17285398 0.71100003 4294045932
0.015357252 -0.17285402 0.71100003 4294045932
0.016706066 -0.1728541 0.71100003 4294177261
0.018105669 -0.1733404 0.713 4294308847
0.019403707 -0.1728543 0.71100003 4294177261
0.020752534 -0.17285442 0.71100003 4294243054
0.022194618 -0.17358392 0.71399999 4294242795
0.023615113 -0.17407034 0.71600002 4294308588
0.024973445 -0.17407055 0.71600002 4294045930
0.026331786 -0.17407081 0.71600002 4293914343
0.027690131 -0.17407103 0.71600002 4293980398
0.029048488 -0.17407133 0.71600002 4294243826
0.030406855 -0.1740716 0.71600002 4294177263
0.031676494 -0.17358568 0.71399999 4294374642
0.033031087 -0.173586 0.71399999 4294112240
0.034385696 -0.17358637 0.71399999 4294112240
0.035740308 -0.17358676 0.71399999 4294243056
0.037094936 -0.17358714 0.71399999 4294243056
0.038449571 -0.17358756 0.71399999 4294112240
0.039804228 -0.17358801 0.71399999 4294243826
0.041274194 -0.17407474 0.71600002 4294243824
0.042692214 -0.17431833 0.71700001 4294112238
0.044052601 -0.17431882 0.71700001 4294243824
0.045539685 -0.1748056 0.71899998 4294375154
0.046969142 -0.1750493 0.72000003 4294374640
0.048335277 -0.17504986 0.72000003 4294308847
0.049701426 -0.17505047 0.72000003 4294374642
0.05120945 -0.1755373 0.722 4294440436
0.052579429 -0.17553794 0.722 4294440436
0.054024149 -0.1757817 0.72299999 4294440436
0.05570256 -0.17675491 0.727 4294440438
0.057082083 -0.17675561 0.727 4294506231
0.058461644 -0.17675629 0.727 4294637812
0.060088161 -0.17748643 0.73000002 4294703605
0.061473455 -0.17748721 0.73000002 4294506229
0.063117079 -0.17821734 0.73299998 4294440436
0.064508103 -0.17821814 0.73299998 4294506231
0.066168882 -0.17894837 0.736 4294637560
0.067749254 -0.17943546 0.73799998 4294637814
0.06924355 -0.17967948 0.73900002 4294506229
0.070932843 -0.18040973 0.74199998 4294440951
0.072731063 -0.18138321 0.74599999 4294375158
0.074445106 -0.18211353 0.74900001 4294177779
0.075967953 -0.18235761 0.75 4294177779
0.077597834 -0.18284483 0.75199997 4294375158
0.079235338 -0.18333212 0.75400001 4294967295
0.080666482 -0.18333308 0.75400001 4294966513
-0.057334803 -0.17949249 0.74400002 4292202692
-0.055697151 -0.17876761 0.741 4292136388
-0.054144185 -0.178284 0.73900002 4292465097
-0.05252748 -0.1775592 0.736 4292334283
-0.050922178 -0.17683439 0.73299998 4292597198
-0.049531009 -0.17683335 0.73299998 4292597452
-0.04813987 -0.17683232 0.73299998 4292597452
-0.046621222 -0.17634888 0.73100001 4292662991
-0.045172054 -0.17610665 0.73000002 4292662991
-0.043666735 -0.17562324 0.72799999 4292662991
-0.042227115 -0.17538108 0.727 4292991956
-0.040847503 -0.17538019 0.727 4293057749
-0.039467908 -0.17537929 0.727 4293123542
-0.037983574 -0.17489599 0.72500002 4293123796
-0.036607828 -0.17489515 0.72500002 4293123796
-0.035086315 -0.17417063 0.722 4293123544
-0.033716306 -0.17416984 0.722 4293189337
