# .PCD v0.7 - Point Cloud Data file format
VERSION 0.7
FIELDS x y z rgba
SIZE 4 4 4 4
TYPE F F F U
COUNT 1 1 1 1
WIDTH 1074
HEIGHT 1
VIEWPOINT 0 0 0 1 0 0 0
POINTS 1074
DATA ascii
-0.15217994 0.082990199 0.81300002 4286411391
-0.14790396 0.083187439 0.815 4284109149
-0.14599483 0.082981028 0.81300002 4284043356
-0.14444873 0.082978763 0.81300002 4284043356
-0.14290273 0.08297652 0.81300002 4284109149
-0.1413568 0.082974292 0.81300002 4284701036
-0.13981092 0.08297208 0.81300002 4285161587
-0.13826513 0.082969874 0.81300002 4285227381
-0.13671944 0.082967691 0.81300002 4285622138
-0.13550633 0.083169624 0.815 4285294704
-0.13395697 0.083167471 0.815 4284242273
-0.1324077 0.083165325 0.815 4285029245
-0.1311796 0.083367288 0.81699997 4294965759
-0.29648343 0.081860714 0.78500003 4290555314
-0.29498854 0.081858888 0.78500003 4290228398
-0.29199806 0.081439935 0.78100002 4290886585
-0.29013863 0.081333786 0.77999997 4290886846
-0.28717273 0.08091481 0.77600002 4290755259
-0.28569466 0.080912903 0.77600002 4291147707
-0.28421643 0.080910958 0.77600002 4291015865
-0.28273821 0.080909021 0.77600002 4291145655
-0.28125983 0.080907032 0.77600002 4292132806
-0.27978143 0.080905035 0.77600002 4292070089
-0.27902016 0.081111528 0.778 4291872709
-0.27753788 0.081109472 0.778 4291477700
-0.26753959 0.078605384 0.75400001 4290030253
-0.26610282 0.07860335 0.75400001 4290095787
-0.26466602 0.078601301 0.75400001 4290424496
-0.26253098 0.078390755 0.75199997 4290358192
-0.26109788 0.078388676 0.75199997 4289437090
-0.25966471 0.078386575 0.75199997 4287662478
-0.2572014 0.078071773 0.74900001 4284307034
-0.25577393 0.07806965 0.74900001 4284632652
-0.26826918 0.082340896 0.79000002 4285356374
-0.26676351 0.082338639 0.79000002 4285355859
-0.26291016 0.082540162 0.792 4286539113
-0.24149741 0.078047611 0.74900001 4286408045
-0.2400697 0.078045346 0.74900001 4286078824
-0.23864192 0.078043051 0.74900001 4286803805
-0.23753086 0.078144953 0.75 4288580216
-0.2367308 0.078351021 0.75199997 4288712847
-0.23623598 0.078661248 0.755 4288647054
-0.23479678 0.078658901 0.755 4288581263
-0.23459394 0.07907328 0.759 4288647056
-0.23376147 0.079279251 0.76099998 4288712849
-0.2326161 0.079381034 0.76200002 4288647056
-0.23177031 0.079586975 0.764 4288581263
-0.23091689 0.079792887 0.76599997 4288581263
-0.22945675 0.079790443 0.76599997 4288514964
-0.23246136 0.081350446 0.78100002 4288514964
-0.23097268 0.08134795 0.78100002 4288580749
-0.23007166 0.081553772 0.78299999 4288054405
-0.22857924 0.081551254 0.78299999 4288317060
-0.2276668 0.081757024 0.78500003 4290356643
-0.22617063 0.081754513 0.78500003 4290619322
-0.22410199 0.081543691 0.78299999 4290619322
-0.22260962 0.081541158 0.78299999 4290489260
-0.22168212 0.081746899 0.78500003 4290884018
-0.21962501 0.081536077 0.78299999 4291344565
-0.21813279 0.081533544 0.78299999 4291476407
-0.2171939 0.081739247 0.78500003 4291345085
-0.16794898 0.083937064 0.80699998 4289898667
-0.16641319 0.083934605 0.80699998 4288319892
-0.16528608 0.084140167 0.80900002 4287924364
-0.16374661 0.084137723 0.80900002 4286476918
-0.16220722 0.084135287 0.80900002 4286214530
-0.14563794 0.084317289 0.81099999 4289701291
-0.14409563 0.084315002 0.81099999 4289897652
-0.14290498 0.084520668 0.81300002 4290292410
-0.14135903 0.084518425 0.81300002 4290556350
-0.13981314 0.084516175 0.81300002 4290293178
-0.13826735 0.084513962 0.81300002 4290161592
-0.13672163 0.084511757 0.81300002 4290490556
-0.13517597 0.084509566 0.81300002 4290426810
-0.13330166 0.084299497 0.81099999 4289834930
-0.13175996 0.084297344 0.81099999 4290622895
-0.13053949 0.084503099 0.81300002 4294967295
-0.12931144 0.08470884 0.815 4294967295
-0.29572985 0.083141334 0.78299999 4290620846
-0.29348728 0.082927153 0.78100002 4290096560
-0.29087827 0.082606778 0.778 4291083455
-0.2886526 0.082392558 0.77600002 4291544510
-0.28643447 0.082178332 0.77399999 4291807938
-0.28496024 0.082176425 0.77399999 4292200146
-0.28348583 0.082174487 0.77399999 4292068303
-0.28201142 0.082172535 0.77399999 4292067792
-0.28053692 0.082170568 0.77399999 4292396757
-0.27906233 0.082168557 0.77399999 4292397768
-0.27758771 0.082166538 0.77399999 4292069059
-0.27611297 0.082164489 0.77399999 4291543495
-0.27463818 0.082162425 0.77399999 4289569704
-0.2664578 0.080143481 0.755 4289897641
-0.26501912 0.080141425 0.755 4290489521
-0.26323128 0.080033205 0.75400001 4290489006
-0.26109996 0.079818837 0.75199997 4289765539
-0.25966686 0.079816729 0.75199997 4288449954
-0.24149968 0.079471923 0.74900001 4287068021
-0.24007195 0.079469636 0.74900001 4286476141
-0.23896286 0.079573445 0.75 4286673264
-0.23816659 0.079783306 0.75199997 4288054916
-0.2373627 0.079993151 0.75400001 4288647054
-0.23623836 0.080096893 0.755 4289107605
-0.23542114 0.080306709 0.75700003 4288646541
-0.23521446 0.08072865 0.76099998 4288646541
-0.23407105 0.080832332 0.76200002 4288647054
-0.23322903 0.081042074 0.764 4288647054
-0.23237945 0.081251785 0.76599997 4288647054
-0.23091932 0.081249341 0.76599997 4288712847
-0.22945921 0.081246898 0.76599997 4288384150
-0.23305911 0.083047509 0.78299999 4288318356
-0.23156662 0.083044998 0.78299999 4288253332
-0.2300742 0.083042473 0.78299999 4287726987
-0.22858171 0.083039939 0.78299999 4288185990
-0.22766934 0.083249502 0.78500003 4290159523
-0.22617318 0.083246969 0.78500003 4290554299
-0.22410452 0.083032317 0.78299999 4289501611
-0.22261217 0.083029754 0.78299999 4288581263
-0.22168466 0.083239287 0.78500003 4287725954
-0.22018857 0.083236724 0.78500003 4288054401
-0.2186925 0.083234154 0.78500003 4288778124
-0.21719649 0.083231583 0.78500003 4289437338
-0.1721317 0.085265994 0.80500001 4289242273
-0.17059948 0.085263498 0.80500001 4290161062
-0.16906731 0.085260987 0.80500001 4290818993
-0.16711898 0.085046671 0.80299997 4290358703
-0.16559078 0.085044198 0.80299997 4290424496
-0.16447127 0.085253544 0.80500001 4290228402
-0.16293941 0.085251093 0.80500001 4291017662
-0.1614076 0.085248649 0.80500001 4291411654
-0.1602731 0.085458003 0.80699998 4292596185
-0.14528109 0.085646041 0.80900002 4294967295
-0.14374258 0.085643739 0.80900002 4294967295
-0.1425557 0.085853174 0.81099999 4294967295
-0.14101352 0.085850887 0.81099999 4294967295
-0.13947144 0.085848644 0.81099999 4294967295
-0.13792942 0.085846409 0.81099999 4294967295
-0.13638748 0.085844174 0.81099999 4294967295
-0.13484563 0.085841976 0.81099999 4294967295
-0.13330384 0.085839771 0.81099999 4294967295
-0.1317621 0.085837588 0.81099999 4294967295
-0.13022049 0.085835442 0.81099999 4294967295
-0.12899627 0.086044975 0.81300002 4294967295
-0.29795039 0.084417909 0.78100002 4289899951
-0.29646337 0.084416151 0.78100002 4290883502
-0.29497629 0.084414363 0.78100002 4290751916
-0.29311329 0.084304452 0.77999997 4290029742
-0.2901324 0.083870307 0.77600002 4291345602
-0.28753856 0.083544202 0.773 4291609792
-0.28606629 0.083542332 0.773 4292004550
-0.28459394 0.083540417 0.773 4292266450
-0.28312153 0.083538495 0.773 4291740106
-0.28201342 0.083644614 0.77399999 4292068044
-0.28053892 0.083642632 0.77399999 4292462802
-0.27798274 0.083316445 0.77100003 4292266187
-0.27651381 0.083314434 0.77100003 4292003014
-0.27433136 0.083096266 0.76899999 4291674311
-0.27215648 0.082878105 0.76700002 4289832107
-0.27034202 0.082767963 0.76599997 4289700257
-0.26818037 0.082549781 0.764 4290160808
-0.26602632 0.082331583 0.76200002 4290358444
-0.26283816 0.081789255 0.75700003 4290029222
-0.26139554 0.081787124 0.75700003 4288319649
-0.25995284 0.081784971 0.75700003 4285293428
-0.24150196 0.080896266 0.74900001 4286806910
-0.24007428 0.080893964 0.74900001 4286346359
-0.23960236 0.08121565 0.75199997 4286674034
-0.23880234 0.081429303 0.75400001 4288384651
-0.23830952 0.081750937 0.75700003 4288516751
-0.23686653 0.081748553 0.75700003 4288516751
-0.23542348 0.081746176 0.75700003 4288646541
-0.235526 0.082283705 0.76200002 4288778126
-0.23407345 0.082281284 0.76200002 4288646541
-0.23323148 0.082494803 0.764 4288778126
-0.23238191 0.082708307 0.76599997 4288647056
-0.23092175 0.08270584 0.76599997 4288647056
-0.22946166 0.082703374 0.76599997 4288187538
-0.23246634 0.084320374 0.78100002 4288121745
-0.23097773 0.084317848 0.78100002 4287924364
-0.22948904 0.084315315 0.78100002 4287661192
-0.22858429 0.084528677 0.78299999 4288186496
-0.22709183 0.084526114 0.78299999 4290028444
-0.22559945 0.084523551 0.78299999 4290818491
-0.22410704 0.084520981 0.78299999 4289831596
-0.22261472 0.084518395 0.78299999 4288647569
-0.2211224 0.084515825 0.78299999 4287989896
-0.21963014 0.084513254 0.78299999 4287530387
-0.21869509 0.08472655 0.78500003 4288385696
-0.21775241 0.084939793 0.787 4289239708
-0.2162526 0.084937192 0.787 4288713364
-0.16864976 0.086574897 0.80299997 4290687152
-0.16691335 0.086464569 0.80199999 4290292910
-0.16538705 0.086462088 0.80199999 4289832359
-0.16386081 0.086459599 0.80199999 4290030496
-0.16253707 0.086564936 0.80299997 4290951598
-0.16100906 0.086562455 0.80299997 4292001468
-0.15948111 0.086559996 0.80299997 4292593605
-0.15834667 0.08677315 0.80500001 4294106074
-0.15681508 0.086770721 0.80500001 4294966008
-0.15413414 0.086981446 0.80699998 4294967295
-0.15259896 0.086979046 0.80699998 4294967295
-0.15106386 0.086976655 0.80699998 4294967295
-0.14952885 0.086974286 0.80699998 4294967295
-0.14799389 0.086971916 0.80699998 4294967295
-0.14645903 0.086969569 0.80699998 4294967295
-0.14492421 0.086967237 0.80699998 4294967295
-0.14220642 0.087178133 0.80900002 4294967295
-0.14066803 0.087175846 0.80900002 4294967295
-0.13912974 0.087173574 0.80900002 4294967295
-0.13759151 0.087171309 0.80900002 4294967295
-0.13605334 0.087169059 0.80900002 4294967295
-0.13451529 0.087166831 0.80900002 4294967295
-0.13297729 0.087164626 0.80900002 4294967295
-0.13143936 0.087162428 0.80900002 4294967295
-0.1299015 0.087160259 0.80900002 4294967295
-0.12868106 0.087373562 0.81099999 4294967295
-0.37070656 0.084287472 0.76599997 4294967295
-0.36926073 0.084288195 0.76599997 4294967295
-0.3653973 0.084400058 0.76700002 4294967295
-0.36394811 0.084400527 0.76700002 4294967295
-0.34798425 0.08440198 0.76700002 4294967295
-0.34653118 0.084401794 0.76700002 4294967295
-0.34507778 0.084401548 0.76700002 4294966783
-0.34362414 0.08440125 0.76700002 4294964985
-0.29013422 0.085346222 0.77600002 4291674313
-0.28754041 0.08501441 0.773 4291543999
-0.2860682 0.08501254 0.773 4291806914
-0.28459588 0.08501064 0.773 4292069067
-0.28312346 0.085008703 0.773 4291740358
-0.28165102 0.085006751 0.773 4291936202
-0.28017846 0.085004769 0.773 4292002251
-0.27798474 0.084782846 0.77100003 4292002760
-0.2757985 0.084560879 0.76899999 4291739845
-0.27433336 0.084558837 0.76899999 4291608518
-0.27215853 0.084336877 0.76700002 4289832107
-0.27034411 0.084224835 0.76599997 4289700257
-0.26748046 0.083782934 0.76200002 4289766050
-0.26567927 0.083670877 0.76099998 4290028709
-0.26284024 0.083228976 0.75700003 4290160295
-0.26139763 0.083226837 0.75700003 4289042856
-0.25995502 0.083224691 0.75700003 4287464081
-0.25851229 0.083222516 0.75700003 4285818750
-0.24182671 0.082430556 0.75 4287462016
-0.2403971 0.082428239 0.75 4287330174
-0.24024197 0.082865506 0.75400001 4287330426
-0.23912145 0.082973056 0.755 4289041300
-0.2383119 0.083190471 0.75700003 4288845200
-0.23749471 0.083407864 0.759 4288450443
-0.23604791 0.083405465 0.759 4288647054
-0.23552842 0.083732709 0.76200002 4288515467
-0.23469026 0.083950028 0.764 4288581001
-0.23384444 0.084167324 0.76599997 4288581001
-0.23268774 0.084274739 0.76700002 4288514704
-0.23122574 0.084272273 0.76700002 4288383118
-0.23096198 0.084709249 0.77100003 4287989644
-0.22949235 0.084706746 0.77100003 4287923851
-0.23098023 0.085802853 0.78100002 4287858566
-0.22949159 0.085800298 0.78100002 4287529858
-0.22800297 0.085797735 0.78100002 4287529593
-0.22651434 0.085795164 0.78100002 4289306003
-0.22502577 0.085792594 0.78100002 4290621602
-0.22353724 0.085790008 0.78100002 4290687395
-0.22204871 0.08578743 0.78100002 4290621609
-0.22056021 0.085784838 0.78100002 4291214003
-0.21907176 0.085782252 0.78100002 4291081156
-0.21814047 0.085999303 0.78299999 4290620605
-0.2183084 0.086655684 0.78899997 4289241505
-0.21762913 0.086982533 0.792 4287530887
-0.21611987 0.086979896 0.792 4287663228
-0.19191179 0.08759357 0.79799998 4289372839
-0.19039196 0.087590925 0.79799998 4289437605
-0.18020539 0.087792091 0.80000001 4289306787
-0.17715922 0.08778692 0.80000001 4289110439
-0.17563622 0.087784342 0.80000001 4288978851
-0.17411329 0.087781772 0.80000001 4288452251
-0.17215893 0.087559752 0.79799998 4288846497
-0.17021228 0.08733777 0.796 4289241255
-0.16869713 0.087335229 0.796 4290357158
-0.16844226 0.087990992 0.80199999 4290817709
-0.16691588 0.087988466 0.80199999 4290292912
-0.16538955 0.08798594 0.80199999 4284897886
-0.16386329 0.087983429 0.80199999 4280688433
-0.16233712 0.087980933 0.80199999 4281214777
-0.16081101 0.087978445 0.80199999 4282787901
-0.15928498 0.087975979 0.80199999 4286208881
-0.15795571 0.088083193 0.80299997 4286999412
-0.15623312 0.087971054 0.80199999 4288710030
-0.1547073 0.087968618 0.80199999 4290089345
-0.15318154 0.087966174 0.80199999 4291076241
-0.15165587 0.087963767 0.80199999 4290286484
-0.15013029 0.087961376 0.80199999 4289299589
-0.14860475 0.087958992 0.80199999 4288316026
-0.14707932 0.087956622 0.80199999 4287987061
-0.14555392 0.087954253 0.80199999 4288186492
-0.14402865 0.087951928 0.80199999 4288778372
-0.14250341 0.087949596 0.80199999 4288583830
-0.14115404 0.088056944 0.80299997 4288583830
-0.13962704 0.088054635 0.80299997 4287992974
-0.13878806 0.088490978 0.80699998 4287795594
-0.1372536 0.088488691 0.80699998 4287268744
-0.13571925 0.088486426 0.80699998 4287005829
-0.13418496 0.088484183 0.80699998 4287268235
-0.13265072 0.088481948 0.80699998 4286083704
-0.1311166 0.088479742 0.80699998 4286803068
-0.12958252 0.088477544 0.80699998 4294961915
-0.12804854 0.088475376 0.80699998 4294967295
-0.12682816 0.088692486 0.80900002 4294967295
-0.36973792 0.085519053 0.764 4294967295
-0.36829591 0.085519843 0.764 4294967295
-0.35234183 0.085860223 0.76700002 4294967295
-0.34943718 0.08586017 0.76700002 4294967295
-0.3479844 0.085860066 0.76700002 4293914607
-0.34653139 0.08585991 0.76700002 4293059033
-0.34507805 0.085859701 0.76700002 4292993239
-0.34362444 0.085859433 0.76700002 4293517539
-0.2908622 0.086600199 0.77399999 4290687154
-0.28938827 0.086598374 0.77399999 4291674050
-0.28754231 0.086484648 0.773 4291543995
-0.28607005 0.086482763 0.773 4291675837
-0.28459781 0.086480863 0.773 4291806664
-0.2831254 0.086478926 0.773 4291609542
-0.28165296 0.086476967 0.773 4291740358
-0.28018045 0.086474992 0.773 4291740358
-0.27798674 0.086249255 0.77100003 4291806151
-0.27580053 0.086023487 0.76899999 4291608772
-0.27362198 0.085797727 0.76700002 4291477702
-0.27216062 0.085795671 0.76700002 4289701291
-0.26964036 0.08545801 0.764 4289832100
-0.26748258 0.085232221 0.76200002 4289897893
-0.26568139 0.085118249 0.76099998 4290028709
-0.2642312 0.085116111 0.76099998 4290094502
-0.26139981 0.084666587 0.75700003 4289569704
-0.25995716 0.084664427 0.75700003 4288253845
-0.25851449 0.084662251 0.75700003 4287201423
-0.2420021 0.084413573 0.755 4288052609
-0.24056296 0.084411211 0.755 4288185219
-0.23975728 0.084632441 0.75700003 4289106321
-0.23831427 0.084630057 0.75700003 4288648087
-0.23749715 0.084851235 0.759 4288384915
-0.23605031 0.084848806 0.759 4288384911
-0.23614906 0.08540532 0.764 4288187788
-0.23469268 0.085402846 0.764 4288383368
-0.23384693 0.08562395 0.76599997 4288185990
-0.23269022 0.085733242 0.76700002 4288316808
-0.23183112 0.085954286 0.76899999 4288316808
-0.2309645 0.086175323 0.77100003 4287988610
-0.22949483 0.086172789 0.77100003 4288054403
-0.22950402 0.086729079 0.77600002 4287596934
-0.2280249 0.086726516 0.77600002 4287004797
-0.22712974 0.086947478 0.778 4287266938
-0.22622688 0.08716841 0.77999997 4289043349
-0.22474027 0.087165818 0.77999997 4289175197
-0.22268113 0.08693973 0.778 4289569954
-0.22119838 0.086937137 0.778 4290226601
-0.22028036 0.087158009 0.77999997 4291279546
-0.21879382 0.087155417 0.77999997 4291148991
-0.21814311 0.087487996 0.78299999 4290293682
-0.21858777 0.08826749 0.79000002 4289110437
-0.21708226 0.088264838 0.79000002 4286083702
-0.17823815 0.089086555 0.79799998 4288976802
-0.17671891 0.08908397 0.79799998 4289174182
-0.17519969 0.089081354 0.79799998 4288912292
-0.17324527 0.08885552 0.796 4288583328
-0.17173003 0.088852935 0.796 4289239454
-0.1702148 0.088850364 0.796 4289568419
-0.16869967 0.088847809 0.796 4290488495
-0.16802475 0.089291736 0.80000001 4290883252
-0.16650215 0.089289181 0.80000001 4290425013
-0.16497962 0.08928664 0.80000001 4284964195
-0.16345719 0.089284115 0.80000001 4278195200
-0.16193479 0.089281596 0.80000001 4278190080
-0.16041248 0.089279085 0.80000001 4278190080
-0.15889023 0.089276604 0.80000001 4278190080
-0.15736806 0.089274116 0.80000001 4279436288
-0.15584597 0.089271642 0.80000001 4279502081
-0.15432397 0.089269191 0.80000001 4281602304
-0.15280198 0.08926674 0.80000001 4282194688
-0.15128011 0.089264311 0.80000001 4282125086
-0.1501327 0.089485057 0.80199999 4280483846
-0.14860715 0.089482635 0.80199999 4279762944
-0.1470817 0.089480251 0.80199999 4279762944
-0.14555629 0.089477852 0.80199999 4278779904
-0.14403099 0.089475498 0.80199999 4278517760
-0.14250574 0.089473143 0.80199999 4278190080
-0.14098059 0.089470819 0.80199999 4278190080
-0.13962935 0.089580044 0.80299997 4278190099
-0.13844639 0.08980085 0.80500001 4278190372
-0.13691574 0.089798555 0.80500001 4278190157
-0.13079385 0.089789532 0.80500001 4278255616
-0.12926358 0.089787319 0.80500001 4294041564
-0.12805071 0.090008184 0.80699998 4294967295
-0.12651679 0.090006001 0.80699998 4294967295
-0.37402645 0.086625203 0.76099998 4286152569
-0.36876923 0.086743027 0.76200002 4285953388
-0.367331 0.086743854 0.76200002 4285362544
-0.29048821 0.087958559 0.773 4290028709
-0.28901625 0.087956756 0.773 4291344569
-0.28680018 0.087727338 0.77100003 4291806392
-0.28533185 0.087725468 0.77100003 4291937721
-0.2838634 0.087723576 0.77100003 4291806664
-0.28239486 0.087721646 0.77100003 4291806664
-0.2809262 0.087719679 0.77100003 4291806662
-0.27945751 0.087717704 0.77100003 4291477954
-0.27798876 0.0877157 0.77100003 4291608772
-0.27580258 0.087486133 0.76899999 4291608772
-0.27362403 0.087256566 0.76700002 4291477702
-0.27216265 0.087254502 0.76700002 4289767084
-0.26964244 0.086911142 0.764 4289109151
-0.26748469 0.08668153 0.76200002 4289306787
-0.2656835 0.086565636 0.76099998 4289503394
-0.26423335 0.086563505 0.76099998 4289437601
-0.26209253 0.086333856 0.759 4289437855
-0.26064616 0.086331695 0.759 4289372062
-0.25919965 0.086329497 0.759 4288319397
-0.25775319 0.086327292 0.759 4286609036
-0.24120261 0.086074457 0.75700003 4288843406
-0.23975965 0.086072072 0.75700003 4289501079
-0.23831668 0.086069673 0.75700003 4288515990
-0.23749955 0.086294636 0.759 4288055439
-0.23605275 0.0862922 0.759 4288121995
-0.23615149 0.086858198 0.764 4288056202
-0.23469518 0.086855724 0.764 4288187016
-0.23384942 0.087080598 0.76599997 4287858307
-0.23269273 0.08719179 0.76700002 4288120198
-0.2324366 0.087643974 0.77100003 4288120198
-0.23156613 0.087868787 0.773 4287988860
-0.23009272 0.087866239 0.773 4287988860
-0.2295066 0.088204674 0.77600002 4287397766
-0.22802749 0.088202104 0.77600002 4287134850
-0.22596452 0.087972194 0.77399999 4287463296
-0.22448929 0.087969624 0.77399999 4288713362
-0.22359031 0.088194333 0.77600002 4289306015
-0.22268374 0.088419035 0.778 4289108892
-0.22120097 0.088416435 0.778 4289173913
-0.22028302 0.088641085 0.77999997 4289305499
-0.21879645 0.088638447 0.77999997 4289766802
-0.21730991 0.08863581 0.77999997 4289306507
-0.21681009 0.089653209 0.78899997 4286346100
-0.1747632 0.090370849 0.796 4289043106
-0.17324786 0.090368249 0.796 4288845984
-0.1717326 0.090365648 0.796 4289239195
-0.16978973 0.090136021 0.79400003 4289436317
-0.16827838 0.090133436 0.79400003 4290619311
-0.1671872 0.0903579 0.796 4291738048
-0.1656722 0.090355344 0.796 4290687418
-0.16456972 0.090579808 0.79799998 4285424234
-0.16305105 0.09057726 0.79799998 4280165671
-0.16153246 0.090574726 0.79799998 4278190080
-0.15697713 0.090567186 0.79799998 4278977293
-0.15545881 0.090564705 0.79799998 4280424739
-0.15394059 0.090562232 0.79799998 4281015065
-0.15280442 0.090786733 0.80000001 4280357392
-0.15128253 0.090784289 0.80000001 4280355089
-0.14976072 0.090781838 0.80000001 4279828745
-0.14823896 0.090779401 0.80000001 4279304704
-0.1467173 0.090777002 0.80000001 4278190080
-0.14403334 0.090999141 0.80199999 4278190080
-0.14250809 0.09099678 0.80199999 4278190080
-0.14098291 0.09099441 0.80199999 4286151031
-0.13945779 0.090992063 0.80199999 4289838493
-0.13793275 0.090989739 0.80199999 4290101666
-0.13657786 0.091100872 0.80299997 4290297285
-0.13505106 0.091098569 0.80299997 4284507757
-0.13352436 0.091096297 0.80299997 4280293153
-0.1319977 0.091094024 0.80299997 4278190080
-0.13047114 0.091091789 0.80299997 4278190080
-0.12894464 0.091089554 0.80299997 4293057753
-0.12741821 0.091087341 0.80299997 4294967295
-0.12620541 0.091312014 0.80500001 4294967295
-0.28973842 0.089197464 0.77100003 4290225318
-0.28827032 0.089195661 0.77100003 4291212213
-0.28680205 0.089193806 0.77100003 4291476918
-0.28459352 0.088960573 0.76899999 4291806140
-0.28312892 0.088958673 0.76899999 4291675848
-0.28166416 0.088956758 0.76899999 4291675848
-0.28019944 0.088954806 0.76899999 4291872457
-0.27873456 0.088952832 0.76899999 4291543493
-0.27726966 0.088950843 0.76899999 4291608772
-0.27508736 0.088717476 0.76700002 4291608772
-0.27326933 0.088599764 0.76599997 4291477700
-0.27180988 0.088597693 0.76599997 4289569702
-0.27035043 0.088595599 0.76599997 4288518550
-0.26748675 0.088130862 0.76200002 4288715929
-0.26603481 0.088128746 0.76200002 4289044644
-0.26423553 0.088010944 0.76099998 4288912801
-0.26278535 0.088008776 0.76099998 4289174685
-0.26064828 0.087775297 0.759 4289437601
-0.25920182 0.087773092 0.759 4289569704
-0.2577554 0.087770887 0.759 4287924880
-0.25630885 0.087768644 0.759 4287069055
-0.24184225 0.087745361 0.759 4289368978
-0.24039553 0.087742954 0.759 4289237648
-0.23894873 0.087740511 0.759 4288645520
-0.23750196 0.087738082 0.759 4288382605
-0.23667717 0.087966807 0.76099998 4288055950
-0.23615395 0.088311121 0.764 4288055950
-0.23469767 0.088308647 0.764 4288252552
-0.23385194 0.088537298 0.76599997 4287989123
-0.23330203 0.088881537 0.76899999 4288054405
-0.23243918 0.089110166 0.77100003 4288054405
-0.23156871 0.089338757 0.773 4288054401
-0.23009528 0.089336187 0.773 4287988608
-0.22891769 0.08944919 0.77399999 4287856770
-0.22744237 0.089446597 0.77399999 4287856770
-0.22596712 0.089444011 0.77399999 4287659396
-0.22449186 0.089441404 0.77399999 4288646291
-0.22301665 0.089438796 0.77399999 4289175197
-0.22211391 0.08966729 0.77600002 4289043610
-0.22120358 0.089895755 0.778 4288715413
-0.2197208 0.089893118 0.778 4288978585
-0.21767704 0.089659393 0.77600002 4289439902
-0.21626319 0.090922303 0.787 4286345332
-0.17130372 0.091647565 0.79400003 4289568419
-0.16979229 0.091644958 0.79400003 4289437090
-0.16828094 0.091642357 0.79400003 4290225068
-0.16525848 0.091637187 0.79400003 4290425280
-0.16374737 0.091634631 0.79400003 4285293426
-0.1622363 0.091632068 0.79400003 4280297257
-0.16113016 0.091860324 0.796 4278190080
-0.15961543 0.091857783 0.796 4278517766
-0.15394306 0.092078514 0.79799998 4281083689
-0.15242489 0.092076026 0.79799998 4280820773
-0.15090679 0.092073552 0.79799998 4280622636
-0.14787079 0.092068642 0.79799998 4279504934
-0.14635293 0.092066228 0.79799998 4278190097
-0.14215508 0.092289738 0.80000001 4279304192
-0.14063369 0.092287354 0.80000001 4291273633
-0.13911237 0.092285 0.80000001 4293058533
-0.13183561 0.092504129 0.80199999 4278517760
-0.13031091 0.092501856 0.80199999 4279107584
-0.12878628 0.092499599 0.80199999 4293972176
-0.12589405 0.092610486 0.80299997 4294967295
-0.28974026 0.090663962 0.77100003 4290488495
-0.28827211 0.090662152 0.77100003 4290751666
-0.28605995 0.090425134 0.76899999 4291214000
-0.28459543 0.090423271 0.76899999 4291214000
-0.28313082 0.090421371 0.76899999 4291214784
-0.28166616 0.090419449 0.76899999 4291148991
-0.28020138 0.090417504 0.76899999 4291148991
-0.27801165 0.090180382 0.76700002 4291214784
-0.27655053 0.090178378 0.76700002 4291279294
-0.27473068 0.090058781 0.76599997 4291081658
-0.27255788 0.089821614 0.764 4290951096
-0.27110225 0.089819536 0.764 4289503394
-0.26964664 0.089817449 0.764 4288780952
-0.26748887 0.08958023 0.76200002 4287991692
-0.26603693 0.0895781 0.76200002 4288517533
-0.26423767 0.089458391 0.76099998 4288451739
-0.26278749 0.089456223 0.76099998 4288713885
-0.26133731 0.089454025 0.76099998 4289108386
-0.25920409 0.089216739 0.759 4289240990
-0.25775763 0.089214511 0.759 4289109403
-0.25631112 0.089212254 0.759 4288253330
-0.24248192 0.089423887 0.76099998 4288384397
-0.24103138 0.089421451 0.76099998 4288384397
-0.2395808 0.089419007 0.76099998 4287857805
-0.23813026 0.089416556 0.76099998 4287594634
-0.23667969 0.08941409 0.76099998 4287595401
-0.23615645 0.089764088 0.764 4287726987
-0.23470017 0.089761585 0.764 4287858053
-0.23385443 0.089994043 0.76599997 4287858053
-0.2326978 0.090109006 0.76700002 4288054403
-0.23183873 0.090341419 0.76899999 4288054403
-0.23097216 0.090573817 0.77100003 4288054403
-0.22950253 0.090571232 0.77100003 4288054403
-0.22862446 0.090803586 0.773 4287857801
-0.22715113 0.090800993 0.773 4287792008
-0.22509386 0.090563454 0.77100003 4287922315
-0.22362433 0.090560853 0.77100003 4288382866
-0.22215487 0.090558246 0.77100003 4289174165
-0.22068541 0.090555623 0.77100003 4289174165
-0.21978459 0.09078788 0.773 4288781206
-0.2191586 0.091137581 0.77600002 4288978585
-0.21767972 0.091134943 0.77600002 4289109655
-0.16936722 0.092919312 0.792 4289699755
-0.16785967 0.092916697 0.792 4290094252
-0.16333747 0.092908911 0.792 4285491050
-0.16183019 0.092906326 0.792 4279246625
-0.16032299 0.092903763 0.792 4278190080
-0.15921693 0.093135826 0.79400003 4278386962
-0.1577061 0.093133286 0.79400003 4279768615
-0.1561953 0.093130752 0.79400003 4279571233
-0.15468457 0.093128219 0.79400003 4280426286
-0.15317391 0.093125708 0.79400003 4279508507
-0.15204535 0.093357779 0.796 4285758585
-0.15053105 0.093355291 0.796 4289505667
-0.14901681 0.09335281 0.796 4289505667
-0.14750263 0.093350351 0.796 4289504682
-0.14598854 0.093347907 0.796 4289504682
-0.14180207 0.093575165 0.79799998 4288846216
-0.14028446 0.093572773 0.79799998 4291017641
-0.13876693 0.093570396 0.79799998 4291346134
-0.13724945 0.093568027 0.79799998 4291674842
-0.12998821 0.093790956 0.80000001 4278648832
-0.12846737 0.093788691 0.80000001 4293053656
-0.28606173 0.091887839 0.76899999 4290884517
-0.28385711 0.091647007 0.76700002 4291082153
-0.28239641 0.091645129 0.76700002 4291214784
-0.28093553 0.091643214 0.76700002 4291148991
-0.27947462 0.09164127 0.76700002 4291148991
-0.27801362 0.091639295 0.76700002 4291148991
-0.27655256 0.091637306 0.76700002 4291279546
-0.27329808 0.091037922 0.76200002 4291147703
-0.27184644 0.09103588 0.76200002 4291081912
-0.27039468 0.091033824 0.76200002 4289568417
-0.26894286 0.091031738 0.76200002 4289173913
-0.26749098 0.091029629 0.76200002 4288910998
-0.26603907 0.091027491 0.76200002 4288713880
-0.26423985 0.090905875 0.76099998 4288713880
-0.26278973 0.090903707 0.76099998 4288845212
-0.26133955 0.090901509 0.76099998 4288977054
-0.2592063 0.090660401 0.759 4288978333
-0.25775987 0.090658166 0.759 4288846747
-0.25563797 0.090417042 0.75700003 4288451991
-0.25419527 0.09041477 0.75700003 4288451991
-0.25275254 0.09041249 0.75700003 4288778903
-0.24425542 0.090993091 0.76200002 4288320403
-0.24280298 0.090990663 0.76200002 4287795340
-0.24135056 0.090988226 0.76200002 4287663754
-0.23958328 0.090866357 0.76099998 4287399303
-0.2381327 0.090863883 0.76099998 4287465096
-0.23668215 0.090861395 0.76099998 4287594886
-0.23615895 0.091217086 0.764 4287792008
-0.23470268 0.091214575 0.764 4287857794
-0.23416229 0.091570228 0.76700002 4288186503
-0.23270032 0.09156768 0.76700002 4288647054
-0.2318413 0.091803879 0.76899999 4288054916
-0.23097467 0.092040055 0.77100003 4288054153
-0.22950511 0.092037469 0.77100003 4288185740
-0.22803557 0.092034869 0.77100003 4287989644
-0.22656602 0.092032261 0.77100003 4287857801
-0.22509651 0.092029646 0.77100003 4288054413
-0.22362697 0.092027023 0.77100003 4288449170
-0.22215749 0.092024393 0.77100003 4288778392
-0.22068803 0.092021756 0.77100003 4289041564
-0.21978721 0.092257813 0.773 4288780956
-0.21916124 0.092613198 0.77600002 4288583578
-0.21768239 0.092610531 0.77600002 4288516751
-0.21731789 0.093085207 0.77999997 4286477168
-0.17194982 0.09419141 0.79000002 4289174945
-0.17044595 0.094188765 0.79000002 4289239206
-0.16894215 0.094186127 0.79000002 4289633964
-0.1674384 0.094183497 0.79000002 4289634984
-0.1614241 0.094173074 0.79000002 4278521362
-0.15992071 0.094170503 0.79000002 4278190080
-0.15841737 0.094167925 0.79000002 4278190085
-0.1569141 0.09416537 0.79000002 4279176725
-0.15541092 0.094162822 0.79000002 4278190361
-0.15390782 0.094160303 0.79000002 4278190098
-0.15240474 0.09415777 0.79000002 4278190080
-0.15128379 0.094393626 0.792 4288391577
-0.15015534 0.094629496 0.79400003 4289377216
-0.14864486 0.094627008 0.79400003 4290693076
-0.1471345 0.094624527 0.79400003 4292332756
-0.14562419 0.094622053 0.79400003 4292069841
-0.14411397 0.094619617 0.79400003 4291414223
-0.14260378 0.094617173 0.79400003 4290822086
-0.14109372 0.094614752 0.79400003 4290492118
-0.13958366 0.094612345 0.79400003 4289899980
-0.13807373 0.094609961 0.79400003 4289898391
-0.13656385 0.094607592 0.79400003 4290556320
-0.13505407 0.094605252 0.79400003 4290687416
-0.13388072 0.094841197 0.796 4284503130
-0.12814845 0.09507025 0.79799998 4292791499
-0.28385898 0.093105942 0.76700002 4291081379
-0.28203005 0.092982672 0.76599997 4291542461
-0.28057113 0.09298075 0.76599997 4291345339
-0.27911216 0.092978813 0.76599997 4291280059
-0.27801558 0.093098246 0.76700002 4291148217
-0.27439117 0.092367977 0.76099998 4291410099
-0.27294141 0.092365958 0.76099998 4290883754
-0.27149171 0.092363939 0.76099998 4290883250
-0.27004185 0.092361875 0.76099998 4289830562
-0.26894495 0.092481159 0.76200002 4289239958
-0.26749313 0.092479058 0.76200002 4288910994
-0.26569206 0.092355542 0.76099998 4289041812
-0.26424199 0.092353381 0.76099998 4289107605
-0.2627919 0.092351221 0.76099998 4288515738
-0.26134178 0.092349015 0.76099998 4288449945
-0.2592085 0.092104092 0.759 4288911509
-0.2577621 0.09210185 0.759 4288845716
-0.25564024 0.091856912 0.75700003 4288582546
-0.25419757 0.091854647 0.75700003 4288516753
-0.25342262 0.092095025 0.759 4288712849
-0.25197604 0.092092708 0.759 4288712849
-0.2439373 0.092321075 0.76099998 4288384402
-0.24248677 0.092318647 0.76099998 4288057234
-0.24103628 0.092316203 0.76099998 4287991440
-0.23958574 0.092313737 0.76099998 4287924110
-0.2381352 0.092311248 0.76099998 4287924110
-0.23699565 0.092430055 0.76200002 4287989644
-0.2367797 0.092912726 0.76599997 4287923851
-0.23531958 0.092910185 0.76599997 4287923846
-0.23416483 0.093028933 0.76700002 4288252811
-0.23270288 0.093026377 0.76700002 4288514954
-0.23184387 0.093266368 0.76899999 4288120196
-0.23037811 0.093263783 0.76899999 4288316558
-0.22891235 0.09326119 0.76899999 4288448144
-0.22803816 0.093501113 0.77100003 4288317069
-0.22656861 0.093498506 0.77100003 4288185740
-0.2250991 0.093495876 0.77100003 4288383118
-0.22362961 0.093493238 0.77100003 4289106842
-0.2221601 0.093490578 0.77100003 4288976287
-0.22154935 0.093851693 0.77399999 4288910494
-0.22007422 0.093849026 0.77399999 4288122775
-0.21859908 0.093846351 0.77399999 4287070086
-0.21824609 0.094328649 0.778 4286805365
-0.21676335 0.094325937 0.778 4286147692
-0.16722906 0.095563866 0.78899997 4290556338
-0.16422559 0.095558606 0.78899997 4291282372
-0.16272393 0.095555983 0.78899997 4284703072
-0.16122235 0.095553368 0.78899997 4278191872
-0.15972084 0.095550768 0.78899997 4278190080
-0.15821941 0.09554819 0.78899997 4278190083
-0.15671803 0.095545605 0.78899997 4279506471
-0.15521672 0.095543042 0.78899997 4280095529
-0.15371551 0.095540501 0.78899997 4278190087
-0.15221436 0.095537961 0.78899997 4278190122
-0.1509043 0.095656522 0.79000002 4290953211
-0.14940135 0.095654003 0.79000002 4294967295
-0.1478985 0.095651492 0.79000002 4294967295
-0.14676635 0.095891163 0.792 4294967295
-0.14525983 0.095888674 0.792 4294967295
-0.14375338 0.095886201 0.792 4294967295
-0.14224701 0.095883757 0.792 4294967295
-0.14038531 0.095639206 0.79000002 4294967295
-0.13888289 0.095636792 0.79000002 4289111471
-0.13738051 0.095634378 0.79000002 4287074856
-0.13587824 0.095632002 0.79000002 4279903232
-0.13437603 0.095629647 0.79000002 4280625218
-0.13321027 0.095869385 0.792 4279177772
-0.13170439 0.095867038 0.792 4278394139
-0.13052738 0.096106797 0.79400003 4278190080
-0.12901786 0.096104503 0.79400003 4278190080
-0.12750839 0.096102208 0.79400003 4292070602
-0.28201038 0.093948446 0.76200002 4290358946
-0.28019103 0.093823284 0.76099998 4291212465
-0.27874166 0.093821399 0.76099998 4291212465
-0.2765635 0.0935729 0.759 4291016115
-0.27511778 0.093570955 0.759 4291082164
-0.27367204 0.093568988 0.759 4291342770
-0.27222615 0.093566969 0.759 4291079598
-0.27078024 0.093564942 0.759 4290751664
-0.26933426 0.093562894 0.759 4289764769
-0.26788822 0.0935608 0.759 4289568660
-0.26714417 0.093805239 0.76099998 4289042316
-0.26499593 0.093556561 0.759 4289041298
-0.26354969 0.093554407 0.759 4289107092
-0.26210344 0.093552239 0.759 4288646291
-0.25997028 0.093303539 0.75700003 4288777620
-0.2585277 0.093301319 0.75700003 4289108122
-0.25708514 0.093299083 0.75700003 4288779157
-0.25564253 0.093296833 0.75700003 4288384915
-0.25419989 0.093294561 0.75700003 4288516501
-0.25342491 0.093538731 0.759 4288580498
-0.25197837 0.093536399 0.759 4288909462
-0.25053182 0.093534075 0.759 4288778642
-0.2500698 0.093901411 0.76200002 4288909971
-0.2486174 0.093899004 0.76200002 4288712849
-0.24489453 0.093034044 0.755 4288449420
-0.2447453 0.093524531 0.759 4288514704
-0.24329862 0.093522094 0.759 4288514704
-0.24185197 0.093519658 0.759 4288318352
-0.24040526 0.093517207 0.759 4288318352
-0.23895855 0.09351474 0.759 4288186253
-0.23751184 0.093512237 0.759 4288317839
-0.23668715 0.093756147 0.76099998 4288516240
-0.23616399 0.094123229 0.764 4288318604
-0.23470771 0.094120681 0.764 4287858566
-0.23386207 0.094364509 0.76599997 4288121995
-0.23270546 0.094485134 0.76700002 4288514956
-0.23124348 0.094482556 0.76700002 4288383114
-0.22948195 0.094356768 0.76599997 4288775823
-0.2280219 0.094354168 0.76599997 4288775823
-0.22656193 0.094351552 0.76599997 4288382351
-0.22657123 0.094964787 0.77100003 4288316558
-0.22451781 0.094715804 0.76899999 4288645007
-0.22305214 0.094713166 0.76899999 4289434523
-0.22158648 0.094710506 0.76899999 4288910746
-0.22126579 0.095200472 0.773 4288450195
-0.21979256 0.095197789 0.773 4287268744
-0.21860178 0.09531825 0.77399999 4286150520
-0.21676609 0.095805414 0.778 4286607470
-0.1723613 0.096582159 0.78500003 4288649888
-0.17086686 0.096579477 0.78500003 4288912804
-0.16937248 0.096576795 0.78500003 4289962162
-0.16787818 0.096574128 0.78500003 4290949057
-0.16680782 0.096817501 0.787 4290688953
-0.16381192 0.096812196 0.787 4291282889
-0.16231409 0.096809566 0.787 4284769382
-0.1608163 0.096806936 0.787 4278191618
-0.15931858 0.096804313 0.787 4278190080
-0.15782094 0.096801721 0.787 4278190080
-0.15632336 0.096799128 0.787 4285098091
-0.15482585 0.09679655 0.787 4285166998
-0.1533284 0.096793987 0.787 4285890464
-0.15183106 0.096791431 0.787 4287989905
-0.15071581 0.097034864 0.78899997 4294503412
-0.14921476 0.097032323 0.78899997 4294967295
-0.14771378 0.09702979 0.78899997 4294967295
-0.14639823 0.097150281 0.79000002 4294967295
-0.14489549 0.097147778 0.79000002 4294967295
-0.14339283 0.097145282 0.79000002 4294967295
-0.14189024 0.097142823 0.79000002 4294967295
-0.14021003 0.0970174 0.78899997 4294967295
-0.1387095 0.097014971 0.78899997 4291941333
-0.13738292 0.097135514 0.79000002 4288785047
-0.13588063 0.097133122 0.79000002 4288851096
-0.13437839 0.097130716 0.79000002 4288390605
-0.13287623 0.097128354 0.79000002 4285627299
-0.13137415 0.097126 0.79000002 4278201931
-0.12987214 0.097123668 0.79000002 4278190108
-0.1283702 0.097121343 0.79000002 4278190080
-0.12718949 0.09736491 0.792 4292068546
-0.12600128 0.097608492 0.79400003 4294967295
-0.3420864 0.094438322 0.75400001 4293047996
-0.34065837 0.094438434 0.75400001 4293648607
-0.28201222 0.095397919 0.76200002 4288911259
-0.27945653 0.09502048 0.759 4289963154
-0.27727845 0.094768219 0.75700003 4290818463
-0.27510792 0.094515935 0.755 4290883752
-0.27366984 0.094513997 0.755 4290883752
-0.2722317 0.09451203 0.755 4290949546
-0.27079356 0.094510049 0.755 4290752166
-0.26935527 0.094508022 0.755 4290751403
-0.26791689 0.094505973 0.755 4289961630
-0.26647848 0.094503894 0.755 4289239697
-0.26504004 0.094501816 0.755 4289107855
-0.26360151 0.094499685 0.755 4289238425
-0.26216292 0.094497547 0.755 4289107096
-0.26072431 0.094495378 0.755 4288909462
-0.25997248 0.094743505 0.75700003 4288975255
-0.25852993 0.094741277 0.75700003 4288975768
-0.25708741 0.094739035 0.75700003 4288712597
-0.2556448 0.094736777 0.75700003 4288647317
-0.25420216 0.094734497 0.75700003 4288713110
-0.25342727 0.094982468 0.759 4288778907
-0.25198072 0.094980136 0.759 4288844701
-0.25053418 0.094977796 0.759 4288713110
-0.2477749 0.094474904 0.755 4288647317
-0.24633592 0.094472528 0.755 4288580500
-0.24489692 0.094470136 0.755 4288382864
-0.24345788 0.094467722 0.755 4288514450
-0.24201882 0.094465293 0.755 4288448657
-0.24057981 0.094462864 0.755 4288187536
-0.23977424 0.094710641 0.75700003 4288253330
-0.23833138 0.09470816 0.75700003 4288187536
-0.23751436 0.094955891 0.759 4288187536
-0.23606761 0.094953366 0.759 4288515467
-0.23554829 0.095326155 0.76200002 4288515467
-0.23409589 0.095323615 0.76200002 4288187786
-0.23325403 0.095571235 0.764 4288385165
-0.23179783 0.095568657 0.764 4288514964
-0.2303416 0.095566079 0.764 4288252048
-0.22828622 0.095313303 0.76200002 4288579727
-0.22683382 0.095310703 0.76200002 4288579727
-0.22538146 0.095308103 0.76200002 4288382864
-0.22392906 0.095305473 0.76200002 4288382864
-0.22452047 0.096178338 0.76899999 4288120462
-0.2230548 0.096175671 0.76899999 4288252048
-0.22158912 0.096172988 0.76899999 4287989896
-0.22126846 0.096670546 0.773 4286674036
-0.21979526 0.096667841 0.773 4285424494
-0.21860448 0.096790195 0.77399999 4285029736
-0.17043421 0.097821794 0.78299999 4289504682
-0.16894361 0.097819097 0.78299999 4289897400
-0.16745313 0.09781643 0.78299999 4290686916
-0.16447227 0.097811081 0.78299999 4292266187
-0.16298196 0.097808421 0.78299999 4291676361
-0.16149172 0.097805783 0.78299999 4285031525
-0.16000155 0.097803153 0.78299999 4278190080
-0.15851143 0.097800523 0.78299999 4278190080
-0.15702139 0.097797915 0.78299999 4280025088
-0.15592869 0.098045118 0.78500003 4291533987
-0.15443498 0.098042518 0.78500003 4293448927
-0.15294135 0.09803994 0.78500003 4294965759
-0.15183361 0.098287143 0.787 4294966527
-0.1503363 0.09828458 0.787 4294967295
-0.14883907 0.098282047 0.787 4294967295
-0.14734189 0.098279506 0.787 4294967295
-0.14584477 0.098276973 0.787 4294967295
-0.14434774 0.098274462 0.787 4294967295
-0.14285079 0.098271973 0.787 4294967295
-0.14171311 0.098519213 0.78899997 4294967295
-0.13985707 0.098267026 0.787 4294967295
-0.13836032 0.098264575 0.787 4294967295
-0.13721146 0.098511867 0.78899997 4294967295
-0.13571103 0.098509431 0.78899997 4294967295
-0.13421069 0.098507032 0.78899997 4294967295
-0.13271041 0.09850464 0.78899997 4290426054
-0.13121019 0.098502263 0.78899997 4281806953
-0.12971006 0.098499916 0.78899997 4278190116
-0.12821001 0.098497577 0.78899997 4278190080
-0.12671 0.098495238 0.78899997 4291215549
-0.12521009 0.09849295 0.78899997 4294967295
-0.34117883 0.095617346 0.75199997 4294044396
-0.33975464 0.095617503 0.75199997 4293981431
-0.28346512 0.096849263 0.76200002 4288584091
-0.28164393 0.096720316 0.76099998 4288452504
-0.27945837 0.096464276 0.759 4289370511
-0.27728036 0.096208207 0.75700003 4290291613
-0.27510983 0.095952109 0.755 4290685869
-0.27367178 0.095950186 0.755 4290751662
-0.27223366 0.095948219 0.755 4290621359
-0.27079552 0.095946252 0.755 4290292651
-0.2690005 0.095817149 0.75400001 4289897641
-0.26756409 0.0958151 0.75400001 4289634212
-0.26612765 0.095813021 0.75400001 4289303703
-0.26469105 0.09581092 0.75400001 4289369496
-0.26325449 0.095808797 0.75400001 4289239193
-0.26112336 0.095552541 0.75199997 4289107607
-0.25969046 0.095550381 0.75199997 4289172114
-0.25997469 0.096183494 0.75700003 4289238164
-0.25853217 0.096181273 0.75700003 4289041051
-0.25708964 0.096179016 0.75700003 4288909208
-0.25564703 0.096176751 0.75700003 4288778390
-0.25420442 0.096174464 0.75700003 4288712597
-0.25276175 0.096172146 0.75700003 4288648089
-0.25131908 0.096169822 0.75700003 4288516503
-0.24888609 0.095786363 0.75400001 4288320405
-0.24744909 0.095784016 0.75400001 4288123027
-0.24601202 0.095781647 0.75400001 4288187536
-0.24457493 0.095779218 0.75400001 4288253330
-0.24313782 0.095776826 0.75400001 4288646804
-0.24170077 0.095774397 0.75400001 4288646804
-0.24058226 0.095898978 0.755 4288450960
-0.23914321 0.09589649 0.755 4288450960
-0.23770414 0.095894024 0.755 4288713362
-0.23689099 0.096145563 0.75700003 4288450447
-0.23544812 0.096143045 0.75700003 4288187536
-0.23555085 0.096775524 0.76200002 4288187536
-0.2340984 0.096772954 0.76200002 4288187786
-0.23325664 0.097024381 0.764 4288187786
-0.23180041 0.097021788 0.764 4288516501
-0.23034422 0.097019203 0.764 4288450708
-0.22828881 0.096762605 0.76200002 4288910744
-0.22683643 0.096760005 0.76200002 4288384399
-0.22538407 0.096757375 0.76200002 4288121995
-0.22451943 0.097008683 0.764 4287924360
-0.2251071 0.097894832 0.77100003 4287465609
-0.22363758 0.097892158 0.77100003 4287268231
-0.22216815 0.097889453 0.77100003 4287661444
-0.22127116 0.098140664 0.773 4286213998
-0.21979795 0.09813796 0.773 4285685864
-0.21832477 0.09813524 0.773 4285949293
-0.16554143 0.099048518 0.78100002 4291147194
-0.16405486 0.099045828 0.78100002 4292528847
-0.16256833 0.099043153 0.78100002 4291807435
-0.1610819 0.099040501 0.78100002 4284635997
-0.1595955 0.099037841 0.78100002 4278190080
-0.15810919 0.099035211 0.78100002 4278190080
-0.15662293 0.099032596 0.78100002 4283039744
-0.15513673 0.099029951 0.78100002 4293037193
-0.15404409 0.099280961 0.78299999 4292660693
-0.15255424 0.099278353 0.78299999 4293779173
-0.15106447 0.099275768 0.78299999 4294634219
-0.14957477 0.099273197 0.78299999 4294765805
-0.1480851 0.099270642 0.78299999 4294635500
-0.14659552 0.099268086 0.78299999 4294240742
-0.14547667 0.099519111 0.78500003 4293650142
-0.14398342 0.0995166 0.78500003 4293189591
-0.14249025 0.099514097 0.78500003 4293057753
-0.14099716 0.099511579 0.78500003 4292662995
-0.13985953 0.099762633 0.787 4292989646
-0.13836278 0.099760175 0.787 4294371299
-0.13686605 0.099757709 0.787 4294964725
-0.13536942 0.099755272 0.787 4294966267
-0.13237639 0.099750459 0.787 4289568951
-0.13087998 0.099748068 0.787 4279188822
-0.12938362 0.099745698 0.787 4278190106
-0.12788735 0.099743329 0.787 4278190080
-0.12639114 0.099740997 0.787 4291281342
-0.12489499 0.099738687 0.787 4294967292
-0.12339893 0.099736392 0.787 4294967295
-0.27946028 0.097908087 0.759 4288712597
-0.27728221 0.097648218 0.75700003 4289304990
-0.27511173 0.097388312 0.755 4289699494
-0.27367371 0.097386397 0.755 4290160045
-0.27223566 0.097384438 0.755 4290160295
-0.27079752 0.097382441 0.755 4290028709
-0.2690025 0.097251438 0.75400001 4289897639
-0.26756614 0.097249411 0.75400001 4289634466
-0.2661297 0.097247332 0.75400001 4289238945
-0.2646932 0.097245254 0.75400001 4289238945
-0.26255831 0.096985176 0.75199997 4289305751
-0.26043102 0.096725121 0.75 4289437338
-0.25900194 0.096722931 0.75 4289370511
-0.25757289 0.096720755 0.75 4289041802
-0.25682682 0.096976481 0.75199997 4288975517
-0.25471458 0.096716344 0.75 4288712601
-0.25328535 0.096714087 0.75 4288450195
-0.25353512 0.097356565 0.755 4287923851
-0.25109458 0.096967414 0.75199997 4287923858
-0.24966143 0.096965097 0.75199997 4288121493
-0.24822827 0.096962757 0.75199997 4288582544
-0.24679506 0.096960403 0.75199997 4289108888
-0.2453618 0.096958011 0.75199997 4288714386
-0.24392858 0.09695562 0.75199997 4288516751
-0.24314028 0.097211063 0.75400001 4288516751
-0.24106206 0.096950777 0.75199997 4288516751
-0.23962875 0.096948333 0.75199997 4288516751
-0.23882896 0.097203709 0.75400001 4288450958
-0.23739183 0.097201221 0.75400001 4288516492
-0.23689352 0.097585455 0.75700003 4288647821
-0.23545063 0.097582929 0.75700003 4288712599
-0.23555343 0.098224916 0.76200002 4288581013
-0.2347154 0.098480143 0.764 4288253835
-0.23325922 0.098477557 0.764 4288385165
-0.23180299 0.09847495 0.764 4288450960
-0.23034681 0.098472342 0.764 4288187788
-0.22889063 0.098469719 0.764 4288252552
-0.22743444 0.098467082 0.764 4287857794
-0.22597827 0.098464444 0.764 4287266684
-0.2245221 0.098461777 0.764 4287003512
-0.16830173 0.10040984 0.77999997 4289897913
-0.16681691 0.10040712 0.77999997 4290556100
-0.16533214 0.10040441 0.77999997 4291214014
-0.16384746 0.10040171 0.77999997 4292661460
-0.16236284 0.10039902 0.77999997 4292136397
-0.16087829 0.10039636 0.77999997 4284373080
-0.15939379 0.10039369 0.77999997 4278190080
-0.15790935 0.10039102 0.77999997 4278190080
-0.15642501 0.10038838 0.77999997 4280418304
-0.15494072 0.10038576 0.77999997 4282191122
-0.15345649 0.10038313 0.77999997 4283111424
-0.15197232 0.10038051 0.77999997 4283506176
-0.1506812 0.10050664 0.78100002 4282917120
-0.14919528 0.10050406 0.78100002 4282982912
-0.14770941 0.10050146 0.78100002 4282388235
-0.14622362 0.1004989 0.78100002 4281664256
-0.14473793 0.10049637 0.78100002 4279828480
-0.14325227 0.10049384 0.78100002 4278255616
-0.14176665 0.1004913 0.78100002 4278190080
-0.14064039 0.10074614 0.78299999 4278190080
-0.13915116 0.10074366 0.78299999 4278321152
-0.13766198 0.10074116 0.78299999 4278648832
-0.1365207 0.10099602 0.78500003 4280221696
-0.13502786 0.10099358 0.78500003 4281467392
-0.12905718 0.10098393 0.78500003 4278779904
-0.12756471 0.10098157 0.78500003 4279042048
-0.12607227 0.10097922 0.78500003 4292393913
-0.12457993 0.1009769 0.78500003 4294967283
-0.12308762 0.10097457 0.78500003 4294967295
-0.12159543 0.10097229 0.78500003 4294967295
-0.27584243 0.099086352 0.75700003 4289107357
-0.27367568 0.098822646 0.755 4290028459
-0.27223763 0.098820686 0.755 4290095013
-0.27079952 0.098818682 0.755 4289897891
-0.26900455 0.098685786 0.75400001 4289832613
-0.26756817 0.098683745 0.75400001 4289635234
-0.26613182 0.098681703 0.75400001 4289635748
-0.26469526 0.098679587 0.75400001 4289307039
-0.26256046 0.098415725 0.75199997 4289372062
-0.2604332 0.098151848 0.75 4289437855
-0.25900412 0.098149687 0.75 4289569173
-0.25757506 0.098147497 0.75 4289240208
-0.25682902 0.098407008 0.75199997 4288844699
-0.25471681 0.098143071 0.75 4288713112
-0.25328755 0.098140799 0.75 4288384397
-0.25252998 0.098400228 0.75199997 4287858053
-0.25109687 0.098397933 0.75199997 4287858315
-0.24966379 0.098395616 0.75199997 4288253330
-0.24823058 0.098393269 0.75199997 4288779407
-0.24679741 0.098390892 0.75199997 4288779407
-0.24536423 0.098388523 0.75199997 4288714907
-0.243931 0.098386109 0.75199997 4288517784
-0.24249773 0.09838368 0.75199997 4288452241
-0.2410645 0.098381244 0.75199997 4288452241
-0.23963119 0.098378792 0.75199997 4288516751
-0.23819789 0.098376326 0.75199997 4288450958
-0.23676461 0.098373838 0.75199997 4288581515
-0.23595722 0.098632984 0.75400001 4288647308
-0.23545319 0.099022873 0.75700003 4288647056
-0.23524679 0.099543542 0.76099998 4288647056
-0.23410359 0.099671781 0.76200002 4288582544
