# .PCD v0.7 - Point Cloud Data file format
VERSION 0.7
FIELDS x y z rgba
SIZE 4 4 4 4
TYPE F F F U
COUNT 1 1 1 1
WIDTH 1077
HEIGHT 1
VIEWPOINT 0 0 0 1 0 0 0
POINTS 1077
DATA ascii
0.13798164 0.030433657 0.64700001 4294374644
0.13921197 0.030434869 0.64700001 4294440438
0.14065939 0.030483134 0.648 4294506231
0.14167275 0.030437319 0.64700001 4294440438
0.14290324 0.030438554 0.64700001 4294506231
0.14413375 0.030439794 0.64700001 4294637560
0.14536431 0.03044104 0.64700001 4294374642
0.14659496 0.030442292 0.64700001 4294374642
0.14805412 0.030490609 0.648 4294374129
0.1495171 0.030538926 0.64899999 4294505458
0.15098399 0.03058726 0.64999998 4294045680
0.15268891 0.030682663 0.65200001 4294045680
0.15416539 0.030731015 0.653 4293979885
0.15540771 0.030732315 0.653 4293979885
0.15688999 0.030780682 0.65399998 4294044907
0.15813433 0.030781994 0.65399998 4294374129
0.15937874 0.030783314 0.65399998 4294243056
0.16062316 0.030784637 0.65399998 4294045678
0.16186762 0.030785959 0.65399998 4293979887
0.164858 0.031116821 0.66100001 4293979887
0.16611585 0.031118173 0.66100001 4293914093
0.16737379 0.031119525 0.66100001 4293914093
0.16914198 0.031215049 0.66299999 4293914093
0.17066082 0.031263497 0.66399997 4294177009
0.17192456 0.031264871 0.66399997 4293914607
0.17318836 0.031266242 0.66399997 4293914607
0.079615533 0.033417407 0.68400002 4293584095
0.080913335 0.033418212 0.68400002 4293452759
0.082211189 0.033419028 0.68400002 4293452759
0.082898647 0.033175554 0.67900002 4293321691
0.083319187 0.032834359 0.67199999 4293321691
0.084594414 0.032835193 0.67199999 4293321693
0.086253054 0.032982629 0.67500001 4293584608
0.085977912 0.032397114 0.66299999 4293452509
0.087236211 0.032397971 0.66299999 4293518302
0.088628024 0.032447707 0.66399997 4293518815
0.089888342 0.03244859 0.66399997 4293782244
0.091011412 0.032400612 0.66299999 4293650402
0.09226992 0.032401513 0.66299999 4293716195
0.093246348 0.032304682 0.66100001 4293781992
0.094215229 0.032207858 0.65899998 4294044907
0.095321439 0.032159906 0.65799999 4294045159
0.096570671 0.032160852 0.65799999 4294110953
0.097819939 0.032161798 0.65799999 4294176746
0.098918706 0.032113872 0.65700001 4294242795
0.10016619 0.032114845 0.65700001 4294242541
0.10095067 0.031969175 0.65399998 4294308334
0.10219257 0.031970158 0.65399998 4294176748
0.10327637 0.03192227 0.653 4294176748
0.1045165 0.031923268 0.653 4294045678
0.10575666 0.031924285 0.653 4294177263
0.10683303 0.031876415 0.65200001 4294243056
0.1074084 0.031681877 0.648 4294243056
0.10863925 0.031682912 0.648 4294242802
0.10987014 0.031683959 0.648 4294440438
0.11110109 0.03168501 0.648 4294374642
0.1123321 0.031686075 0.648 4294374642
0.11356316 0.031687144 0.648 4294374644
0.11479427 0.031688221 0.648 4294440438
0.1158464 0.03164041 0.64700001 4294440436
0.11707573 0.031641506 0.64700001 4294769400
0.11830511 0.031642608 0.64700001 4294506229
0.11953454 0.031643722 0.64700001 4294440436
0.12076405 0.031644844 0.64700001 4294506231
0.1219936 0.031645976 0.64700001 4294637560
0.12322322 0.031647112 0.64700001 4294637814
0.12426054 0.03159935 0.64600003 4294637814
0.12548836 0.031600501 0.64600003 4294637560
0.12671623 0.031601664 0.64600003 4294769146
0.12794416 0.03160283 0.64600003 4294638330
0.12917215 0.031604011 0.64600003 4294638330
0.1304002 0.031605195 0.64600003 4294703607
0.13162829 0.031606387 0.64600003 4294637814
0.13306209 0.031656515 0.64700001 4294637560
0.1342922 0.031657722 0.64700001 4294637560
0.13552238 0.031658936 0.64700001 4294703353
0.13675258 0.031660158 0.64700001 4294769146
0.13776959 0.031612456 0.64600003 4294374644
0.13899802 0.031613693 0.64600003 4294440438
0.14044356 0.031663876 0.64700001 4294506231
0.14145502 0.031616185 0.64600003 4294440438
0.14268361 0.03161744 0.64600003 4294440951
0.14391223 0.031618703 0.64600003 4294375158
0.14514092 0.03161997 0.64600003 4294375156
0.14636964 0.031621244 0.64600003 4294243826
0.14782691 0.031671479 0.64700001 4294308595
0.14928801 0.031721715 0.648 4294440438
0.15075301 0.031771973 0.64899999 4294440438
0.15269022 0.031920146 0.65200001 4294374644
0.15416668 0.031970419 0.653 4294242802
0.15540904 0.031971745 0.653 4294308595
0.1568913 0.032022033 0.65399998 4294243056
0.15813567 0.03202337 0.65399998 4294243056
0.15938006 0.032024711 0.65399998 4294177009
0.16062447 0.032026056 0.65399998 4294177009
0.16186896 0.032027408 0.65399998 4294045680
0.16336291 0.032077733 0.65499997 4294308595
0.16536327 0.032226019 0.65799999 4294045680
0.16686872 0.032276373 0.65899998 4294045680
0.16888824 0.032424692 0.662 4293979887
0.17040518 0.032475062 0.66299999 4293979887
0.17192598 0.032525446 0.66399997 4293782251
0.17318976 0.03252684 0.66399997 4293782251
0.07868515 0.034308292 0.676 4293452507
0.07925801 0.03400458 0.67000002 4293321689
0.08052931 0.034005392 0.67000002 4293321689
0.081800655 0.034006219 0.67000002 4293321691
0.082700089 0.033854786 0.667 4293387484
0.083839953 0.033804875 0.66600001 4293584095
0.084848292 0.03370421 0.66399997 4293584095
0.085978784 0.033654314 0.66299999 4293452761
0.087237082 0.033655185 0.66299999 4293650140
0.088495441 0.033656072 0.66299999 4293715936
0.089618482 0.033606205 0.662 4293847265
0.090737782 0.033556353 0.66100001 4293584608
0.091992497 0.03355727 0.66100001 4293716195
0.092824057 0.033405889 0.65799999 4293781990
0.094073184 0.033406828 0.65799999 4293781990
0.095177516 0.033357002 0.65700001 4293716197
0.096424863 0.033357959 0.65700001 4294110955
0.097672246 0.033358924 0.65700001 4294176748
0.098919697 0.033359904 0.65700001 4294176748
0.099709809 0.03320856 0.65399998 4293979885
0.1007973 0.033158768 0.653 4294045678
0.10203731 0.03315977 0.653 4294176748
0.10327738 0.033160787 0.653 4294176748
0.1045175 0.033161812 0.653 4294176748
0.10559573 0.03311206 0.65200001 4294308334
0.10634249 0.032960735 0.64899999 4294243056
0.10740945 0.032910995 0.648 4294243056
0.10864029 0.032912049 0.648 4294243056
0.10987119 0.032913115 0.648 4294374642
0.11093071 0.032863393 0.64700001 4294440690
0.11215983 0.032864477 0.64700001 4294440690
0.11338899 0.032865565 0.64700001 4294440436
0.11461822 0.032866668 0.64700001 4294440436
0.11584749 0.032867771 0.64700001 4294506229
0.11707683 0.032868888 0.64700001 4294703607
0.11812338 0.032819215 0.64600003 4294440949
0.11935093 0.032820348 0.64600003 4294375156
0.12057853 0.032821491 0.64600003 4294440438
0.12180619 0.032822642 0.64600003 4294703353
0.12303391 0.032823801 0.64600003 4294637814
0.12387697 0.032723341 0.64399999 4294703607
0.12510099 0.032724515 0.64399999 4294572537
0.12612891 0.032674879 0.64300001 4294572537
0.12735118 0.032676071 0.64300001 4294572537
0.12857345 0.032677259 0.64300001 4294638330
0.1297958 0.032678463 0.64300001 4294506742
0.13122198 0.032730497 0.64399999 4294506742
0.13285765 0.032833368 0.64600003 4294374644
0.13408588 0.032834597 0.64600003 4294440438
0.13531414 0.032835834 0.64600003 4294637560
0.13654245 0.032837078 0.64600003 4294637560
0.1373443 0.032736667 0.64399999 4294374644
0.13856892 0.032737918 0.64399999 4294440438
0.14022775 0.032840855 0.64600003 4294440436
0.14101833 0.032740448 0.64399999 4294440436
0.14224312 0.032741725 0.64399999 4294243572
0.14346796 0.032743003 0.64399999 4294177779
0.1451422 0.032845981 0.64600003 4294243572
0.14637095 0.032847282 0.64600003 4294111986
0.14759973 0.032848585 0.64600003 4294045678
0.14905892 0.032900743 0.64700001 4294374642
0.15052202 0.032952912 0.648 4294375156
0.15269153 0.033157662 0.65200001 4294243826
0.15393192 0.033158999 0.65200001 4294112240
0.15541036 0.033211205 0.653 4294178033
0.15665276 0.033212557 0.653 4294178033
0.15789521 0.033213913 0.653 4294112240
0.1591377 0.033215277 0.653 4294046193
0.16038023 0.033216644 0.653 4294046193
0.16162281 0.033218015 0.653 4293979887
0.16286545 0.033219393 0.653 4294242802
0.16461071 0.033322521 0.65499997 4294045680
0.16636367 0.033425663 0.65700001 4294045680
0.16863453 0.033630572 0.66100001 4293914607
0.17040658 0.033733744 0.66299999 4293914607
0.17166843 0.03373516 0.66299999 4293585129
0.1731912 0.033787474 0.66399997 4293716458
0.17498049 0.033890672 0.66600001 4293716458
0.079968601 0.035590883 0.676 4293519067
0.080530137 0.035275817 0.67000002 4293650654
0.081801511 0.035276666 0.67000002 4293650142
0.082700938 0.03511956 0.667 4293715936
0.08384081 0.035067767 0.66600001 4293650142
0.084849156 0.034963325 0.66399997 4293452507
0.08597964 0.034911551 0.66299999 4293452759
0.087106384 0.034859784 0.662 4293847517
0.088362873 0.034860689 0.662 4293716447
0.089484014 0.034808941 0.66100001 4293716447
0.090464137 0.03470454 0.65899998 4293716195
0.09171509 0.034705479 0.65899998 4294045159
0.092683926 0.034601092 0.65700001 4293979366
0.093931168 0.034602042 0.65700001 4293848037
0.094743878 0.034445003 0.65399998 4293979112
0.095838748 0.034393303 0.653 4294110955
0.097078562 0.034394287 0.653 4294110955
0.098318428 0.034395274 0.653 4294176748
0.099558339 0.034396276 0.653 4294045680
0.1007983 0.034397285 0.653 4293979887
0.10203833 0.03439831 0.653 4294110955
0.10312025 0.034346662 0.65200001 4294176748
0.10435849 0.034347706 0.65200001 4294176748
0.10559677 0.034348756 0.65200001 4294308334
0.10617969 0.034139086 0.648 4294308334
0.10741051 0.034140155 0.648 4294374127
0.10864136 0.034141228 0.648 4294243054
0.10970272 0.034089617 0.64700001 4294374640
0.11093179 0.034090713 0.64700001 4294440688
0.11216091 0.034091815 0.64700001 4294703603
0.1133901 0.034092929 0.64700001 4294571506
0.11461933 0.034094051 0.64700001 4294505712
0.11566958 0.034042485 0.64600003 4294506483
0.11689702 0.034043621 0.64600003 4294637812
0.11812451 0.034044765 0.64600003 4294703092
0.11898258 0.033940516 0.64399999 4294637299
0.12020638 0.033941679 0.64399999 4294506231
0.12143023 0.033942845 0.64399999 4294703353
0.12265417 0.033944022 0.64399999 4294703607
0.12368579 0.033892494 0.64300001 4294637814
0.12490793 0.03389369 0.64300001 4294703607
0.12593397 0.033842184 0.64200002 4294637814
0.12715431 0.033843383 0.64200002 4294638330
0.12837471 0.033844605 0.64200002 4294638330
0.12959516 0.033845823 0.64200002 4294637814
0.13081567 0.033847053 0.64200002 4294637814
0.1322419 0.033901013 0.64300001 4294374644
0.13346444 0.033902261 0.64300001 4294374644
0.13468698 0.033903513 0.64300001 4294440436
0.13590962 0.03390478 0.64300001 4294374642
0.1371323 0.033906046 0.64300001 4294374640
0.13835502 0.03390732 0.64300001 4294374640
0.13957781 0.033908606 0.64300001 4294374642
0.14080064 0.033909895 0.64300001 4294308849
0.14202353 0.033911187 0.64300001 4294178033
0.14324649 0.033912495 0.64300001 4294178033
0.14469412 0.033966541 0.64399999 4294308847
0.14591907 0.03396786 0.64399999 4294177261
0.14714406 0.033969179 0.64399999 4294177263
0.14882989 0.034076016 0.64600003 4294243056
0.15005879 0.03407735 0.64600003 4294177263
0.15175611 0.034184199 0.648 4294177263
0.15393329 0.034396574 0.65200001 4294243054
0.15541174 0.034450706 0.653 4294374640
0.15665413 0.034452081 0.653 4294243056
0.15789661 0.034453459 0.653 4294177263
0.15913908 0.034454845 0.653 4294243826
0.160136 0.034403469 0.65200001 4294375156
0.1613767 0.034404859 0.65200001 4294112240
0.16261743 0.03440626 0.65200001 4294112240
0.16385818 0.034407664 0.65200001 4294111986
0.16560544 0.034514617 0.65399998 4294111986
0.16761543 0.034674358 0.65700001 4293980400
0.17015101 0.03493968 0.662 4293914607
0.17166987 0.034993906 0.66299999 4293782251
0.17293178 0.034995347 0.66299999 4293782251
0.17445646 0.03504958 0.66399997 4293716458
0.17572035 0.035051037 0.66399997 4293519336
0.074209467 0.037195869 0.68199998 4293452761
0.075281918 0.037087586 0.68000001 4293321693
0.076572023 0.037088398 0.68000001 4293321693
0.077862173 0.037089214 0.68000001 4293190105
0.078686774 0.036871873 0.676 4293518813
0.079969451 0.036872718 0.676 4293518815
0.08125215 0.036873564 0.676 4293518815
0.081436068 0.036383498 0.667 4293649888
0.08257781 0.036329817 0.66600001 4293847267
0.083589897 0.03622159 0.66399997 4293650142
0.084722258 0.036167931 0.66299999 4293584093
0.085850865 0.036114279 0.662 4293387482
0.086712547 0.035951521 0.65899998 4293716447
0.087963335 0.035952434 0.65899998 4293716449
0.089078821 0.035898808 0.65799999 4293716449
0.090190545 0.03584519 0.65700001 4293716195
0.091159329 0.035737008 0.65499997 4293979366
0.092402741 0.035737973 0.65499997 4293848550
0.093503229 0.035684381 0.65399998 4293914343
0.094599962 0.035630789 0.653 4293980139
0.095692962 0.035577215 0.65200001 4293980139
0.096930891 0.035578214 0.65200001 4293979366
0.098168857 0.035579219 0.65200001 4294110953
0.099406898 0.03558024 0.65200001 4293979885
0.10064498 0.035581272 0.65200001 4293979885
0.10188311 0.035582308 0.65200001 4294176748
0.1031213 0.035583362 0.65200001 4294176748
0.10435954 0.035584424 0.65200001 4294242795
0.10495 0.03536718 0.648 4294308588
0.10618076 0.035368253 0.648 4294308336
0.10724584 0.035314761 0.64700001 4294308336
0.1084748 0.035315853 0.64700001 4294243054
0.10970383 0.035316959 0.64700001 4294045932
0.11093291 0.035318073 0.64700001 4294242541
0.11216202 0.03531919 0.64700001 4294571506
0.11339122 0.035320327 0.64700001 4294242541
0.11444331 0.035266876 0.64600003 4294505712
0.1156707 0.035268024 0.64600003 4294505712
0.11653624 0.03515999 0.64399999 4294571506
0.11775995 0.035161152 0.64399999 4294637299
0.11898372 0.035162326 0.64399999 4294703092
0.1200209 0.035108909 0.64300001 4294637301
0.12124286 0.035110094 0.64300001 4294768887
0.1224649 0.035111293 0.64300001 4294506483
0.12349465 0.035057895 0.64200002 4294637812
0.12471489 0.035059109 0.64200002 4294703607
0.12573901 0.035005718 0.64099997 4294506229
0.12695748 0.035006944 0.64099997 4294506231
0.12817596 0.035008177 0.64099997 4294506231
0.12939453 0.035009421 0.64099997 4294308849
0.13061315 0.035010673 0.64099997 4294440436
0.13183182 0.035011929 0.64099997 4294374642
0.13305053 0.035013195 0.64099997 4294308849
0.13426931 0.035014465 0.64099997 4294308849
0.13548815 0.035015754 0.64099997 4294374642
0.1369203 0.035071664 0.64200002 4294505712
0.13814114 0.035072964 0.64200002 4294505712
0.13936204 0.035074268 0.64200002 4294308849
0.14058296 0.035075579 0.64200002 4294243056
0.14180396 0.035076894 0.64200002 4294045678
0.1432478 0.035132859 0.64300001 4294243056
0.14447077 0.035134185 0.64300001 4294243054
0.14569384 0.035135526 0.64300001 4294243054
0.14691691 0.035136867 0.64300001 4294243056
0.14814007 0.03513822 0.64300001 4294177263
0.14936326 0.035139572 0.64300001 4294177263
0.15082069 0.035195585 0.64399999 4294045678
0.15393464 0.035634182 0.65200001 4294242541
0.15541309 0.035690229 0.653 4294242541
0.15665554 0.035691634 0.653 4293979887
0.15789798 0.035693035 0.653 4294242802
0.15889677 0.035639782 0.65200001 4294177779
0.16013741 0.035641193 0.65200001 4294177779
0.16137812 0.035642609 0.65200001 4294046193
0.16261885 0.035644032 0.65200001 4293914607
0.16385959 0.035645455 0.65200001 4293980400
0.16510043 0.035646878 0.65200001 4293980400
0.16710663 0.035812341 0.65499997 4293980400
0.16938138 0.036032494 0.65899998 4293980400
0.17141239 0.036197986 0.662 4293914093
0.17267241 0.036199462 0.662 4293914093
0.17419519 0.036255609 0.66299999 4293716458
0.17545716 0.036257088 0.66299999 4293716458
0.072916441 0.038488239 0.68199998 4293518300
0.073992647 0.038376171 0.68000001 4293189591
0.075172015 0.038320541 0.67900002 4293123544
0.076460235 0.038321361 0.67900002 4293847267
0.077404998 0.038152885 0.676 4293518813
0.078571223 0.038097288 0.67500001 4293387484
0.079497099 0.037928812 0.67199999 4293387486
0.080291443 0.037703909 0.66799998 4293387486
0.081314854 0.037591893 0.66600001 4293518050
0.082330696 0.037479877 0.66399997 4293715686
0.083464898 0.037424326 0.66299999 4293649888
0.084595397 0.037368786 0.662 4293584095
0.085722104 0.037313249 0.66100001 4293584608
0.086713463 0.03720127 0.65899998 4293782244
0.087830797 0.037145752 0.65799999 4293913058
0.088944376 0.037090242 0.65700001 4294044644
0.089916922 0.036978286 0.65499997 4293716195
0.091021106 0.036922794 0.65399998 4293848037
0.092262641 0.036923766 0.65399998 4293848550
0.093361244 0.036868297 0.653 4293914343
0.094456092 0.036812827 0.65200001 4294110953
0.095693976 0.036813837 0.65200001 4294110953
0.096634552 0.036701918 0.64999998 4294176746
0.097868748 0.036702942 0.64999998 4294505710
0.099102981 0.036703978 0.64999998 4294176748
0.10064601 0.036817964 0.65200001 4294110955
0.10157162 0.036706079 0.64999998 4294176746
0.10264788 0.03665068 0.64899999 4294176746
0.10372038 0.036595285 0.648 4294176746
0.10495109 0.036596369 0.648 4294242795
0.10618185 0.036597464 0.648 4294242289
0.10724692 0.036542088 0.64700001 4294308338
0.10847592 0.036543205 0.64700001 4294177263
0.10953539 0.036487851 0.64600003 4294177263
0.11076256 0.03648898 0.64600003 4294308336
0.11198982 0.036490124 0.64600003 4294571252
0.11321712 0.036491275 0.64600003 4294308338
0.11444446 0.036492433 0.64600003 4294505460
0.11531375 0.036380619 0.64399999 4294505712
0.11635645 0.036325302 0.64300001 4294505712
0.11757828 0.036326487 0.64300001 4294571252
0.11880016 0.036327679 0.64300001 4294571252
0.11983542 0.036272384 0.64200002 4294637301
0.12105552 0.036273595 0.64200002 4294703094
0.12208521 0.036218308 0.64099997 4294506483
0.12311114 0.036163028 0.63999999 4294506483
0.12432758 0.036164261 0.63999999 4294440436
0.12515177 0.03605248 0.63800001 4294374642
0.12636451 0.036053725 0.63800001 4294440438
0.12757733 0.036054976 0.63800001 4294374644
0.1287902 0.036056235 0.63800001 4294374642
0.13041066 0.036170535 0.63999999 4294374642
0.13121611 0.036058776 0.63800001 4294374640
0.13242911 0.036060054 0.63800001 4294243054
0.13406114 0.03617439 0.63999999 4294177261
0.13485532 0.036062643 0.63800001 4294243054
0.13606851 0.036063947 0.63800001 4294243054
0.13728175 0.036065258 0.63800001 4294243054
0.13892919 0.036179636 0.63999999 4294177263
0.14014634 0.036180969 0.63999999 4294177263
0.14180529 0.036295373 0.64200002 4294242543
0.14302635 0.036296714 0.64200002 4294242543
0.14424744 0.03629807 0.64200002 4294242795
0.14569516 0.036355965 0.64300001 4294176746
0.14691827 0.036357336 0.64300001 4294177259
0.14814141 0.036358703 0.64300001 4294177259
0.14936462 0.036360085 0.64300001 4293979885
0.15082207 0.036418017 0.64399999 4293914091
0.15204726 0.03641941 0.64399999 4294044907
0.15327252 0.036420807 0.64399999 4294110701
0.15665692 0.036931213 0.653 4293979887
0.15789939 0.036932644 0.653 4294242802
0.1588982 0.036877517 0.65200001 4294112240
0.16013883 0.036878947 0.65200001 4294046191
0.16137953 0.036880385 0.65200001 4293980400
0.16262028 0.036881831 0.65200001 4293914607
0.16335839 0.036770139 0.64999998 4293914607
0.16459541 0.036771588 0.64999998 4293914607
0.16583243 0.036773041 0.64999998 4293979887
0.1683547 0.037057377 0.65499997 4293979887
0.17063706 0.03728516 0.65899998 4293914093
0.17241304 0.037399802 0.66100001 4293914093
0.17393395 0.037457876 0.662 4293979885
0.17519401 0.037459373 0.662 4293848298
0.17672065 0.037517451 0.66299999 4293519336
0.17825118 0.037575554 0.66399997 4293585129
0.072703414 0.039664779 0.68000001 4293584095
0.073993459 0.039665591 0.68000001 4293189337
0.075172842 0.03960808 0.67900002 4293057751
0.076348461 0.03955058 0.67799997 4293649888
0.077405833 0.039434757 0.676 4293649888
0.07810647 0.039143939 0.671 4293584095
0.079024762 0.038969789 0.66799998 4293518302
0.080172114 0.038912322 0.667 4293518302
0.081071533 0.038738187 0.66399997 4293387232
0.082207598 0.038680747 0.66299999 4293650404
0.083339922 0.038623314 0.662 4293650656
0.084468514 0.038565885 0.66100001 4293650656
0.085463643 0.038450122 0.65899998 4293650656
0.086582825 0.038392715 0.65799999 4293716449
0.087831743 0.038393661 0.65799999 4293650402
0.088945344 0.038336281 0.65700001 4293782244
0.089917883 0.03822054 0.65499997 4293650402
0.091022097 0.038163174 0.65399998 4293848037
0.092122547 0.038105808 0.653 4293848296
0.093219243 0.038048454 0.65200001 4293980139
0.094457105 0.038049471 0.65200001 4293980137
0.095401429 0.037933771 0.64999998 4293980137
0.096486919 0.037876446 0.64899999 4294176746
0.097719222 0.037877485 0.64899999 4294308588
0.098951586 0.037878539 0.64899999 4294242795
0.10018399 0.037879605 0.64899999 4294176746
0.10141644 0.037880678 0.64899999 4294110953
0.1024908 0.037823398 0.648 4294176746
0.10356139 0.037766118 0.64700001 4294242795
0.10479023 0.03776722 0.64700001 4294242795
0.1060191 0.037768338 0.64700001 4294176748
0.10724804 0.037769459 0.64700001 4294374127
0.10847704 0.037770599 0.64700001 4294374127
0.10953653 0.037713364 0.64600003 4294374127
0.11076371 0.037714515 0.64600003 4294505460
0.11199098 0.037715681 0.64600003 4294505460
0.11321828 0.037716854 0.64600003 4294374129
0.11409131 0.037601255 0.64399999 4294505458
0.11495682 0.037485667 0.64200002 4294374894
0.11599573 0.037428465 0.64099997 4294374894
0.11721374 0.037429668 0.64099997 4294374640
0.11843184 0.037430882 0.64099997 4294374640
0.11964998 0.037432097 0.64099997 4294374640
0.12086818 0.03743333 0.64099997 4294374640
0.12151504 0.037259366 0.63800001 4294374894
0.12272763 0.037260603 0.63800001 4294440688
0.1239403 0.037261859 0.63800001 4294374640
0.12495685 0.037204709 0.63700002 4294374640
0.12616771 0.037205964 0.63700002 4294374642
0.12737863 0.037207242 0.63700002 4294374642
0.1285896 0.03720852 0.63700002 4294243826
0.12980065 0.037209809 0.63700002 4294243826
0.13101172 0.037211105 0.63700002 4294374640
0.13222283 0.037212402 0.63700002 4294177261
0.13343404 0.037213713 0.63700002 4294176748
0.13464527 0.037215032 0.63700002 4294308334
0.13606983 0.037274778 0.63800001 4294243054
0.13728307 0.037276108 0.63800001 4294177261
0.13893053 0.037394308 0.63999999 4294176748
0.14014769 0.03739566 0.63999999 4294110955
0.14158574 0.037455443 0.64099997 4294110955
0.14302769 0.037515253 0.64200002 4294308334
0.14424881 0.037516624 0.64200002 4294242795
0.14546996 0.037518006 0.64200002 4294176746
0.14669119 0.037519399 0.64200002 4294110955
0.14791241 0.037520785 0.64200002 4294176748
0.14913373 0.037522186 0.64200002 4294110955
0.15058927 0.03758204 0.64300001 4294110955
0.15134037 0.037466548 0.64099997 4294044907
0.15255991 0.03746796 0.64099997 4294110701
0.15377948 0.03746938 0.64099997 4293979887
0.15790084 0.03817229 0.653 4294177009
0.15889964 0.038115278 0.65200001 4294046191
0.16014028 0.038116734 0.65200001 4294046191
0.16138099 0.038118206 0.65200001 4293914607
0.16262172 0.038119666 0.65200001 4293914607
0.16335984 0.038004197 0.64999998 4293914607
0.16459689 0.038005672 0.64999998 4293914607
0.16583392 0.038007148 0.64999998 4294110701
0.16809916 0.038242523 0.65399998 4294176750
0.16934387 0.038244009 0.65399998 4294044909
0.1708495 0.038303986 0.65499997 4294044909
0.17262176 0.03842245 0.65700001 4293979887
0.17440158 0.038540926 0.65899998 4293848044
0.17565599 0.038542438 0.65899998 4293585129
0.17744733 0.038660932 0.66100001 4293716458
0.17924637 0.038779441 0.66299999 4293585129
0.18050846 0.038780972 0.66299999 4293585129
0.072704233 0.040954228 0.68000001 4293519067
0.073885471 0.040894821 0.67900002 4293255896
0.075062953 0.040835433 0.67799997 4293386714
0.076349311 0.040836282 0.67799997 4293518300
0.077177696 0.040596224 0.67400002 4293584608
0.077990927 0.040356163 0.67000002 4293716195
0.078907348 0.040176347 0.667 4293518815
0.080173016 0.040177234 0.667 4293387486
0.081072442 0.039997425 0.66399997 4293518302
0.082208507 0.039938096 0.66299999 4293847267
0.083340846 0.039878786 0.662 4293650654
0.084469438 0.039819479 0.66100001 4293650654
0.085464582 0.039699938 0.65899998 4293650656
0.086583771 0.039640654 0.65799999 4293650656
0.08769922 0.039581377 0.65700001 4293715684
0.088946313 0.039582357 0.65700001 4293978599
0.08978159 0.039402593 0.65399998 4293848037
0.090883911 0.039343346 0.653 4293979366
0.091982476 0.039284103 0.65200001 4293914091
0.093220286 0.039285127 0.65200001 4293914091
0.09416838 0.039165642 0.64999998 4294045159
0.095255718 0.039106425 0.64899999 4294110953
0.096339293 0.039047215 0.648 4294110953
0.097569689 0.039048273 0.648 4294176746
0.098800167 0.039049346 0.648 4294110953
0.1000307 0.03905043 0.648 4294110953
0.10126126 0.039051518 0.648 4294110953
0.10249189 0.039052624 0.648 4294176746
0.10340245 0.038933203 0.64600003 4294176746
0.10462938 0.038934324 0.64600003 4294242795
0.10602023 0.038995728 0.64700001 4294242795
0.10724918 0.038996872 0.64700001 4294308588
0.10797518 0.038817201 0.64399999 4294243056
0.10902898 0.038758084 0.64300001 4294308849
0.11025049 0.03875925 0.64300001 4294374131
0.11147206 0.038760431 0.64300001 4294308338
0.11251842 0.038701333 0.64200002 4294308336
0.11373817 0.038702525 0.64200002 4294374129
0.11459989 0.038583163 0.63999999 4294374381
0.11581598 0.038584378 0.63999999 4294571504
0.1170321 0.038585592 0.63999999 4294505710
0.11824831 0.038586825 0.63999999 4294505710
0.11909123 0.038467478 0.63800001 4294505710
0.12030373 0.038468719 0.63800001 4294505710
0.12151629 0.038469974 0.63800001 4294505710
0.12253655 0.038410939 0.63700002 4294505710
0.12374731 0.038412206 0.63700002 4294243054
0.12495812 0.03841348 0.63700002 4294243054
0.126169 0.038414761 0.63700002 4294374894
0.12717992 0.038355745 0.63599998 4294374894
0.12838902 0.038357042 0.63599998 4294374640
0.12959816 0.038358353 0.63599998 4294243054
0.13080734 0.038359668 0.63599998 4294308847
0.1320166 0.038360991 0.63599998 4294045932
0.13322589 0.038362317 0.63599998 4294045932
0.13464661 0.038423978 0.63700002 4294308847
0.1358579 0.038425319 0.63700002 4294177259
0.13706924 0.038426675 0.63700002 4294045930
0.13849774 0.038488366 0.63800001 4294110701
0.13971108 0.038489733 0.63800001 4294110701
0.14136624 0.03861177 0.63999999 4294110955
0.14280629 0.038673487 0.64099997 4294110955
0.14402549 0.03867488 0.64099997 4294110953
0.14524476 0.038676284 0.64099997 4294176746
0.14646406 0.038677692 0.64099997 4294110955
0.14768343 0.038679104 0.64099997 4294110955
0.14890283 0.038680524 0.64099997 4293980139
0.15012228 0.03868195 0.64099997 4294045932
0.15110567 0.038623028 0.63999999 4294110701
0.15232332 0.038624462 0.63999999 4294308336
0.15354101 0.038625903 0.63999999 4294045680
0.15475875 0.038627349 0.63999999 4294045680
0.15890111 0.039353084 0.65200001 4294045678
0.16014177 0.039354566 0.65200001 4294045678
0.16138247 0.039356053 0.65200001 4293914091
0.1626232 0.039357539 0.65200001 4293979885
0.1633613 0.039238293 0.64999998 4293914091
0.16459833 0.039239787 0.64999998 4293914091
0.16583538 0.039241288 0.64999998 4293979885
0.16784362 0.039423909 0.653 4293979885
0.16908644 0.039425418 0.653 4293914093
0.17059019 0.03948731 0.65399998 4293848044
0.17209777 0.039549209 0.65499997 4293848044
0.17413847 0.039731883 0.65799999 4293848044
0.17539097 0.039733417 0.65799999 4293585129
0.1774489 0.039916117 0.66100001 4293585129
0.17924789 0.04003844 0.66299999 4293782505
0.18051 0.040039994 0.66299999 4293848298
0.18177217 0.040041551 0.66299999 4293453542
0.073886305 0.042182438 0.67900002 4293322202
0.075063802 0.042121165 0.67799997 4293322202
0.07635019 0.042122036 0.67799997 4293322202
0.076835036 0.041688018 0.671 4293322206
0.077758998 0.041502509 0.66799998 4293387999
0.078789935 0.041379146 0.66600001 4293387486
0.080053709 0.041380048 0.66600001 4293518815
0.080951251 0.041194569 0.66299999 4293387486
0.082209438 0.041195497 0.66299999 4293650402
0.083341777 0.041134298 0.662 4293650402
0.084470384 0.041073121 0.66100001 4293650402
0.085335843 0.040887665 0.65799999 4293847267
0.086453155 0.040826492 0.65700001 4293847267
0.087700196 0.040827479 0.65700001 4293584095
0.088947304 0.040828478 0.65700001 4294044646
0.089782603 0.040643048 0.65399998 4294045159
0.090884924 0.040581916 0.653 4293979366
0.091983505 0.040520795 0.65200001 4293914091
0.092935354 0.040397529 0.64999998 4293848298
0.09416943 0.040398575 0.64999998 4293848037
0.095256768 0.040337484 0.64899999 4293979366
0.096340366 0.040276397 0.648 4293848037
0.097420216 0.040215317 0.64700001 4294045159
0.098648801 0.040216405 0.64700001 4293980137
0.099877417 0.0402175 0.64700001 4293848550
0.1011061 0.04021861 0.64700001 4293585381
0.10233484 0.040219728 0.64700001 4293848296
0.10308343 0.040034369 0.64399999 4293978853
0.10430658 0.040035509 0.64399999 4294307818
0.10585751 0.040160991 0.64600003 4294308334
0.10675305 0.040037818 0.64399999 4294308334
0.10780869 0.039976813 0.64300001 4294243056
0.1088606 0.039915815 0.64200002 4294308849
0.10990874 0.039854825 0.64099997 4294308595
0.11112651 0.039856017 0.64099997 4294242802
0.11234435 0.03985722 0.64099997 4294308336
0.11356223 0.039858438 0.64099997 4294308336
0.11424298 0.039673112 0.63800001 4294374381
0.11545528 0.039674342 0.63800001 4294308588
0.11703335 0.039799951 0.63999999 4294242795
0.11824955 0.039801203 0.63999999 4294374381
0.11909248 0.039678078 0.63800001 4294309101
0.12030499 0.039679345 0.63800001 4294309101
0.1213271 0.039618425 0.63700002 4294374894
0.12253781 0.039619707 0.63700002 4294309101
0.1235543 0.039558791 0.63599998 4294308588
0.12476323 0.039560087 0.63599998 4294308588
0.12597221 0.039561395 0.63599998 4294308588
0.12718123 0.039562702 0.63599998 4294374381
0.12839033 0.039564025 0.63599998 4294243054
0.12959948 0.039565351 0.63599998 4294243054
0.13080867 0.039566685 0.63599998 4294112240
0.13201793 0.039568029 0.63599998 4293980398
0.13322721 0.039569382 0.63599998 4293585381
0.13443656 0.039570741 0.63599998 4294045932
0.13585927 0.039634332 0.63700002 4294045930
0.13707063 0.03963571 0.63700002 4294045930
0.13828202 0.039637089 0.63700002 4293980139
0.13949348 0.039638475 0.63700002 4293980139
0.14092587 0.039702099 0.63800001 4294176748
0.14258492 0.039827969 0.63999999 4293979112
0.14380224 0.039829385 0.63999999 4293650402
0.14501959 0.039830804 0.63999999 4293848037
0.146237 0.039832231 0.63999999 4293847783
0.14745446 0.039833665 0.63999999 4293979112
0.14890426 0.039897345 0.64099997 4294176748
0.15012373 0.039898794 0.64099997 4294110955
0.15110713 0.039838001 0.63999999 4293914091
0.15232477 0.039839454 0.63999999 4294177263
0.15354247 0.039840918 0.63999999 4294046193
0.15476021 0.039842378 0.63999999 4293980400
0.15622172 0.039906107 0.64099997 4294045678
0.15965201 0.040467907 0.64999998 4294045678
0.16088891 0.040469412 0.64999998 4293979885
0.16212586 0.040470917 0.64999998 4293979885
0.16311152 0.040410165 0.64899999 4293979885
0.16434661 0.040411673 0.64899999 4293979885
0.16558176 0.04041319 0.64899999 4293914093
0.16707401 0.040476982 0.64999998 4293979887
0.16831113 0.040478509 0.64999998 4293979887
0.17007004 0.040604595 0.65200001 4293914093
0.17157382 0.040668413 0.653 4293651689
0.17334603 0.040794514 0.65499997 4293717482
0.17512597 0.040920638 0.65700001 4293585129
0.17664507 0.040984478 0.65799999 4293716458
0.17870873 0.041172903 0.66100001 4293585642
0.17996705 0.041174479 0.66100001 4293585642
0.1804029 0.040989168 0.65799999 4293454056
0.18165554 0.040990729 0.65799999 4293322470
0.075450175 0.042895637 0.67000002 4293518554
0.076721415 0.04289652 0.67000002 4293387486
0.077643491 0.042705346 0.667 4293321693
0.07855422 0.042514168 0.66399997 4293584095
0.079694025 0.042451058 0.66299999 4293913060
0.08083009 0.042387962 0.662 4293584097
0.082086384 0.042388905 0.662 4293715684
0.083342746 0.042389862 0.662 4293716199
0.084599145 0.042390823 0.662 4293650150
0.085207134 0.042071629 0.65700001 4293847267
0.086454153 0.042072624 0.65700001 4294044646
0.087434225 0.041945539 0.65499997 4293913060
0.088677533 0.041946542 0.65499997 4294110439
0.089646332 0.04181949 0.653 4293979366
0.090746775 0.041756477 0.65200001 4293979366
0.091984548 0.041757528 0.65200001 4293914089
0.092936389 0.041630477 0.64999998 4293782503
0.094170481 0.041631546 0.64999998 4293848037
0.095257841 0.041568574 0.64899999 4294110953
0.096341446 0.041505609 0.648 4293979112
0.097421303 0.041442651 0.64700001 4294045161
0.098649889 0.041443758 0.64700001 4293914089
0.099878527 0.041444875 0.64700001 4293914089
0.10110723 0.041446004 0.64700001 4294044907
0.10217782 0.041383091 0.64600003 4294110701
0.1029245 0.041192044 0.64300001 4294110955
0.10414576 0.041193202 0.64300001 4294110955
0.10536707 0.041194368 0.64300001 4294242541
0.10658845 0.041195542 0.64300001 4294308334
0.10747454 0.041068587 0.64099997 4294243056
0.10869221 0.041069787 0.64099997 4294243056
0.10990994 0.04107099 0.64099997 4294374129
0.11095436 0.04100813 0.63999999 4294571252
0.11217031 0.041009355 0.63999999 4294308336
0.11338629 0.041010585 0.63999999 4294308336
0.11424422 0.040883668 0.63800001 4294308338
0.11545652 0.040884919 0.63800001 4294308338
0.11666889 0.040886175 0.63800001 4294243054
0.1178813 0.040887441 0.63800001 4294374640
0.11890708 0.040824633 0.63700002 4294308588
0.1201177 0.040825915 0.63700002 4294242795
0.12132837 0.040827204 0.63700002 4294243052
0.1225391 0.040828507 0.63700002 4294243052
0.1235556 0.040765721 0.63599998 4294242795
0.12476455 0.040767036 0.63599998 4294308588
0.12597354 0.040768366 0.63599998 4294243054
0.12718256 0.040769696 0.63599998 4294308847
0.12839167 0.040771037 0.63599998 4294177263
0.12960081 0.040772382 0.63599998 4294177263
0.13081002 0.040773753 0.63599998 4294111986
0.13201928 0.040775113 0.63599998 4294046193
0.13322859 0.040776487 0.63599998 4293980139
0.13443795 0.040777866 0.63599998 4294045932
0.13564736 0.040779255 0.63599998 4293980137
0.13685681 0.040780649 0.63599998 4293980137
0.13828342 0.04084618 0.63700002 4293980139
0.13949488 0.040847585 0.63700002 4293914089
0.14070639 0.040849004 0.63700002 4294045161
0.14214076 0.040914558 0.63800001 4293979112
0.14335427 0.040915988 0.63800001 4293781990
0.14502102 0.041045688 0.63999999 4294045161
0.14623843 0.041047137 0.63999999 4293979112
0.1474559 0.041048598 0.63999999 4293979112
0.14867342 0.041050062 0.63999999 4294045161
0.15012518 0.041115668 0.64099997 4294176748
0.15110858 0.041052997 0.63999999 4293914091
0.15232624 0.041054476 0.63999999 4294243056
0.15378386 0.041120108 0.64099997 4293980400
0.15500352 0.041121598 0.64099997 4293914607
0.15622321 0.041123088 0.64099997 4294110701
0.15793419 0.041252911 0.64300001 4294176750
0.16039537 0.041575208 0.648 4294110703
0.16162851 0.041576732 0.648 4294110703
0.16286168 0.041578259 0.648 4293979885
0.16409491 0.041579798 0.648 4294045678
0.16532817 0.041581336 0.648 4293979887
0.16681853 0.041647047 0.64899999 4293914093
0.16805375 0.041648589 0.64899999 4293914093
0.16954987 0.041714311 0.64999998 4293848044
0.17078711 0.041715868 0.64999998 4293848298
0.1728183 0.041909963 0.653 4293848298
0.17432785 0.041975707 0.65399998 4293585129
0.17584124 0.042041466 0.65499997 4293782251
0.17708811 0.042043049 0.65499997 4293585129
0.17887957 0.042173002 0.65700001 4293585129
0.17958196 0.0420462 0.65499997 4293519595
0.18082887 0.042047776 0.65499997 4293453802
0.076493293 0.04403536 0.66799998 4293452509
0.077527992 0.043904435 0.66600001 4293584095
0.078436837 0.043707583 0.66299999 4293584095
0.079574749 0.043642588 0.662 4293913060
0.080708928 0.043577608 0.66100001 4293584095
0.081715345 0.043446712 0.65899998 4293715682
0.082966007 0.043447673 0.65899998 4293716197
0.084600128 0.043646455 0.662 4293650404
0.084948726 0.04318592 0.65499997 4293715682
0.086060368 0.043120988 0.65399998 4293847267
0.087168269 0.043056071 0.653 4293716195
0.088407792 0.043057092 0.653 4293848037
0.089510091 0.04299219 0.65200001 4293847267
0.090747826 0.042993244 0.65200001 4293913060
0.091985606 0.042994298 0.65200001 4293979112
0.092937455 0.042863484 0.64999998 4293847783
0.094171546 0.042864561 0.64999998 4293848037
0.095112145 0.04273377 0.648 4294110953
0.096193865 0.042668927 0.64700001 4293979112
0.097422414 0.04267003 0.64700001 4293979112
0.098498546 0.042605206 0.64600003 4294045161
0.099725306 0.042606343 0.64600003 4294110955
0.1009521 0.042607494 0.64600003 4294110955
0.10186262 0.042476725 0.64399999 4294242541
0.1027656 0.042345978 0.64200002 4294176746
0.10398497 0.042347148 0.64200002 4294110953
0.10504051 0.042282362 0.64099997 4293979112
0.10625809 0.042283561 0.64099997 4294176748
0.10730806 0.042218793 0.63999999 4294110955
0.10852385 0.042220011 0.63999999 4294308334
0.10973969 0.04222123 0.63999999 4294374642
0.11095559 0.04222247 0.63999999 4294374642
0.11217153 0.042223707 0.63999999 4294308336
0.11338755 0.042224966 0.63999999 4294308336
0.11424545 0.042094264 0.63800001 4294243056
0.11545777 0.042095531 0.63800001 4294243056
0.11667014 0.042096816 0.63800001 4294243054
0.11788256 0.042098105 0.63800001 4294243054
0.11890838 0.042033415 0.63700002 4294177259
0.120119 0.042034715 0.63700002 4294243052
0.12132967 0.04203603 0.63700002 4294177259
0.12254041 0.042037357 0.63700002 4293980137
0.12355693 0.041972689 0.63599998 4294110955
0.12476586 0.041974027 0.63599998 4294242541
0.12597486 0.041975372 0.63599998 4294242802
0.12718391 0.041976728 0.63599998 4294242802
0.12839302 0.041978087 0.63599998 4294045932
0.12960218 0.041979466 0.63599998 4294177261
0.13060571 0.041914836 0.63499999 4294177263
0.13181308 0.041916225 0.63499999 4294177263
0.13322996 0.041983623 0.63599998 4294177259
0.13422796 0.041919015 0.63499999 4294045930
0.13543548 0.041920427 0.63499999 4293914343
0.13664305 0.041921843 0.63499999 4293980137
0.13785066 0.041923255 0.63499999 4294046191
0.13927729 0.041990709 0.63599998 4293914605
0.14048693 0.041992143 0.63599998 4293848296
0.1416966 0.041993588 0.63599998 4293914089
0.14290632 0.041995041 0.63599998 4293979366
0.14434271 0.042062532 0.63700002 4293979366
0.1457829 0.042130027 0.63800001 4294045161
0.14699657 0.042131502 0.63800001 4293979112
0.14867489 0.042265058 0.63999999 4294045161
0.15012667 0.04233259 0.64099997 4294242541
0.15111008 0.042268038 0.63999999 4293980139
0.15232773 0.042269535 0.63999999 4294177261
0.15378536 0.042337094 0.64099997 4293914607
0.15500501 0.042338602 0.64099997 4293914607
0.15622471 0.042340122 0.64099997 4294110955
0.15793569 0.042473752 0.64300001 4294176748
0.15915927 0.042475283 0.64300001 4294044907
0.16063233 0.042542879 0.64399999 4294044907
0.16286324 0.042808671 0.648 4294110701
0.16384321 0.042744152 0.64700001 4294176750
0.16507459 0.042745709 0.64700001 4293914607
0.16656302 0.042813338 0.648 4293783021
0.16779636 0.042814903 0.648 4293782251
0.16929059 0.042882547 0.64899999 4293848044
0.17078868 0.042950194 0.64999998 4293914091
0.17255524 0.043083936 0.65200001 4293848298
0.17406288 0.043151606 0.653 4293519334
0.17530592 0.043153197 0.653 4293716712
0.17681932 0.043220874 0.65399998 4293453542
0.17806433 0.043222472 0.65399998 4293716458
0.17930937 0.043224063 0.65399998 4293717232
0.18055439 0.043225668 0.65399998 4293519597
0.074776255 0.045030121 0.66399997 4293584095
0.07592164 0.044963211 0.66299999 4293584095
0.077179685 0.044964138 0.66299999 4293518302
0.078319475 0.044897255 0.662 4293584095
0.07945551 0.044830382 0.66100001 4293847267
0.080465674 0.04469569 0.65899998 4293649890
0.081592299 0.044628829 0.65799999 4293649890
0.082841091 0.044629812 0.65799999 4293715682
0.084089942 0.044630807 0.65799999 4293715682
0.084949754 0.044428337 0.65499997 4293715684
0.085929804 0.044293694 0.653 4293715684
0.087035812 0.044226889 0.65200001 4293716197
0.088273443 0.044227928 0.65200001 4293847783
0.089511141 0.044228975 0.65200001 4293781990
0.090748869 0.04423004 0.65200001 4293781990
0.091704503 0.044095434 0.64999998 4293847785
0.092795581 0.044028692 0.64899999 4293847785
0.094027773 0.044029787 0.64899999 4293847783
0.095113255 0.04396306 0.648 4294045161
0.096194968 0.043896329 0.64700001 4293979112
0.097272962 0.043829616 0.64600003 4293979112
0.098499671 0.043830756 0.64600003 4294045161
0.099726439 0.043831911 0.64600003 4294045161
0.10064071 0.043697368 0.64399999 4294110955
0.1017056 0.043630686 0.64300001 4294176748
0.10276677 0.04356401 0.64200002 4294176746
0.10398616 0.043565206 0.64200002 4294176746
0.10487783 0.043430679 0.63999999 4294176748
0.10609354 0.043431893 0.63999999 4294374127
0.10697395 0.043297384 0.63800001 4294177261
0.10818595 0.043298617 0.63800001 4294243054
0.10939799 0.043299858 0.63800001 4294308847
0.11061011 0.043301102 0.63800001 4294308847
0.11182225 0.043302361 0.63800001 4294243054
0.11303448 0.043303631 0.63800001 4294243054
0.11424673 0.043304909 0.63800001 4294243054
0.11545906 0.043306198 0.63800001 4294177261
0.11667144 0.043307502 0.63800001 4294242543
0.11769909 0.043240927 0.63700002 4294242543
0.1189097 0.043242246 0.63700002 4294242795
0.11993174 0.043175675 0.63599998 4294308588
0.12114053 0.043177009 0.63599998 4294111207
0.12234937 0.04317835 0.63599998 4294045157
0.12355828 0.043179698 0.63599998 4293979885
0.12476724 0.043181065 0.63599998 4294045678
0.12597622 0.043182429 0.63599998 4294242802
0.12718529 0.043183807 0.63599998 4294045680
0.1283944 0.043185186 0.63599998 4294045678
0.12960356 0.043186579 0.63599998 4294177263
0.13060711 0.043120071 0.63499999 4294242795
0.13181446 0.043121487 0.63499999 4294176746
0.13281243 0.043054994 0.634 4294176746
0.134018 0.043056414 0.634 4294242795
0.13522361 0.043057833 0.634 4294045930
0.13642928 0.043059267 0.634 4294177259
0.13763499 0.043060705 0.634 4294177263
0.13884076 0.043062154 0.634 4294177263
0.1400466 0.043063607 0.634 4294110955
0.14147526 0.043132994 0.63499999 4294242541
0.14268307 0.043134458 0.63499999 4293979112
0.14411755 0.043203872 0.63599998 4293979112
0.14555588 0.043273289 0.63700002 4293979112
0.14699805 0.04334271 0.63800001 4293847783
0.14821178 0.043344218 0.63800001 4293914089
0.14989397 0.043481607 0.63999999 4294308847
0.15111157 0.043483119 0.63999999 4294242795
0.15232927 0.043484639 0.63999999 4294308588
0.15354694 0.043486167 0.63999999 4293979885
0.15476471 0.04348769 0.63999999 4293848298
0.15598252 0.043489233 0.63999999 4293979366
0.15793724 0.043694634 0.64300001 4294045159
0.15916084 0.043696191 0.64300001 4294044907
0.16063389 0.043765701 0.64399999 4294044907
0.16236214 0.043903194 0.64600003 4294044907
0.16359156 0.043904763 0.64600003 4294110701
0.16482101 0.043906331 0.64600003 4293979885
0.16630755 0.043975879 0.64700001 4293848298
0.16753902 0.043977465 0.64700001 4293980139
0.16903135 0.044047032 0.648 4294045932
0.17079027 0.044184566 0.64999998 4293914091
0.1720275 0.044186164 0.64999998 4293914091
0.17379794 0.044323727 0.65200001 4293782505
0.17503905 0.044325341 0.65200001 4293914091
0.17628022 0.04432695 0.65200001 4293716458
0.17697684 0.044192575 0.64999998 4293782251
0.17821428 0.044194195 0.64999998 4293783026
0.1794517 0.044195801 0.64999998 4293651183
0.1806892 0.044197418 0.64999998 4293454056
0.073849455 0.046497729 0.667 4293452507
0.074777164 0.046289504 0.66399997 4293584093
0.075922556 0.046220709 0.66299999 4293649888
0.077064201 0.046151932 0.662 4293584095
0.078320414 0.046152886 0.662 4293518302
0.079456463 0.046084132 0.66100001 4293715682
0.08046665 0.045945659 0.65899998 4293519588
0.08159329 0.04587692 0.65799999 4293519588
0.082842104 0.045877926 0.65799999 4293716195
0.083707556 0.045669764 0.65499997 4293716195
0.08482106 0.045601059 0.65399998 4293584095
0.085404448 0.045253452 0.64899999 4293715682
0.086636357 0.045254488 0.64899999 4293585381
0.088274494 0.045464735 0.65200001 4293782503
0.089512207 0.045465812 0.65200001 4293782503
0.089497276 0.044839278 0.64300001 4293782503
0.090717994 0.044840362 0.64300001 4293847783
0.091938764 0.044841453 0.64300001 4293847783
0.093159594 0.04484256 0.64300001 4293979112
0.094380461 0.04484367 0.64300001 4293979112
0.095750064 0.044914544 0.64399999 4294045161
0.096972935 0.044915691 0.64399999 4294045161
0.098043397 0.044847105 0.64300001 4294110955
0.09926448 0.044848271 0.64300001 4294110955
0.10032933 0.044779696 0.64200002 4294176748
0.10154863 0.04478088 0.64200002 4294176748
0.10260788 0.044712324 0.64099997 4294110953
0.10366341 0.044643782 0.63999999 4294308588
0.1045513 0.044505484 0.63800001 4294242795
0.10576322 0.044506717 0.63800001 4294308588
0.10697517 0.044507951 0.63800001 4294243054
0.10818718 0.044509191 0.63800001 4294308847
0.10939925 0.04451045 0.63800001 4294243054
0.11061136 0.044511724 0.63800001 4294308847
0.11182353 0.044512998 0.63800001 4294243054
0.11285859 0.044444524 0.63700002 4294243054
0.11406897 0.044445824 0.63700002 4294374381
0.11527938 0.044447124 0.63700002 4294308588
0.11648989 0.044448443 0.63700002 4294176748
0.11751564 0.044379983 0.63599998 4294242541
0.11872432 0.04438132 0.63599998 4294242795
0.11993307 0.044382662 0.63599998 4294176746
0.12114189 0.044384021 0.63599998 4294177000
0.12215836 0.044315599 0.63499999 4294111207
0.12336536 0.044316955 0.63499999 4293848296
0.12457242 0.044318333 0.63499999 4293980139
0.12577954 0.044319719 0.63499999 4294045680
0.1269867 0.04432112 0.63499999 4294045680
0.12819391 0.044322524 0.63499999 4293847783
0.12940121 0.044323932 0.63499999 4294176748
0.13060851 0.044325352 0.63499999 4294242795
0.1318159 0.044326779 0.63499999 4294242795
0.13239489 0.044118796 0.63200003 4294176746
0.13359666 0.04412023 0.63200003 4294176746
0.13458517 0.044051856 0.63099998 4294045930
0.13578515 0.044053301 0.63099998 4293980137
0.13720229 0.044124581 0.63200003 4293848298
0.13840425 0.044126041 0.63200003 4293979885
0.14004807 0.044267155 0.634 4293847783
0.14125393 0.044268642 0.634 4294110955
0.14245987 0.044270124 0.634 4294045161
0.14366585 0.044271622 0.634 4294110955
0.14510038 0.044342957 0.63499999 4294045161
0.14676917 0.044484127 0.63700002 4293979112
0.14798099 0.044485651 0.63700002 4293848298
0.14942707 0.044557016 0.63800001 4293914091
0.15111312 0.044698227 0.63999999 4293914089
0.15233077 0.044699773 0.63999999 4293914089
0.15354849 0.044701323 0.63999999 4293914091
0.15476626 0.044702869 0.63999999 4293914091
0.15598406 0.044704426 0.63999999 4293585127
0.15720192 0.044705991 0.63999999 4293914091
0.15916239 0.044917122 0.64300001 4293979885
0.16038603 0.044918705 0.64300001 4293914091
0.16160971 0.044920284 0.64300001 4293914091
0.16283341 0.044921868 0.64300001 4293914091
0.16431229 0.044993315 0.64399999 4293914089
0.16605212 0.045134652 0.64600003 4293980139
0.16728164 0.045136251 0.64600003 4293980139
0.1687721 0.045207735 0.64700001 4293980139
0.1705291 0.045349088 0.64899999 4293914605
0.17202911 0.045420583 0.64999998 4293783275
0.17326643 0.045422208 0.64999998 4293716712
0.17450374 0.045423824 0.64999998 4293716712
0.17574108 0.045425452 0.64999998 4293716458
0.17697847 0.04542708 0.64999998 4293716458
0.17821591 0.045428716 0.64999998 4293717230
0.17945331 0.045430344 0.64999998 4293651437
0.18069081 0.045431972 0.64999998 4293585642
0.072584845 0.047761928 0.667 4293650140
0.073518209 0.047548018 0.66399997 4293519067
0.074665472 0.047477331 0.66299999 4293650654
0.075808987 0.047406655 0.662 4293715682
0.077065155 0.047407597 0.662 4293715682
0.078203075 0.047336958 0.66100001 4293518302
0.079457432 0.047337927 0.66100001 4293649888
0.080345519 0.047124069 0.65799999 4293650404
0.080974281 0.046766974 0.653 4293650404
0.081709996 0.046481501 0.64899999 4293650402
0.082941785 0.046482522 0.64899999 4293782244
0.08404392 0.04641192 0.648 4293716195
0.085273899 0.046412967 0.648 4294045159
0.086503923 0.046414021 0.648 4293782757
0.087733991 0.046415087 0.648 4293782757
0.088277683 0.046058014 0.64300001 4293848550
0.089498356 0.046059106 0.64300001 4293848550
0.090719104 0.046060205 0.64300001 4293848296
0.091939881 0.046061311 0.64300001 4293848296
0.093015827 0.045990795 0.64200002 4293979112
0.094234817 0.045991935 0.64200002 4293979112
0.095602535 0.046064716 0.64300001 4293914091
0.096823536 0.046065882 0.64300001 4293979885
0.098044567 0.046067055 0.64300001 4294110953
0.099111281 0.045996588 0.64200002 4294242795
0.10017424 0.045926139 0.64099997 4294110953
0.10139164 0.045927338 0.64099997 4294110953
0.10244901 0.045856904 0.63999999 4294110955
0.10366461 0.045858126 0.63999999 4294308334
0.10455253 0.045716055 0.63800001 4294242541
0.10576447 0.045717306 0.63800001 4294308334
0.10680875 0.045646902 0.63700002 4294243056
0.10801887 0.045648161 0.63700002 4294243056
