# .PCD v0.7 - Point Cloud Data file format
VERSION 0.7
FIELDS x y z rgba
SIZE 4 4 4 4
TYPE F F F U
COUNT 1 1 1 1
WIDTH 1039
HEIGHT 1
VIEWPOINT 0 0 0 1 0 0 0
POINTS 1039
DATA ascii
-0.092988968 -0.06452854 0.54699999 4294110441
-0.091949463 -0.06452775 0.54699999 4294505199
-0.090910003 -0.064526968 0.54699999 4294176750
-0.090034902 -0.064644158 0.54799998 4294176750
-0.088993646 -0.064643368 0.54799998 4294045678
-0.08795245 -0.064642593 0.54799998 4294440436
-0.086911276 -0.064641818 0.54799998 4294505712
-0.086026877 -0.064759016 0.54900002 4294308334
-0.08498393 -0.064758241 0.54900002 4294374131
-0.08394102 -0.064757481 0.54900002 4294637047
-0.082898177 -0.064756721 0.54900002 4294637297
-0.082451746 -0.065227784 0.55299997 4294769139
-0.081548579 -0.065344974 0.55400002 4294571504
-0.080496378 -0.065344214 0.55400002 4294703090
-0.079587601 -0.065461405 0.55500001 4294571758
-0.078675099 -0.06557861 0.55599999 4294571758
-0.07789845 -0.065813765 0.55800003 4294504947
-0.076563418 -0.065577127 0.55599999 4294636534
-0.075507641 -0.065576397 0.55599999 4294570992
-0.074451923 -0.065575667 0.55599999 4294966265
-0.073528253 -0.065692887 0.55699998 4294769139
-0.072861038 -0.066045985 0.56 4294637297
-0.071797863 -0.066045277 0.56 4294637299
-0.071366295 -0.066634245 0.565 4294966521
-0.070293725 -0.066633545 0.565 4294374129
-0.069221191 -0.066632837 0.565 4294374129
-0.06814871 -0.066632137 0.565 4294833908
-0.067076258 -0.066631451 0.565 4294899701
-0.066003866 -0.066630766 0.565 4294768115
-0.064931512 -0.066630095 0.565 4294636786
-0.064537339 -0.067336984 0.57099998 4294768369
-0.063898206 -0.067808032 0.57499999 4294899955
-0.062807001 -0.067807361 0.57499999 4294505197
-0.061501186 -0.067570858 0.57300001 4294899955
-0.06041386 -0.06757021 0.57300001 4294570992
-0.059326589 -0.067569576 0.57300001 4294768115
-0.17344956 -0.064816304 0.55800003 4291939786
-0.17207761 -0.064699866 0.55699998 4292137164
-0.17101642 -0.064699553 0.55699998 4291807938
-0.16965018 -0.064583078 0.55599999 4292136647
-0.16859093 -0.064582743 0.55599999 4291873995
-0.16723041 -0.064466238 0.55500001 4292202704
-0.16587368 -0.064349718 0.55400002 4292137933
-0.16481829 -0.064349338 0.55400002 4292137933
-0.1637629 -0.064348936 0.55400002 4292465360
-0.16270749 -0.064348526 0.55400002 4292597202
-0.16136034 -0.064231932 0.55299997 4292400337
-0.1603069 -0.0642315 0.55299997 4292334544
-0.1589655 -0.064114898 0.55199999 4291939534
-0.1576279 -0.063998282 0.551 4292202706
-0.15572582 -0.063649349 0.54799998 4292399054
-0.15439969 -0.06353271 0.54699999 4292530640
-0.15335779 -0.063532211 0.54699999 4292530642
-0.15231586 -0.063531689 0.54699999 4292596435
-0.151274 -0.063531168 0.54699999 4292596435
-0.15023214 -0.063530631 0.54699999 4292859607
-0.14919028 -0.063530073 0.54699999 4292728537
-0.14787763 -0.063413374 0.546 4292991708
-0.14683776 -0.0634128 0.546 4292400339
-0.14579791 -0.063412219 0.546 4292729048
-0.14475808 -0.063411616 0.546 4292400085
-0.14371827 -0.06341102 0.546 4292466134
-0.14267851 -0.063410409 0.546 4292597463
-0.14163882 -0.06340979 0.546 4292729050
-0.14034159 -0.063293032 0.54500002 4292925148
-0.13930383 -0.063292384 0.54500002 4293451492
-0.13801241 -0.063175611 0.54400003 4292400852
-0.13697664 -0.063174963 0.54400003 4292532439
-0.13594086 -0.0631743 0.54400003 4292927196
-0.13465716 -0.063057497 0.54299998 4293124576
-0.13362336 -0.063056812 0.54299998 4293254881
-0.13234545 -0.062940016 0.542 4293189088
-0.13131365 -0.062939323 0.542 4292925913
-0.13028191 -0.062938638 0.542 4292991706
-0.12925017 -0.06293793 0.542 4292794584
-0.12798193 -0.062821113 0.54100001 4293189085
-0.1269522 -0.062820397 0.54100001 4293255648
-0.12592252 -0.062819682 0.54100001 4293321441
-0.12489288 -0.062818974 0.54100001 4293451744
-0.12386325 -0.062818237 0.54100001 4293714659
-0.12283368 -0.062817506 0.54100001 4293780708
-0.12180415 -0.062816769 0.54100001 4293780708
-0.12077468 -0.062816031 0.54100001 4293518050
-0.11996658 -0.062931404 0.542 4293715686
-0.11893529 -0.062930651 0.542 4293978340
-0.1176865 -0.062813789 0.54100001 4293978340
-0.1166572 -0.062813036 0.54100001 4293978342
-0.11562793 -0.062812284 0.54100001 4293912293
-0.11459871 -0.062811516 0.54100001 4293386464
-0.11356955 -0.062810756 0.54100001 4293847015
-0.11254043 -0.062809996 0.54100001 4293649636
-0.11151137 -0.062809236 0.54100001 4294044394
-0.11048236 -0.062808469 0.54100001 4293650150
-0.10945336 -0.062807687 0.54100001 4293781992
-0.10842445 -0.062806919 0.54100001 4293584358
-0.1079911 -0.063154429 0.54400003 4293584358
-0.10715318 -0.063269742 0.54500002 4293453540
-0.10611677 -0.06326896 0.54500002 4293979885
-0.10508045 -0.063268185 0.54500002 4293848044
-0.10404415 -0.063267402 0.54500002 4293255907
-0.1030079 -0.06326662 0.54500002 4293583843
-0.10197171 -0.063265838 0.54500002 4294044394
-0.10093556 -0.063265063 0.54500002 4293715684
-0.099899471 -0.063264288 0.54500002 4294110441
-0.098863423 -0.063263506 0.54500002 4294110953
-0.097827435 -0.063262731 0.54500002 4294045159
-0.096969083 -0.063378029 0.546 4294176235
-0.096106984 -0.063493326 0.54699999 4294373357
-0.095067315 -0.063492544 0.54699999 4294373357
-0.094027735 -0.063491777 0.54699999 4294176235
-0.092988171 -0.063491002 0.54699999 4293846502
-0.091948673 -0.063490234 0.54699999 4294438639
-0.090909228 -0.063489467 0.54699999 4293979112
-0.09003412 -0.063604765 0.54799998 4294045161
-0.088992871 -0.063604005 0.54799998 4294045932
-0.087951675 -0.063603245 0.54799998 4294374640
-0.086910531 -0.063602485 0.54799998 4294242541
-0.086026125 -0.063717797 0.54900002 4294308334
-0.084983177 -0.063717045 0.54900002 4294570992
-0.083940275 -0.063716292 0.54900002 4294505199
-0.08289741 -0.063715547 0.54900002 4294110439
-0.082450986 -0.064179026 0.55299997 4294505197
-0.08140064 -0.064178281 0.55299997 4294176750
-0.080495648 -0.064293608 0.55400002 4294176750
-0.07944347 -0.064292863 0.55400002 4294374127
-0.07853286 -0.064408183 0.55500001 4294571506
-0.077897713 -0.064755619 0.55800003 4294635763
-0.076562688 -0.064522773 0.55599999 4294701556
-0.075506911 -0.064522065 0.55599999 4294438639
-0.074585088 -0.064637393 0.55699998 4294372846
-0.07352753 -0.064636685 0.55699998 4294373357
-0.072860338 -0.06498412 0.56 4294768115
-0.071797162 -0.064983398 0.56 4294571506
-0.070734031 -0.06498272 0.56 4294571506
-0.070293024 -0.065562218 0.565 4294505458
-0.069220498 -0.065561533 0.565 4294571252
-0.068148024 -0.065560855 0.565 4294637301
-0.067075588 -0.06556017 0.565 4294571252
-0.066003196 -0.065559506 0.565 4294636015
-0.064930841 -0.065558836 0.565 4294636015
-0.064536676 -0.06625437 0.57099998 4294636013
-0.063453034 -0.066253714 0.57099998 4294767856
-0.062369429 -0.066253066 0.57099998 4294636013
-0.061393209 -0.066368461 0.57200003 4294899442
-0.06030779 -0.06636782 0.57200003 4294636786
-0.059222419 -0.066367194 0.57200003 4294505199
-0.058137082 -0.066366576 0.57200003 4294439150
-0.17176838 -0.063528024 0.55599999 4292334546
-0.1707091 -0.063527726 0.55599999 4292267467
-0.16934472 -0.063413173 0.55500001 4292530640
-0.16828738 -0.063412845 0.55500001 4292136651
-0.16692872 -0.063298248 0.55400002 4292268238
-0.16587332 -0.063297905 0.55400002 4292268751
-0.1648179 -0.063297525 0.55400002 4292268751
-0.16376248 -0.06329713 0.55400002 4292334031
-0.16211969 -0.063068219 0.55199999 4292597202
-0.16106814 -0.063067809 0.55199999 4292531407
-0.16001657 -0.063067377 0.55199999 4292465614
-0.15867707 -0.06295269 0.551 4292268751
-0.15734138 -0.062837981 0.55000001 4292466130
-0.15572533 -0.062609002 0.54799998 4292334283
-0.1543992 -0.062494278 0.54699999 4292662991
-0.15335727 -0.062493794 0.54699999 4292597200
-0.15203689 -0.062379047 0.546 4292728786
-0.15099692 -0.062378533 0.546 4292466130
-0.15023158 -0.062492248 0.54699999 4292466130
-0.14918974 -0.062491711 0.54699999 4292532439
-0.14787708 -0.062376924 0.546 4292992989
-0.14683717 -0.062376365 0.546 4292794584
-0.14579733 -0.062375795 0.546 4292991706
-0.14475749 -0.062375221 0.546 4292596696
-0.14371771 -0.062374637 0.546 4292662745
-0.1426779 -0.062374033 0.546 4292597209
-0.14163819 -0.062373433 0.546 4292663259
-0.14034094 -0.062258571 0.54500002 4292991202
-0.13904759 -0.062143724 0.54400003 4293649389
-0.13775808 -0.062028859 0.54299998 4292466132
-0.13672414 -0.062028211 0.54299998 4292597461
-0.13569032 -0.062027577 0.54299998 4293058264
-0.1344085 -0.061912689 0.542 4293189851
-0.13337663 -0.06191203 0.542 4293189339
-0.13234478 -0.061911371 0.542 4293189339
-0.13131298 -0.061910693 0.542 4293189085
-0.13028122 -0.061910018 0.542 4293255135
-0.12924948 -0.061909333 0.542 4293057249
-0.12798123 -0.061794419 0.54100001 4293517800
-0.1269515 -0.061793722 0.54100001 4293386464
-0.1259218 -0.061793022 0.54100001 4293255135
-0.12489214 -0.061792322 0.54100001 4293255133
-0.12386251 -0.061791606 0.54100001 4293452255
-0.12283296 -0.061790902 0.54100001 4293518304
-0.12180342 -0.061790176 0.54100001 4293649890
-0.12077394 -0.061789453 0.54100001 4293584095
-0.11974449 -0.061788715 0.54100001 4293715682
-0.11893454 -0.061902203 0.542 4293715682
-0.11768575 -0.061787259 0.54100001 4293715682
-0.11665646 -0.061786529 0.54100001 4293912295
-0.11562719 -0.06178578 0.54100001 4294307053
-0.11459797 -0.061785042 0.54100001 4293847013
-0.11356881 -0.061784294 0.54100001 4294044648
-0.11253969 -0.061783552 0.54100001 4293847787
-0.1115106 -0.061782796 0.54100001 4293979116
-0.11048158 -0.061782043 0.54100001 4293846761
-0.10945261 -0.061781291 0.54100001 4294307312
-0.10862409 -0.061894733 0.542 4294044396
-0.10799035 -0.062122375 0.54400003 4293978603
-0.1069558 -0.062121607 0.54400003 4293716199
-0.1059213 -0.062120844 0.54400003 4294374129
-0.10507968 -0.062234279 0.54500002 4294045161
-0.10404339 -0.062233511 0.54500002 4293387232
-0.10300714 -0.062232748 0.54500002 4293649636
-0.10197093 -0.06223198 0.54500002 4294307566
-0.10074959 -0.062117029 0.54400003 4294044648
-0.099715412 -0.062116276 0.54400003 4294176235
-0.098862655 -0.062229693 0.54500002 4294176233
-0.097826667 -0.062228929 0.54500002 4293978853
-0.096968323 -0.062342353 0.546 4294045161
-0.096106224 -0.06245577 0.54699999 4294110955
-0.095066555 -0.062454998 0.54699999 4294176235
-0.093855068 -0.06234007 0.546 4294176235
-0.092817426 -0.062339317 0.546 4293715945
-0.091947928 -0.062452741 0.54699999 4294176496
-0.090908475 -0.062451985 0.54699999 4293979885
-0.090033352 -0.062565401 0.54799998 4293914091
-0.088992111 -0.062564649 0.54799998 4294045930
-0.087950923 -0.062563911 0.54799998 4294440688
-0.086909778 -0.062563166 0.54799998 4294308588
-0.086025372 -0.062676594 0.54900002 4294308588
-0.084982432 -0.062675864 0.54900002 4294308588
-0.083939523 -0.062675118 0.54900002 4294242795
-0.08289668 -0.062674388 0.54900002 4294242541
-0.082301162 -0.063016139 0.55199999 4294703092
-0.081399903 -0.063129574 0.55299997 4294176496
-0.080349594 -0.063128844 0.55299997 4294110703
-0.079442762 -0.063242294 0.55400002 4294374129
-0.078390643 -0.063241579 0.55400002 4294571252
-0.077757373 -0.063583307 0.55699998 4294307314
-0.076699674 -0.063582607 0.55699998 4294373107
-0.075642012 -0.063581899 0.55699998 4294175983
-0.074584395 -0.063581198 0.55699998 4294307312
-0.073526829 -0.063580498 0.55699998 4294637297
-0.072859645 -0.063922256 0.56 4294703090
-0.071796477 -0.063921571 0.56 4294571506
-0.071364902 -0.064491607 0.565 4294571506
-0.070292331 -0.064490922 0.565 4294571252
-0.069219813 -0.064490251 0.565 4294571252
-0.068147346 -0.064489581 0.565 4294504947
-0.067074917 -0.06448891 0.565 4294504947
-0.066002533 -0.064488254 0.565 4294439154
-0.064930193 -0.064487606 0.565 4294439154
-0.064536035 -0.065171786 0.57099998 4294308336
-0.063452378 -0.06517113 0.57099998 4294637301
-0.062368795 -0.065170504 0.57099998 4294570992
-0.061392568 -0.065283999 0.57200003 4294833908
-0.060307164 -0.065283388 0.57200003 4294570992
-0.059221804 -0.06528277 0.57200003 4294439150
-0.058136482 -0.065282166 0.57200003 4294570738
-0.1717681 -0.062472347 0.55599999 4291939788
-0.17070881 -0.062472064 0.55599999 4291872711
-0.16934441 -0.062359408 0.55500001 4292399056
-0.16828707 -0.062359098 0.55500001 4292070343
-0.1669284 -0.062246408 0.55400002 4292136136
-0.16587296 -0.062246069 0.55400002 4292136649
-0.16452001 -0.062133346 0.55299997 4292202442
-0.16346651 -0.062132969 0.55299997 4292004296
-0.1621193 -0.062020227 0.55199999 4292333260
-0.16106772 -0.062019829 0.55199999 4292136649
-0.16001613 -0.062019404 0.55199999 4292268235
-0.15867662 -0.061906625 0.551 4292005583
-0.15676875 -0.061569124 0.54799998 4292005583
-0.15572487 -0.061568674 0.54799998 4292004811
-0.15439872 -0.061455857 0.54699999 4292531155
-0.15335678 -0.061455388 0.54699999 4292268238
-0.1520364 -0.061342545 0.546 4292597202
-0.15099642 -0.061342049 0.546 4292204241
-0.15023106 -0.061453883 0.54699999 4292204241
-0.14891647 -0.061341014 0.546 4292467159
-0.14787653 -0.061340477 0.546 4292664538
-0.14683662 -0.061339937 0.546 4292662995
-0.14579676 -0.061339382 0.546 4292991704
-0.14475691 -0.061338823 0.546 4292990420
-0.14371713 -0.061338257 0.546 4292990420
-0.14267732 -0.061337668 0.546 4292728537
-0.14137818 -0.06122474 0.54500002 4292728537
-0.14034036 -0.061224133 0.54500002 4292729052
-0.139047 -0.061111193 0.54400003 4293057760
-0.13775742 -0.060998231 0.54299998 4292137681
-0.13672353 -0.060997613 0.54299998 4292664025
-0.13543977 -0.060884651 0.542 4293057753
-0.13440786 -0.060884021 0.542 4293123546
-0.13337596 -0.060883369 0.542 4292268497
-0.13234411 -0.060882729 0.542 4292926683
-0.13131231 -0.060882069 0.542 4293124059
-0.13028054 -0.06088141 0.542 4293124059
-0.12901035 -0.060768422 0.54100001 4292925659
-0.127744 -0.060655415 0.54000002 4293386210
-0.12671617 -0.060654745 0.54000002 4293386464
-0.12568834 -0.060654055 0.54000002 4293386464
-0.12466059 -0.06065337 0.54000002 4292991706
-0.12386181 -0.060764991 0.54100001 4293189085
-0.12283224 -0.06076429 0.54100001 4293189853
-0.12180272 -0.060763597 0.54100001 4293321439
-0.12077323 -0.060762886 0.54100001 4293255644
-0.11974378 -0.060762174 0.54100001 4293584608
-0.1189338 -0.060873769 0.542 4293452509
-0.11768503 -0.060760744 0.54100001 4293518302
-0.11665572 -0.060760025 0.54100001 4293649636
-0.11562645 -0.060759299 0.54100001 4293649636
-0.11459723 -0.060758568 0.54100001 4293518050
-0.11356808 -0.060757842 0.54100001 4293715686
-0.11253894 -0.060757115 0.54100001 4293518050
-0.11150987 -0.060756378 0.54100001 4293583843
-0.11048084 -0.06075564 0.54100001 4293451742
-0.10945186 -0.060754903 0.54100001 4293978342
-0.10862334 -0.060866468 0.542 4293846502
-0.10779107 -0.060978025 0.54299998 4293714659
-0.10675843 -0.060977276 0.54299998 4293582560
-0.10592055 -0.06108883 0.54400003 4294043111
-0.10488611 -0.061088078 0.54400003 4294109417
-0.10385173 -0.06108734 0.54400003 4293912295
-0.10300639 -0.06119889 0.54500002 4293451742
-0.10197019 -0.061198141 0.54500002 4293912293
-0.10074883 -0.061085101 0.54400003 4293912293
-0.099714659 -0.06108436 0.54400003 4293912293
-0.098861896 -0.061195899 0.54500002 4293847013
-0.097825922 -0.061195157 0.54500002 4293847013
-0.09696757 -0.061306693 0.546 4293583843
-0.096105464 -0.061418224 0.54699999 4293847015
-0.095065795 -0.061417479 0.54699999 4293650404
-0.093854308 -0.061304454 0.546 4293847783
-0.092816673 -0.061303724 0.546 4293322470
-0.091947176 -0.061415259 0.54699999 4293651435
-0.090907738 -0.061414525 0.54699999 4293783021
-0.089868337 -0.061413791 0.54699999 4293914607
-0.088828996 -0.061413057 0.54699999 4294110953
-0.087950185 -0.061524596 0.54799998 4294110953
-0.086909041 -0.061523866 0.54799998 4293716197
-0.085867941 -0.061523139 0.54799998 4294242541
-0.084826887 -0.061522413 0.54799998 4294177259
-0.083785892 -0.061521702 0.54799998 4293980137
-0.082895957 -0.061633259 0.54900002 4294177259
-0.082151346 -0.061857074 0.551 4294374894
-0.081104785 -0.061856356 0.551 4293914089
-0.080348887 -0.062080171 0.55299997 4293980139
-0.079442039 -0.062191732 0.55400002 4294308334
-0.078389935 -0.062191024 0.55400002 4294308334
-0.077756681 -0.062527098 0.55699998 4294110189
-0.076698966 -0.062526397 0.55699998 4294110189
-0.075777128 -0.06263797 0.55800003 4293978601
-0.074717611 -0.062637284 0.55800003 4294570738
-0.073658153 -0.062636599 0.55800003 4294768885
-0.072598755 -0.062635921 0.55800003 4294637299
-0.071795791 -0.062859744 0.56 4294439150
-0.071364217 -0.063420326 0.565 4294636786
-0.070291661 -0.063419648 0.565 4294637301
-0.06921915 -0.063418992 0.565 4294505458
-0.068146676 -0.063418336 0.565 4294439154
-0.067074269 -0.063417688 0.565 4294504947
-0.066001877 -0.063417032 0.565 4294307566
-0.064929552 -0.063416407 0.565 4294570738
-0.063857265 -0.063415766 0.565 4294505712
-0.063340634 -0.06397634 0.56999999 4294505712
-0.062258944 -0.063975729 0.56999999 4294308336
-0.061284617 -0.064087339 0.57099998 4294505458
-0.060306549 -0.064198971 0.57200003 4294505199
-0.059221193 -0.064198375 0.57200003 4294505199
-0.058135878 -0.064197779 0.57200003 4294571254
-0.057250079 -0.064421654 0.574 4294505460
-0.17207676 -0.061527133 0.55699998 4291873993
-0.17070854 -0.061416406 0.55599999 4291741643
-0.16964924 -0.061416119 0.55599999 4292530903
-0.16828676 -0.061305355 0.55500001 4292004548
-0.16692804 -0.06119458 0.55400002 4292004548
-0.1658726 -0.061194252 0.55400002 4291873995
-0.16451964 -0.06108344 0.55299997 4292268497
-0.16346611 -0.061083075 0.55299997 4292202955
-0.16211891 -0.060972244 0.55199999 4292268749
-0.16077554 -0.060861401 0.551 4292136399
-0.15972584 -0.060860991 0.551 4292465108
-0.15838821 -0.060750127 0.55000001 4292136912
-0.15676834 -0.060528792 0.54799998 4292268499
-0.15572441 -0.060528345 0.54799998 4292465110
-0.15439823 -0.06041744 0.54699999 4292794332
-0.1533563 -0.060416989 0.54699999 4292597202
-0.15231434 -0.060416512 0.54699999 4292794582
-0.15127246 -0.060416024 0.54699999 4292335057
-0.1499559 -0.060305078 0.546 4292335057
-0.14891593 -0.060304563 0.546 4292532690
-0.14787601 -0.060304049 0.546 4292795606
-0.14683609 -0.060303524 0.546 4292728535
-0.14579619 -0.06030298 0.546 4292728535
-0.14475635 -0.060302436 0.546 4292728018
-0.14371653 -0.060301878 0.546 4293254362
-0.14241543 -0.060190871 0.54500002 4292795097
-0.14137757 -0.060190294 0.54500002 4292729048
-0.14033978 -0.060189709 0.54500002 4292729048
-0.13904637 -0.060078684 0.54400003 4293123805
-0.13775682 -0.059967645 0.54299998 4292663257
-0.13672291 -0.059967026 0.54299998 4292860636
-0.13543917 -0.059855994 0.542 4293057751
-0.13440722 -0.059855368 0.542 4293189337
-0.13337533 -0.059854731 0.542 4292991706
-0.13209932 -0.059743676 0.54100001 4292991706
-0.13106939 -0.059743036 0.54100001 4293057751
-0.13003951 -0.059742391 0.54100001 4293057751
-0.12877122 -0.059631314 0.54000002 4293254108
-0.12774332 -0.059630651 0.54000002 4293320157
-0.12648083 -0.059519567 0.53899997 4293255133
-0.12545489 -0.059518889 0.53899997 4293452255
-0.1246599 -0.059628651 0.54000002 4293189085
-0.12363218 -0.059627973 0.54000002 4293189085
-0.12260452 -0.059627306 0.54000002 4293124057
-0.12157689 -0.059626617 0.54000002 4293255644
-0.12054929 -0.059625927 0.54000002 4293255644
-0.1199644 -0.059846058 0.542 4293584608
-0.1189331 -0.059845358 0.542 4293387486
-0.11790184 -0.059844654 0.542 4293387486
-0.11665501 -0.059733547 0.54100001 4293518304
-0.11562573 -0.059732832 0.54100001 4293584097
-0.11459652 -0.059732128 0.54100001 4293518050
-0.11356735 -0.05973142 0.54100001 4293715686
-0.11253822 -0.059730697 0.54100001 4293452255
-0.11150914 -0.059729975 0.54100001 4293912806
-0.11048011 -0.059729263 0.54100001 4293847267
-0.10965344 -0.059838939 0.542 4294110439
-0.1086226 -0.059838217 0.542 4293847013
-0.10779034 -0.059947897 0.54299998 4293912806
-0.10675769 -0.059947167 0.54299998 4293715686
-0.10591981 -0.060056839 0.54400003 4293847015
-0.10488537 -0.060056116 0.54400003 4294109417
-0.10385099 -0.060055386 0.54400003 4293978088
-0.10281664 -0.060054652 0.54400003 4293517791
-0.10178236 -0.060053926 0.54400003 4293912293
-0.10074811 -0.060053196 0.54400003 4293715686
-0.099713922 -0.060052462 0.54400003 4293649636
-0.098861165 -0.060162127 0.54500002 4293912293
-0.097825184 -0.060161397 0.54500002 4293978342
-0.096789233 -0.060160667 0.54500002 4293715432
-0.095929034 -0.060270324 0.546 4294110189
-0.09489128 -0.060269598 0.546 4293979112
-0.093853578 -0.060268868 0.546 4294110955
-0.092815943 -0.060268145 0.546 4293848298
-0.091778353 -0.06026743 0.546 4293979885
-0.090906993 -0.06037708 0.54699999 4293980398
-0.089867614 -0.060376368 0.54699999 4293914605
-0.088828273 -0.060375646 0.54699999 4294045161
-0.08794947 -0.060485307 0.54799998 4294045161
-0.086908333 -0.060484603 0.54799998 4294110953
-0.085867219 -0.060483877 0.54799998 4294374381
-0.084826186 -0.060483184 0.54799998 4294045930
-0.083785199 -0.060482472 0.54799998 4293980137
-0.082895257 -0.060592148 0.54900002 4294046184
-0.082150638 -0.060812186 0.551 4294374892
-0.0811041 -0.060811494 0.551 4294176998
-0.080057599 -0.060810801 0.551 4294308584
-0.079297945 -0.061030835 0.55299997 4294308588
-0.07838925 -0.061140519 0.55400002 4294308588
-0.07775598 -0.061470907 0.55699998 4294044907
-0.076698288 -0.061470229 0.55699998 4293979114
-0.07577645 -0.061579917 0.55800003 4293912806
-0.074850835 -0.061689593 0.55900002 4294570992
-0.073789477 -0.061688922 0.55900002 4294570990
-0.072858281 -0.061798614 0.56 4294307818
-0.071795136 -0.061797962 0.56 4294242543
-0.070984632 -0.062018003 0.56199998 4294637301
-0.070166595 -0.06223806 0.56400001 4294571506
-0.069095984 -0.062237412 0.56400001 4294242541
-0.068146028 -0.062347114 0.565 4294308338
-0.067073621 -0.062346481 0.565 4294374131
-0.066001251 -0.062345851 0.565 4294308336
-0.064928919 -0.062345222 0.565 4294637301
-0.064082682 -0.062565297 0.56699997 4294570990
-0.063340008 -0.062895708 0.56999999 4294636784
-0.062258337 -0.062895112 0.56999999 4294374129
-0.061284009 -0.063004836 0.57099998 4294374129
-0.060305949 -0.063114591 0.57200003 4294504945
-0.059324138 -0.063224345 0.57300001 4294504945
-0.058236931 -0.063223757 0.57300001 4294636534
-0.057249501 -0.063333511 0.574 4294636534
-0.17393015 -0.061120946 0.56300002 4291807946
-0.17132233 -0.060577866 0.55800003 4291544006
-0.16903871 -0.060143348 0.55400002 4292004557
-0.1679832 -0.060143046 0.55400002 4291806914
-0.16692773 -0.060142748 0.55400002 4292004550
-0.16587229 -0.060142435 0.55400002 4291479750
-0.16451928 -0.060033526 0.55299997 4292071888
-0.16346575 -0.06003318 0.55299997 4292138448
-0.16211854 -0.059924256 0.55199999 4292006606
-0.16077514 -0.059815325 0.551 4291741639
-0.15972544 -0.059814941 0.551 4292004811
-0.15838782 -0.059705984 0.55000001 4292004044
-0.15705396 -0.059597012 0.54900002 4292398802
-0.15572397 -0.059488028 0.54799998 4292268499
-0.1543978 -0.059379037 0.54699999 4292466134
-0.15335584 -0.059378587 0.54699999 4292202706
-0.15231389 -0.059378125 0.54699999 4292268499
-0.15127197 -0.059377655 0.54699999 4292202958
-0.14995542 -0.059268627 0.546 4292334544
-0.14891544 -0.059268128 0.546 4292335057
-0.14787549 -0.059267629 0.546 4292598486
-0.14656661 -0.05915856 0.54500002 4292597461
-0.14552864 -0.059158038 0.54500002 4292597461
-0.14449067 -0.059157509 0.54500002 4292267984
-0.14345276 -0.059156969 0.54500002 4292662741
-0.14241488 -0.059156422 0.54500002 4292334805
-0.14111762 -0.059047315 0.54400003 4292532441
-0.1400817 -0.059046753 0.54400003 4292532952
-0.13879021 -0.058937632 0.54299998 4292730587
-0.13750254 -0.058828514 0.542 4292466134
-0.13647053 -0.058827918 0.542 4292663257
-0.13543855 -0.058827322 0.542 4292859607
-0.1344066 -0.058826707 0.542 4293320157
-0.13337469 -0.0588261 0.542 4293189085
-0.1318545 -0.058608424 0.54000002 4293057499
-0.13082649 -0.058607802 0.54000002 4292926165
-0.12979852 -0.058607172 0.54000002 4293123544
-0.12877057 -0.058606539 0.54000002 4293386203
-0.12774268 -0.058605898 0.54000002 4293451996
-0.12648015 -0.058496721 0.53899997 4293319640
-0.12545426 -0.058496077 0.53899997 4293648605
-0.12442837 -0.05849541 0.53899997 4293386464
-0.12363152 -0.05860329 0.54000002 4293255135
-0.12260385 -0.058602627 0.54000002 4292993241
-0.12157619 -0.058601953 0.54000002 4293059035
-0.12054861 -0.058601283 0.54000002 4292861655
-0.11996373 -0.058817647 0.542 4292993241
-0.11893242 -0.058816966 0.542 4293058010
-0.11790115 -0.058816276 0.542 4293189853
-0.11686993 -0.058815584 0.542 4293058010
-0.11562503 -0.058706369 0.54100001 4293518561
-0.1145958 -0.058705688 0.54100001 4293583843
-0.11356664 -0.058704987 0.54100001 4293452257
-0.11232951 -0.058595788 0.54000002 4293123546
-0.11130232 -0.058595084 0.54000002 4293649890
-0.11047941 -0.058702897 0.54100001 4293453538
-0.10945042 -0.058702186 0.54100001 4293585381
-0.1086219 -0.058809981 0.542 4293256159
-0.10759111 -0.058809277 0.542 4293387745
-0.10656036 -0.058808569 0.542 4293912806
-0.10552968 -0.058807857 0.542 4293978599
-0.10469184 -0.058915645 0.54299998 4294109417
-0.10385027 -0.059023436 0.54400003 4294109417
-0.10281591 -0.059022721 0.54400003 4293714913
-0.10178161 -0.059022006 0.54400003 4293846500
-0.10074738 -0.059021294 0.54400003 4293649636
-0.099713191 -0.059020586 0.54400003 4293715686
-0.098860443 -0.059128363 0.54500002 4294109671
-0.097824447 -0.059127647 0.54500002 4294175464
-0.096788511 -0.059126936 0.54500002 4293714659
-0.095928311 -0.059234712 0.546 4293978088
-0.094890565 -0.059234001 0.546 4293913060
-0.093852878 -0.0592333 0.546 4293978853
-0.092815235 -0.059232585 0.546 4293847785
-0.091777638 -0.059231885 0.546 4293847785
-0.090906292 -0.059339661 0.54699999 4293782505
-0.089866906 -0.059338953 0.54699999 4293716712
-0.088827558 -0.059338257 0.54699999 4293255133
-0.087948754 -0.059446037 0.54799998 4294176235
-0.087066211 -0.059553821 0.54900002 4294176746
-0.086023226 -0.059553124 0.54900002 4294242795
-0.084980294 -0.059552439 0.54900002 4293782505
-0.083937407 -0.059551746 0.54900002 4293782505
-0.082894549 -0.05955106 0.54900002 4293716708
-0.08214996 -0.059767321 0.551 4294045930
-0.081103414 -0.059766643 0.551 4293914341
-0.080056921 -0.059765961 0.551 4293980135
-0.079297252 -0.059982214 0.55299997 4294176746
-0.078388564 -0.060090013 0.55400002 4294176746
-0.077336535 -0.060089353 0.55400002 4294176750
-0.076422222 -0.060197148 0.55500001 4294110701
-0.075639963 -0.060413409 0.55699998 4293847015
-0.074582368 -0.060412753 0.55699998 4293978601
-0.073656827 -0.06052056 0.55800003 4293847783
-0.072727531 -0.060628377 0.55900002 4294110955
-0.07166627 -0.060627725 0.55900002 4294177263
-0.070983984 -0.060952455 0.56199998 4294243056
-0.070165955 -0.061168738 0.56400001 4294242543
-0.069095351 -0.061168093 0.56400001 4294242543
-0.068145409 -0.061275922 0.565 4294308338
-0.067072995 -0.061275292 0.565 4294176496
-0.066000633 -0.061274685 0.565 4294110955
-0.064928308 -0.06127407 0.565 4294308334
-0.063969053 -0.06138191 0.56599998 4294307816
-0.063117176 -0.061598219 0.56800002 4294307816
-0.062366951 -0.061922953 0.57099998 4293912806
-0.061390758 -0.062030818 0.57200003 4294439150
-0.06041079 -0.062138665 0.57300001 4294308334
-0.059323557 -0.062138095 0.57300001 4294176748
-0.058337983 -0.062245961 0.574 4294307312
-0.057348669 -0.062353842 0.57499999 4294373361
-0.18024854 -0.060372964 0.56599998 4291940047
-0.17853709 -0.060159478 0.56400001 4292006096
-0.17714788 -0.06005263 0.56300002 4291807696
-0.17607521 -0.060052425 0.56300002 4292005331
-0.17500252 -0.060052209 0.56300002 4292070856
-0.17392987 -0.060051974 0.56300002 4291741891
-0.17132208 -0.059518415 0.55800003 4291741641
-0.17025892 -0.059518151 0.55800003 4292202192
-0.16798295 -0.059091218 0.55400002 4292136649
-0.16692744 -0.059090927 0.55400002 4292334029
-0.16557254 -0.058983944 0.55299997 4291874508
-0.16451895 -0.058983628 0.55299997 4292137681
-0.16346541 -0.058983292 0.55299997 4292137935
-0.16211817 -0.058876287 0.55199999 4292006092
-0.16106655 -0.058875918 0.55199999 4292004557
-0.15972506 -0.058768883 0.551 4292070606
-0.15838742 -0.058661837 0.55000001 4292267215
-0.15705356 -0.058554787 0.54900002 4292727766
-0.15572354 -0.058447711 0.54799998 4292400337
-0.15467964 -0.05844729 0.54799998 4292597715
-0.15335537 -0.058340199 0.54699999 4292267986
-0.15231343 -0.058339752 0.54699999 4292267986
-0.15127149 -0.058339294 0.54699999 4292333779
-0.1499549 -0.058232173 0.546 4292531157
-0.14891495 -0.0582317 0.546 4292466130
-0.14760417 -0.058124561 0.54500002 4292729302
-0.14656614 -0.058124062 0.54500002 4292662741
-0.14552815 -0.058123562 0.54500002 4292728535
-0.1444902 -0.058123045 0.54500002 4292531157
-0.14318901 -0.058015864 0.54400003 4292728537
-0.14215301 -0.058015328 0.54400003 4292597209
-0.14111707 -0.058014795 0.54400003 4292794845
-0.14008111 -0.058014233 0.54400003 4292795095
-0.13878962 -0.05790703 0.54299998 4292926681
-0.13750196 -0.05779982 0.542 4292794330
-0.13646995 -0.05779925 0.542 4292794330
-0.13543795 -0.057798669 0.542 4292728537
-0.134406 -0.05779808 0.542 4293189088
-0.13312803 -0.057690851 0.54100001 4293189088
-0.13185391 -0.057583626 0.54000002 4293254881
-0.13082586 -0.057583008 0.54000002 4293123544
-0.12979789 -0.057582397 0.54000002 4293189337
-0.12876995 -0.057581782 0.54000002 4293254360
-0.12774204 -0.057581153 0.54000002 4293714911
-0.12647952 -0.05747389 0.53899997 4293451996
-0.12545361 -0.057473257 0.53899997 4293649118
-0.12442774 -0.057472628 0.53899997 4293189085
-0.12363087 -0.057578616 0.54000002 4292925913
-0.12260319 -0.057577964 0.54000002 4292926165
-0.12157555 -0.057577319 0.54000002 4293518302
-0.12054794 -0.057576656 0.54000002 4293255131
-0.11974172 -0.057682626 0.54100001 4293189337
-0.11893173 -0.057788573 0.542 4293189339
-0.11790047 -0.057787906 0.542 4293584097
-0.11686925 -0.057787236 0.542 4293584095
-0.11562435 -0.057679944 0.54100001 4293913060
-0.11459513 -0.057679273 0.54100001 4293518304
-0.11356594 -0.057678588 0.54100001 4293452255
-0.11232881 -0.057571292 0.54000002 4293518304
-0.11130162 -0.05757061 0.54000002 4293584097
-0.11027449 -0.057569921 0.54000002 4293387745
-0.10944971 -0.057675853 0.54100001 4293585381
-0.10862119 -0.057781763 0.542 4293387486
-0.1075904 -0.057781078 0.542 4293321693
-0.10655966 -0.057780385 0.542 4293387747
-0.10552899 -0.057779696 0.542 4293848298
-0.10469114 -0.057885598 0.54299998 4293716199
-0.10384955 -0.05799152 0.54400003 4293716199
-0.10281523 -0.057990823 0.54400003 4293715686
-0.10178094 -0.05799013 0.54400003 4293912808
-0.10074668 -0.057989426 0.54400003 4293715686
-0.099712491 -0.057988729 0.54400003 4293715686
-0.098859757 -0.058094636 0.54500002 4293847013
-0.098003231 -0.058200516 0.546 4294307564
-0.096965402 -0.058199827 0.546 4293715684
-0.095927611 -0.05819913 0.546 4293715684
-0.094889864 -0.058198445 0.546 4293846754
-0.09385217 -0.058197744 0.546 4293978340
-0.092814542 -0.058197055 0.546 4293781992
-0.091776945 -0.058196366 0.546 4293716199
-0.090905599 -0.058302268 0.54699999 4293716458
-0.089866221 -0.058301575 0.54699999 4293979887
-0.08898925 -0.058407474 0.54799998 4293914343
-0.087948076 -0.058406793 0.54799998 4294045930
-0.087065525 -0.058512691 0.54900002 4294176746
-0.086022533 -0.058512017 0.54900002 4294308588
-0.084979609 -0.058511339 0.54900002 4294176496
-0.083936721 -0.058510661 0.54900002 4294110703
-0.082893886 -0.058509998 0.54900002 4293782505
-0.082149267 -0.058722466 0.551 4294243056
-0.081102736 -0.058721807 0.551 4293914595
-0.080201536 -0.058827713 0.55199999 4293914595
-0.079296589 -0.058933627 0.55299997 4294110953
-0.078387916 -0.059039548 0.55400002 4294176746
-0.077335857 -0.059038892 0.55400002 4294110955
-0.076283872 -0.059038244 0.55400002 4294176748
-0.075503521 -0.059250735 0.55599999 4293912808
-0.074581727 -0.059356656 0.55699998 4293847015
-0.073656186 -0.059462585 0.55800003 4293847787
-0.07272689 -0.059568513 0.55900002 4294571254
-0.071665637 -0.05956788 0.55900002 4294439404
-0.070983358 -0.059886936 0.56199998 4294439404
-0.070165329 -0.060099434 0.56400001 4294373357
-0.069094732 -0.060098819 0.56400001 4294307564
-0.068144783 -0.060204752 0.565 4294176750
-0.067072369 -0.060204137 0.565 4294110701
-0.066000015 -0.060203537 0.565 4294176235
-0.064927712 -0.060202949 0.565 4294373357
-0.063968457 -0.060308907 0.56599998 4294176485
-0.06311658 -0.060521428 0.56800002 4294307814
-0.06236637 -0.060840495 0.57099998 4294373611
-0.061390173 -0.060946472 0.57200003 4294834162
-0.060410216 -0.061052449 0.57300001 4294242795
-0.059426513 -0.06115843 0.574 4294045159
-0.058439054 -0.061264411 0.57499999 4294110703
-0.057348114 -0.061263859 0.57499999 4294176496
-0.056355041 -0.061369855 0.57599998 4294242543
-0.18100645 -0.059193619 0.565 4291611339
-0.17992996 -0.059193488 0.565 4291743436
-0.17853695 -0.059088573 0.56400001 4291809485
-0.17714769 -0.058983628 0.56300002 4291347145
-0.176075 -0.058983438 0.56300002 4291544780
-0.17500234 -0.058983237 0.56300002 4291806662
-0.17392966 -0.05898302 0.56300002 4291872711
-0.17132181 -0.058458947 0.55800003 4291741641
-0.17025866 -0.058458701 0.55800003 4292070606
-0.16919553 -0.058458433 0.55800003 4292006094
-0.16692717 -0.058039103 0.55400002 4292071888
-0.16557223 -0.057934035 0.55299997 4291742407
-0.16451865 -0.057933725 0.55299997 4291939786
-0.16346508 -0.057933401 0.55299997 4291742407
-0.16211782 -0.057828307 0.55199999 4292005579
-0.16106619 -0.057827953 0.55199999 4292136651
-0.15972468 -0.057722837 0.551 4292136651
-0.15838702 -0.057617705 0.55000001 4292136912
-0.15705317 -0.057512559 0.54900002 4292400085
-0.15572314 -0.057407398 0.54799998 4291940301
-0.15467922 -0.057406992 0.54799998 4292071888
-0.15335497 -0.057301812 0.54699999 4292135886
-0.15231298 -0.057301383 0.54699999 4292464595
-0.15127103 -0.05730094 0.54699999 4292267984
-0.14995447 -0.057195738 0.546 4292334033
-0.14864175 -0.057090517 0.54500002 4292268235
-0.14733285 -0.056985293 0.54400003 4292465614
-0.14629669 -0.056984808 0.54400003 4292004298
-0.14526062 -0.056984328 0.54400003 4292596435
-0.14422452 -0.056983821 0.54400003 4292531157
-0.14318849 -0.056983311 0.54400003 4292596950
-0.14189115 -0.056878045 0.54299998 4292334292
-0.1408571 -0.056877516 0.54299998 4292597463
-0.13982306 -0.056876983 0.54299998 4292465360
-0.13853346 -0.056771692 0.542 4292794582
-0.1375014 -0.056771148 0.542 4292925913
-0.13646939 -0.056770589 0.542 4292794584
-0.13543738 -0.056770027 0.542 4292596948
-0.13415745 -0.056664713 0.54100001 4292794584
-0.13312744 -0.056664135 0.54100001 4292663257
-0.1318533 -0.056558814 0.54000002 4292926685
-0.13058299 -0.056453485 0.53899997 4292925913
-0.12955691 -0.056452889 0.53899997 4292662741
-0.12876934 -0.056557033 0.54000002 4292727764
-0.12750484 -0.056451686 0.53899997 4293188315
-0.1264789 -0.056451075 0.53899997 4292794580
-0.12545298 -0.05645046 0.53899997 4293057751
-0.12442712 -0.056449842 0.53899997 4292991193
-0.12340127 -0.056449216 0.53899997 4293056986
-0.12260255 -0.056553323 0.54000002 4293057238
-0.12157489 -0.056552682 0.54000002 4293517789
-0.12054729 -0.056552049 0.54000002 4293452509
-0.11951973 -0.056551408 0.54000002 4293386716
-0.11893108 -0.056760207 0.542 4293123292
-0.11789981 -0.056759551 0.542 4293189085
-0.11686859 -0.056758896 0.542 4293254360
-0.1156237 -0.056653518 0.54100001 4293451996
-0.11459444 -0.056652859 0.54100001 4293057753
-0.11335536 -0.056547478 0.54000002 4293386462
-0.11232813 -0.056546818 0.54000002 4293584095
-0.11130095 -0.056546144 0.54000002 4293584095
-0.11027382 -0.056545485 0.54000002 4293387747
-0.10944903 -0.056649525 0.54100001 4293585127
-0.10862051 -0.056753568 0.542 4293453792
-0.10758971 -0.056752887 0.542 4293387999
-0.10655898 -0.056752216 0.542 4293059296
-0.10552829 -0.056751542 0.542 4293191138
-0.10469046 -0.056855578 0.54299998 4293519334
-0.10384887 -0.056959599 0.54400003 4293585127
-0.10300352 -0.057063621 0.54500002 4293650152
-0.10178024 -0.056958247 0.54400003 4293715945
-0.10074599 -0.056957558 0.54400003 4293518563
-0.099895082 -0.057061583 0.54500002 4293584356
-0.098859049 -0.057060901 0.54500002 4293255648
-0.097823061 -0.057060223 0.54500002 4293584356
-0.096787117 -0.057059545 0.54500002 4293518050
-0.095751241 -0.057058867 0.54500002 4293583843
-0.094715387 -0.057058189 0.54500002 4293714398
-0.093679607 -0.057057522 0.54500002 4293977570
-0.092813842 -0.057161529 0.546 4293518050
-0.091776259 -0.057160858 0.546 4293583843
-0.090738721 -0.057160184 0.546 4293322470
-0.089865521 -0.057264201 0.54699999 4293914607
-0.08898858 -0.057368226 0.54799998 4293980650
-0.088107899 -0.057472248 0.54900002 4293717478
-0.087064862 -0.057471581 0.54900002 4293848037
-0.086021885 -0.057470921 0.54900002 4294242795
-0.084978946 -0.057470262 0.54900002 4293914091
-0.084088944 -0.057574276 0.55000001 4293716712
-0.083044209 -0.057573624 0.55000001 4293387747
-0.082297698 -0.057782322 0.55199999 4293914091
-0.081249267 -0.057781674 0.55199999 4293980137
-0.080346182 -0.057885706 0.55299997 4293980137
-0.079439342 -0.057989739 0.55400002 4293716195
-0.07838726 -0.057989094 0.55400002 4294045159
-0.077335231 -0.057988454 0.55400002 4294110441
-0.076283239 -0.057987824 0.55400002 4294176235
-0.07550288 -0.05819653 0.55599999 4294109417
-0.074581087 -0.058300566 0.55699998 4293912295
-0.073655553 -0.058404624 0.55800003 4293912808
-0.072726265 -0.058508672 0.55900002 4293912808
-0.071665026 -0.05850805 0.55900002 4294043365
-0.071109042 -0.058926098 0.56300002 4294240744
-0.070164703 -0.059030153 0.56400001 4293978342
-0.069094107 -0.059029542 0.56400001 4294241257
-0.06814418 -0.059133608 0.565 4294110701
-0.067071781 -0.059133008 0.565 4294176750
-0.065999433 -0.059132423 0.565 4294176748
-0.064927123 -0.059131838 0.565 4294110955
-0.064080894 -0.059340578 0.56699997 4293979366
-0.063115999 -0.059444658 0.56800002 4294110953
-0.062256575 -0.059653398 0.56999999 4294373611
-0.061282277 -0.05975749 0.57099998 4294373611
-0.060409654 -0.059966236 0.57300001 4293979112
-0.059425958 -0.060070336 0.574 4293781990
-0.058438502 -0.060174439 0.57499999 4294044909
-0.057347573 -0.060173899 0.57499999 4294110703
-0.056354504 -0.06027801 0.57599998 4294110701
-0.18100631 -0.058120783 0.565 4292270036
-0.17992982 -0.058120664 0.565 4292270286
-0.17853679 -0.058017652 0.56400001 4292336079
-0.17714751 -0.05791463 0.56300002 4291676109
-0.17576207 -0.057811581 0.56199998 4291873489
-0.17469127 -0.057811391 0.56199998 4291873995
-0.17300262 -0.057605438 0.56 4292005581
-0.17132159 -0.057399493 0.55800003 4291873995
-0.16995329 -0.057296384 0.55699998 4291742153
-0.16828561 -0.057090405 0.55500001 4292136912
-0.16692686 -0.056987263 0.55400002 4292268499
-0.16587135 -0.056986991 0.55400002 4291873995
-0.16451834 -0.056883819 0.55299997 4292268497
-0.16346477 -0.056883514 0.55299997 4291939786
-0.16211748 -0.056780335 0.55199999 4292005579
-0.16077407 -0.05667714 0.551 4292267717
-0.15972434 -0.056676794 0.551 4292136388
-0.15838665 -0.056573573 0.55000001 4292136397
-0.15705279 -0.056470342 0.54900002 4292662741
-0.15600695 -0.056469951 0.54900002 4291940047
-0.15467882 -0.056366697 0.54799998 4291940047
-0.15335454 -0.056263432 0.54699999 4291939538
-0.15203409 -0.056160159 0.546 4292400089
-0.15099405 -0.056159731 0.546 4292465360
-0.14967939 -0.056056451 0.54500002 4292465360
-0.14864126 -0.056055997 0.54500002 4292465612
-0.14733237 -0.055952683 0.54400003 4292729040
-0.14629623 -0.055952221 0.54400003 4292465108
-0.14526011 -0.055951741 0.54400003 4292596950
-0.1439589 -0.055848405 0.54299998 4292596950
-0.14292479 -0.055847917 0.54299998 4292728537
-0.14189065 -0.055847414 0.54299998 4292400087
-0.14059718 -0.055744052 0.542 4292729052
-0.13956501 -0.05574353 0.542 4292728786
-0.13853294 -0.055743005 0.542 4292794580
-0.13724717 -0.055639632 0.54100001 4292794582
-0.13596524 -0.055536244 0.54000002 4292794582
-0.13493706 -0.0555357 0.54000002 4292596950
-0.13390891 -0.055535156 0.54000002 4292662743
-0.13288079 -0.055534586 0.54000002 4292794584
-0.13185272 -0.055534028 0.54000002 4292991706
-0.13058242 -0.055430613 0.53899997 4292662743
-0.12955631 -0.055430032 0.53899997 4292596950
-0.12876874 -0.055532292 0.54000002 4292662743
-0.12750426 -0.055428863 0.53899997 4293189088
-0.1264783 -0.05542827 0.53899997 4293189337
-0.12521963 -0.055324834 0.53799999 4293057751
-0.12419564 -0.055324234 0.53799999 4293056986
-0.12340065 -0.055426456 0.53899997 4293254108
-0.12237487 -0.055425853 0.53899997 4293254360
-0.12157426 -0.055528067 0.54000002 4293451996
-0.12054666 -0.055527449 0.54000002 4293386716
-0.11951909 -0.055526819 0.54000002 4293452509
-0.11871099 -0.055629008 0.54100001 4293123292
-0.11768165 -0.055628382 0.54100001 4293123292
-0.11686794 -0.05573057 0.542 4293123292
-0.11562303 -0.055627104 0.54100001 4293452257
-0.1145938 -0.055626459 0.54100001 4293386716
-0.11335471 -0.055523001 0.54000002 4293386716
-0.11232748 -0.055522356 0.54000002 4293584095
-0.1113003 -0.055521704 0.54000002 4293584095
-0.11027315 -0.055521052 0.54000002 4293518563
-0.10944839 -0.055623222 0.54100001 4293716199
-0.10841946 -0.05562257 0.54100001 4293650402
-0.10758905 -0.055724729 0.542 4293848037
-0.10636172 -0.055621251 0.54100001 4293321954
-0.10533292 -0.055620596 0.54100001 4293321954
-0.10430419 -0.05561994 0.54100001 4293453540
-0.1034664 -0.055722084 0.542 4293782505
-0.10281385 -0.055927042 0.54400003 4293585129
-0.10177957 -0.055926386 0.54400003 4293519336
-0.10074531 -0.055925719 0.54400003 4293649636
-0.099711142 -0.055925068 0.54400003 4294044394
-0.098858371 -0.056027196 0.54500002 4293649636
-0.097822405 -0.056026537 0.54500002 4293912808
-0.096786454 -0.056025874 0.54500002 4293714913
-0.09575057 -0.056025211 0.54500002 4293780706
-0.094714724 -0.056024555 0.54500002 4293715686
-0.093678944 -0.056023896 0.54500002 4293912808
-0.092813186 -0.056126032 0.546 4293847013
-0.091775604 -0.056125373 0.546 4294110441
-0.090738066 -0.056124717 0.546 4293914089
-0.089864865 -0.056226857 0.54699999 4294440690
-0.088987917 -0.05632899 0.54799998 4294110953
-0.087946728 -0.056328341 0.54799998 4293979366
-0.087064207 -0.056430485 0.54900002 4294044646
-0.086021222 -0.056429841 0.54900002 4294570990
-0.085133076 -0.056531984 0.55000001 4294044646
-0.084088288 -0.05653134 0.55000001 4293847267
-0.083043568 -0.056530699 0.55000001 4293387749
-0.082297049 -0.05673562 0.55199999 4293782251
-0.081248626 -0.056734987 0.55199999 4294110953
-0.080345534 -0.056837138 0.55299997 4294176746
-0.079438716 -0.056939293 0.55400002 4293979366
-0.078386627 -0.056938671 0.55400002 4294176746
-0.077334605 -0.056938045 0.55400002 4293978599
-0.076282613 -0.056937423 0.55400002 4293978599
-0.075502247 -0.057142358 0.55599999 4293978599
-0.074580476 -0.057244509 0.55699998 4294373357
-0.073654942 -0.057346683 0.55800003 4293912808
-0.072725669 -0.057448853 0.55900002 4293847015
-0.071664415 -0.057448242 0.55900002 4293978088
-0.070603229 -0.05744765 0.55900002 4294241259
-0.070164107 -0.057960894 0.56400001 4294044648
-0.069093525 -0.057960302 0.56400001 4294110441
-0.068143591 -0.058062483 0.565 4294110955
-0.067071199 -0.058061901 0.565 4294176748
-0.065998845 -0.058061317 0.565 4294110955
-0.064926542 -0.058060747 0.565 4294110955
-0.06408032 -0.058265712 0.56699997 4293979112
-0.063115433 -0.058367915 0.56800002 4293979112
-0.062256012 -0.058572877 0.56999999 4294110953
-0.061281718 -0.058675084 0.57099998 4294045159
-0.060409099 -0.05888005 0.57300001 4293912808
-0.059425414 -0.058982268 0.574 4293847015
-0.058437966 -0.059084482 0.57499999 4293979114
-0.057347033 -0.059083957 0.57499999 4294308336
-0.056353983 -0.059186187 0.57599998 4294176235
-0.055261228 -0.059185665 0.57599998 4294176235
-0.17992972 -0.057047851 0.565 4291612102
-0.17853661 -0.056946743 0.56400001 4291875530
-0.17714736 -0.056845624 0.56300002 4291478983
-0.17576188 -0.056744494 0.56199998 4291873741
-0.17469108 -0.056744318 0.56199998 4291677132
-0.17300241 -0.056542177 0.56 4291677132
-0.17132136 -0.056340039 0.55800003 4291742925
-0.16995305 -0.056238845 0.55699998 4291742925
-0.16828537 -0.056036666 0.55500001 4291939534
-0.16692659 -0.05593545 0.55400002 4291939534
-0.16587108 -0.055935185 0.55400002 4291545543
-0.16481556 -0.055934899 0.55400002 4292006094
-0.16346446 -0.055833638 0.55299997 4291874506
-0.16211718 -0.055732369 0.55199999 4292006092
-0.16077374 -0.055631079 0.551 4292202442
-0.15914422 -0.055428822 0.54900002 4292202442
-0.15809833 -0.055428479 0.54900002 4292135886
-0.15705243 -0.055428129 0.54900002 4292398802
-0.15572236 -0.05532679 0.54799998 4291414473
-0.15467843 -0.055326417 0.54799998 4291414473
-0.15335415 -0.055225067 0.54699999 4291611598
-0.15203369 -0.055123702 0.546 4292072149
-0.15099363 -0.055123292 0.546 4292203728
-0.14967893 -0.055021912 0.54500002 4292203728
-0.14864084 -0.05502148 0.54500002 4292465614
-0.14733194 -0.054920092 0.54400003 4292531407
-0.14602682 -0.054818682 0.54299998 4292597202
-0.14499262 -0.054818217 0.54299998 4292531153
-0.14395843 -0.054817755 0.54299998 4292267986
-0.14292431 -0.054817278 0.54299998 4292465108
-0.14189017 -0.054816794 0.54299998 4292202192
-0.14059667 -0.054715343 0.542 4292728537
-0.1395645 -0.054714844 0.542 4292794580
-0.13853239 -0.054714341 0.542 4292926165
-0.13724665 -0.054612875 0.54100001 4292794582
-0.13596472 -0.054511406 0.54000002 4292794582
-0.13493653 -0.054510884 0.54000002 4292465362
-0.13390836 -0.05451034 0.54000002 4292728535
-0.13288024 -0.054509792 0.54000002 4292860890
-0.13185216 -0.054509252 0.54000002 4292795097
-0.13058184 -0.054407749 0.53899997 4292597202
-0.12955575 -0.054407191 0.53899997 4292662995
-0.12876816 -0.054507568 0.54000002 4292662741
-0.12750368 -0.054406054 0.53899997 4293057499
-0.12647772 -0.054405481 0.53899997 4293189337
-0.12521903 -0.054303963 0.53799999 4293123544
-0.12419505 -0.054303374 0.53799999 4293254108
-0.12340005 -0.054403715 0.53899997 4293254108
-0.12237426 -0.054403126 0.53899997 4292991704
-0.12157365 -0.054503459 0.54000002 4292991704
-0.12054605 -0.05450286 0.54000002 4292991704
-0.11951848 -0.054502249 0.54000002 4292991704
-0.11871039 -0.054602571 0.54100001 4292860636
-0.11768101 -0.054601949 0.54100001 4293123808
-0.1168673 -0.05470226 0.542 4293386716
-0.11562239 -0.054600708 0.54100001 4293518302
-0.11459316 -0.054600086 0.54100001 4293452509
-0.11335407 -0.054498542 0.54000002 4293386716
-0.11232684 -0.054497913 0.54000002 4293386716
-0.11129965 -0.054497276 0.54000002 4293255131
-0.1102725 -0.054496642 0.54000002 4293123292
-0.10924543 -0.054496009 0.54000002 4293189085
-0.1084188 -0.054596297 0.54100001 4293057753
-0.10758841 -0.054696571 0.542 4293452255
-0.10636107 -0.05459502 0.54100001 4293321954
-0.10533229 -0.054594383 0.54100001 4293321954
-0.10430354 -0.054593738 0.54100001 4293189599
-0.10346573 -0.054694004 0.542 4293387234
-0.10262419 -0.054794274 0.54299998 4293585127
-0.10177891 -0.05489454 0.54400003 4293387747
-0.10074466 -0.0548939 0.54400003 4293255133
-0.099710479 -0.054893255 0.54400003 4293452255
-0.098676339 -0.054892611 0.54400003 4293648092
-0.097821742 -0.054992866 0.54500002 4293977056
-0.096785806 -0.054992225 0.54500002 4293714398
-0.095749922 -0.054991584 0.54500002 4293846240
-0.094714068 -0.054990932 0.54500002 4293715432
-0.093678288 -0.054990299 0.54500002 4293715432
-0.092812531 -0.05509055 0.546 4293715686
-0.091774948 -0.05508991 0.546 4293649636
-0.090737417 -0.055089273 0.546 4293518050
-0.089864232 -0.055189528 0.54699999 4293715686
-0.088987269 -0.055289786 0.54799998 4293649888
-0.087946095 -0.055289153 0.54799998 4293715682
-0.087063558 -0.055389419 0.54900002 4293780704
-0.086020596 -0.055388793 0.54900002 4294175462
-0.085132442 -0.055489048 0.55000001 4293584610
-0.084240541 -0.055589303 0.551 4293584610
-0.083344914 -0.05568957 0.55199999 4293518563
-0.082445517 -0.055789832 0.55299997 4293650150
-0.081395186 -0.05578921 0.55299997 4293715682
-0.080490217 -0.055889491 0.55400002 4294044646
-0.07943809 -0.055888861 0.55400002 4293913060
-0.078386016 -0.055888254 0.55400002 4293847267
-0.077333979 -0.055887651 0.55400002 4293912293
