# .PCD v0.7 - Point Cloud Data file format
VERSION 0.7
FIELDS x y z rgba
SIZE 4 4 4 4
TYPE F F F U
COUNT 1 1 1 1
WIDTH 1065
HEIGHT 1
VIEWPOINT 0 0 0 1 0 0 0
POINTS 1065
DATA ascii
0.20882569 -0.027734986 0.69 4292664792
0.2101393 -0.027734539 0.69 4292795606
0.2117594 -0.02777428 0.69099998 4292927448
0.21307497 -0.027773814 0.69099998 4292795608
0.2143905 -0.027773339 0.69099998 4292795608
0.21633036 -0.027853232 0.69300002 4292795606
0.21764974 -0.027852733 0.69300002 4292795606
0.22023299 -0.028012987 0.69700003 4292664790
0.22187783 -0.028052647 0.69800001 4292730583
0.22320668 -0.028052108 0.69800001 4292664792
0.2255006 -0.02817212 0.70099998 4292664792
0.22748233 -0.028251933 0.70300001 4292598745
0.22914621 -0.028291538 0.704 4292664538
0.23146862 -0.028411508 0.70700002 4292795610
0.23281461 -0.028410902 0.70700002 4292795610
0.23449174 -0.028450469 0.708 4292664538
0.23650575 -0.028530199 0.70999998 4292664538
0.23785734 -0.028529549 0.70999998 4292467159
0.23954584 -0.028569072 0.71100003 4292467159
0.24157691 -0.028648753 0.713 4293058012
0.24327487 -0.028688241 0.71399999 4293650150
0.24463394 -0.028687531 0.71399999 4292727755
0.24599302 -0.028686812 0.71399999 4280095499
0.24735202 -0.028686076 0.71399999 4278190080
0.25142881 -0.028683783 0.71399999 4278650381
0.25278768 -0.02868299 0.71399999 4278650381
0.10562827 -0.028318031 0.73900002 4291346865
0.10703091 -0.02831801 0.73900002 4291150002
0.10799339 -0.028203031 0.736 4291216051
0.10909322 -0.028126368 0.73400003 4291150002
0.10958337 -0.027896428 0.72799999 4291150002
0.11081293 -0.027858082 0.727 4291150002
0.11188444 -0.027781416 0.72500002 4291150002
0.11279221 -0.027666433 0.722 4291215538
0.11384676 -0.027589764 0.72000003 4291346867
0.11505377 -0.027551407 0.71899998 4291346867
0.11641899 -0.027551368 0.71899998 4291346867
0.11745664 -0.0274747 0.71700001 4291478703
0.11865247 -0.027436338 0.71600002 4291544497
0.11967695 -0.027359653 0.71399999 4291478451
0.12052435 -0.027244654 0.71100003 4291478451
0.12187469 -0.027244605 0.71100003 4291347637
0.12183858 -0.026938004 0.70300001 4291347637
0.12264821 -0.026822997 0.69999999 4291478969
0.12397783 -0.026822945 0.69999999 4291478969
0.12494949 -0.026746249 0.69800001 4291610040
0.12627545 -0.026746189 0.69800001 4291610040
0.12741864 -0.026707806 0.69700003 4291544249
0.1287428 -0.026707741 0.69700003 4291610042
0.13006704 -0.026707672 0.69700003 4291873463
0.13139132 -0.026707599 0.69700003 4292070843
0.13252525 -0.026669201 0.69599998 4292005052
0.13384777 -0.026669122 0.69599998 4291873209
0.13517034 -0.026669042 0.69599998 4291807934
0.13649297 -0.026668955 0.69599998 4291939520
0.13781565 -0.026668863 0.69599998 4292070845
0.13913842 -0.02666877 0.69599998 4292136638
0.14005759 -0.026592037 0.69400001 4292136636
0.14137667 -0.026591936 0.69400001 4292267965
0.14207898 -0.026476881 0.69099998 4292267967
0.14339246 -0.026476771 0.69099998 4292070845
0.14470598 -0.026476653 0.69099998 4292267969
0.14601961 -0.026476538 0.69099998 4292267969
0.14712006 -0.026438102 0.69 4292070854
0.14843185 -0.02643797 0.69 4292005061
0.14974374 -0.026437839 0.69 4292268739
0.15061784 -0.026361076 0.68800002 4292465862
0.15192601 -0.026360933 0.68800002 4292334535
0.15323424 -0.026360786 0.68800002 4292334535
0.15454255 -0.02636064 0.68800002 4292597702
0.1558509 -0.026360484 0.68800002 4292597702
0.15693088 -0.026322003 0.68699998 4292597702
0.15823741 -0.026321838 0.68699998 4292597702
0.15954404 -0.026321668 0.68699998 4292531657
0.16061656 -0.026283177 0.68599999 4292202692
0.1614493 -0.026206367 0.68400002 4292334283
0.16251242 -0.02616787 0.68300003 4292531405
0.16381164 -0.026167676 0.68300003 4292465864
0.16511092 -0.026167478 0.68300003 4292465864
0.16665384 -0.026205581 0.68400002 4292597450
0.1679551 -0.026205372 0.68400002 4292663243
0.1692564 -0.026205154 0.68400002 4292466634
0.17030843 -0.026166622 0.68300003 4292400841
0.17160791 -0.026166389 0.68300003 4292400589
0.17316063 -0.026204465 0.68400002 4292729554
0.17446208 -0.026204223 0.68400002 4292598736
0.17576361 -0.026203968 0.68400002 4292598736
0.17706518 -0.026203709 0.68400002 4292532690
0.17836678 -0.026203446 0.68400002 4292861655
0.17966847 -0.026203174 0.68400002 4292664277
0.18149927 -0.026279509 0.68599999 4292795606
0.18280481 -0.026279222 0.68599999 4292664529
0.18411039 -0.026278928 0.68599999 4292861651
0.18541603 -0.026278628 0.68599999 4292532690
0.18672164 -0.026278315 0.68599999 4292532690
0.18830141 -0.026316304 0.68699998 4292532690
0.18960901 -0.026315972 0.68699998 4292532690
0.19091664 -0.026315637 0.68699998 4292598484
0.19222434 -0.026315298 0.68699998 4292664277
0.19353202 -0.026314946 0.68699998 4292795860
0.19483975 -0.026314581 0.68699998 4292861653
0.19643302 -0.026352517 0.68800002 4292795860
0.19774272 -0.026352141 0.68800002 4292598482
0.19905241 -0.026351754 0.68800002 4292664279
0.20036212 -0.026351351 0.68800002 4292795608
0.2016719 -0.026350949 0.68800002 4292664279
0.20357169 -0.026427131 0.69 4292664279
0.20488529 -0.026426705 0.69 4292598999
0.20619889 -0.026426267 0.69 4292598999
0.20781325 -0.026464123 0.69099998 4292598999
0.20882614 -0.026425367 0.69 4292598999
0.21013977 -0.0264249 0.69 4292795606
0.2117599 -0.026462723 0.69099998 4292795606
0.2130754 -0.026462231 0.69099998 4292795608
0.21501151 -0.026538325 0.69300002 4292664279
0.2163309 -0.026537819 0.69300002 4292861142
0.21765028 -0.026537295 0.69300002 4292861142
0.21991754 -0.026651641 0.69599998 4292861142
0.22156048 -0.026689384 0.69700003 4292926935
0.22384682 -0.026803702 0.69999999 4292664790
0.22614457 -0.026918 0.70300001 4292598997
0.22748294 -0.026917411 0.70300001 4292664792
0.23012331 -0.027069971 0.70700002 4292730585
0.23179667 -0.027107643 0.708 4292664792
0.23314449 -0.027107013 0.708 4292598999
0.23449235 -0.027106375 0.708 4292532952
0.2365064 -0.027182298 0.70999998 4292532952
0.237858 -0.027181629 0.70999998 4292467156
0.23954652 -0.027219236 0.71100003 4292467156
0.24157761 -0.027295103 0.713 4292860888
0.24327557 -0.027332675 0.71399999 4293124059
0.24531993 -0.027408512 0.71600002 4291871665
0.2459937 -0.027331214 0.71399999 4278386688
0.24735276 -0.027330462 0.71399999 4278190080
0.24975675 -0.027444532 0.71700001 4278190080
0.25142959 -0.027328122 0.71399999 4278650381
0.25278845 -0.027327318 0.71399999 4278781967
0.25414726 -0.027326498 0.71399999 4278781967
0.25550598 -0.027325653 0.71399999 4278979090
0.11188448 -0.026407357 0.72500002 4291149489
0.11279225 -0.026298033 0.722 4291215534
0.11384679 -0.026225133 0.72000003 4291215534
0.1150538 -0.026188649 0.71899998 4291215538
0.11641906 -0.026188595 0.71899998 4291215538
0.11745669 -0.026115686 0.71700001 4291215536
0.11865252 -0.026079198 0.71600002 4291215536
0.11967701 -0.026006283 0.71399999 4291149491
0.12086345 -0.025969792 0.713 4291215284
0.12221758 -0.02596972 0.713 4291281590
0.12183864 -0.025605414 0.70300001 4291281590
0.12282349 -0.025532495 0.70099998 4291347383
0.1239779 -0.025495991 0.69999999 4291347383
0.12530759 -0.025495913 0.69999999 4291478453
0.12627552 -0.025422983 0.69800001 4291478453
0.12760152 -0.025422897 0.69800001 4291544247
0.12892759 -0.0254228 0.69800001 4291544247
0.13006711 -0.025386285 0.69700003 4291544247
0.13139142 -0.025386192 0.69700003 4291610040
0.13271576 -0.025386088 0.69700003 4291807416
0.13384785 -0.025349561 0.69599998 4291807416
0.13517043 -0.025349455 0.69599998 4291873211
0.13649307 -0.025349343 0.69599998 4291873211
0.13781574 -0.025349224 0.69599998 4291873211
0.13913853 -0.025349109 0.69599998 4291873211
0.14046134 -0.025348986 0.69599998 4291807416
0.14178421 -0.025348855 0.69599998 4292005052
0.14269595 -0.025275888 0.69400001 4292005052
0.14401512 -0.02527575 0.69400001 4292070845
0.14512496 -0.025239188 0.69300002 4292136640
0.14601973 -0.025166202 0.69099998 4292070591
0.14712019 -0.02512964 0.69 4292136388
0.148432 -0.025129486 0.69 4292136388
0.14930984 -0.025056491 0.68800002 4292136386
0.15061797 -0.02505633 0.68800002 4292267715
0.15192616 -0.025056161 0.68800002 4292070593
0.15301168 -0.025019571 0.68699998 4292136386
0.15431808 -0.025019396 0.68699998 4292268485
0.15562452 -0.025019214 0.68699998 4292202692
0.15693104 -0.025019029 0.68699998 4292267715
0.15800726 -0.024982419 0.68599999 4292399557
0.15931199 -0.024982225 0.68599999 4292268487
0.16061676 -0.02498202 0.68599999 4292202694
0.16144951 -0.024908982 0.68400002 4292333510
0.16251265 -0.024872351 0.68300003 4292333510
0.16381185 -0.024872135 0.68300003 4292333510
0.16511114 -0.024871914 0.68300003 4292465097
0.16665405 -0.02490809 0.68400002 4292465864
0.16795534 -0.024907857 0.68400002 4292465864
0.16925664 -0.024907613 0.68400002 4292465610
0.17055801 -0.024907365 0.68400002 4292334281
0.17185938 -0.024907107 0.68400002 4292334796
0.17316085 -0.024906849 0.68400002 4292729554
0.17497247 -0.024979403 0.68599999 4292532942
0.17627782 -0.024979126 0.68599999 4292532942
0.17758316 -0.024978844 0.68599999 4292401104
0.17888862 -0.024978552 0.68599999 4292466897
0.18019409 -0.024978256 0.68599999 4292597461
0.18149957 -0.02497795 0.68599999 4292663255
0.18280514 -0.024977636 0.68599999 4292597965
0.18411069 -0.024977315 0.68599999 4292729552
0.18541636 -0.024976991 0.68599999 4292466897
0.18699414 -0.025013063 0.68699998 4292466897
0.18830173 -0.02501272 0.68699998 4292466895
0.18960935 -0.025012366 0.68699998 4292466895
0.19091697 -0.025012005 0.68699998 4292466895
0.1922247 -0.025011642 0.68699998 4292466895
0.19353239 -0.025011264 0.68699998 4292597965
0.19484012 -0.02501088 0.68699998 4292729552
0.19643342 -0.025046892 0.68800002 4292663506
0.1977431 -0.02504649 0.68800002 4292663506
0.19905281 -0.02504608 0.68800002 4292729300
0.20036253 -0.025045658 0.68800002 4292729300
0.2016723 -0.025045231 0.68800002 4292598486
0.20357211 -0.025117595 0.69 4292664279
0.20488572 -0.025117144 0.69 4292598997
0.20619936 -0.02511669 0.69 4292598997
0.20781371 -0.02515262 0.69099998 4292532950
0.20912926 -0.025152138 0.69099998 4292598999
0.21044478 -0.025151653 0.69099998 4292795606
0.21176036 -0.025151154 0.69099998 4292795606
0.21307594 -0.025150642 0.69099998 4292664279
0.2153223 -0.025259316 0.69400001 4292664279
0.21664359 -0.025258785 0.69400001 4292991704
0.21796486 -0.025258239 0.69400001 4292925911
0.2199181 -0.02533048 0.69599998 4292728786
0.22156109 -0.025366303 0.69700003 4292794580
0.22320783 -0.025402118 0.69800001 4292401104
0.22550178 -0.025510708 0.70099998 4292466897
0.22748356 -0.025582885 0.70300001 4292466645
0.23012392 -0.025727827 0.70700002 4292664025
0.23179728 -0.025763584 0.708 4292532952
0.23314518 -0.02576294 0.708 4292532952
0.23449302 -0.02576228 0.708 4292532952
0.23650706 -0.025834383 0.70999998 4292467159
0.23785871 -0.025833696 0.70999998 4292467159
0.23954719 -0.025869386 0.71100003 4292532952
0.24157831 -0.025941443 0.713 4292663257
0.24395774 -0.026049865 0.71600002 4292860636
0.24532065 -0.026049124 0.71600002 4290295712
0.24668357 -0.026048366 0.71600002 4278190080
0.24804641 -0.026047599 0.71600002 4278190080
0.24975754 -0.026083192 0.71700001 4278190080
0.25112221 -0.026082393 0.71700001 4278650381
0.25213468 -0.026045209 0.71600002 4278650381
0.25278929 -0.025971631 0.71399999 4278847761
0.2541481 -0.025970796 0.71399999 4278979090
0.25550681 -0.025969947 0.71399999 4279045139
0.11279231 -0.024929635 0.722 4291018668
0.11384687 -0.024860505 0.72000003 4291084461
0.11521392 -0.024860425 0.72000003 4291149489
0.1164191 -0.024825813 0.71899998 4291149489
0.1177844 -0.024825729 0.71899998 4291149491
0.11881833 -0.024756586 0.71700001 4291149491
0.12001231 -0.024721967 0.71600002 4291149500
0.12103305 -0.02465282 0.71399999 4291149500
0.12238909 -0.024652725 0.71399999 4291150004
0.12235868 -0.024376405 0.70599997 4291215797
0.12282357 -0.024203666 0.70099998 4291216049
0.12397799 -0.024169035 0.69999999 4291216049
0.12530768 -0.024168931 0.69999999 4291216049
0.12663744 -0.024168821 0.69999999 4291281842
0.12760162 -0.024099657 0.69800001 4291412660
0.12892771 -0.024099542 0.69800001 4291412660
0.13025382 -0.024099423 0.69800001 4291412406
0.13158001 -0.0240993 0.69800001 4291478455
0.13271588 -0.024064653 0.69700003 4291676087
0.13384798 -0.024029998 0.69599998 4291807416
0.13517055 -0.024029864 0.69599998 4291807416
0.13649319 -0.024029728 0.69599998 4291676087
0.13781588 -0.024029583 0.69599998 4291675837
0.13913865 -0.024029441 0.69599998 4291675837
0.14046147 -0.024029292 0.69599998 4291873211
0.14178436 -0.024029143 0.69599998 4292004798
0.1431073 -0.024028981 0.69599998 4292005052
0.14401528 -0.023959773 0.69400001 4292005052
0.14512512 -0.023925085 0.69300002 4292005052
0.14601988 -0.023855869 0.69099998 4292005052
0.14712034 -0.02382117 0.69 4292004800
0.14800192 -0.023751944 0.68800002 4292004800
0.14931001 -0.023751765 0.68800002 4292136638
0.15039922 -0.023717057 0.68699998 4292267967
0.15170552 -0.023716861 0.68699998 4292136388
0.15278913 -0.023682144 0.68599999 4292267717
0.15409365 -0.023681944 0.68599999 4292136901
0.1553982 -0.023681737 0.68599999 4292136901
0.15670283 -0.023681527 0.68599999 4292136647
0.15800747 -0.023681311 0.68599999 4292334283
0.15931219 -0.023681086 0.68599999 4292268485
0.16061698 -0.023680855 0.68599999 4292136899
0.16144973 -0.023611585 0.68400002 4292267719
0.16275081 -0.023611346 0.68400002 4292267719
0.16405192 -0.023611102 0.68400002 4292136647
0.1653531 -0.023610853 0.68400002 4292334283
0.16665433 -0.023610597 0.68400002 4292334535
0.1684467 -0.02367937 0.68599999 4292465864
0.16925691 -0.023610068 0.68400002 4292334281
0.17055827 -0.023609793 0.68400002 4292268487
0.17185967 -0.02360951 0.68400002 4292268235
0.17366745 -0.023678254 0.68599999 4292728786
0.17497274 -0.02367796 0.68599999 4292597963
0.1762781 -0.02367766 0.68599999 4292597963
0.17758347 -0.023677347 0.68599999 4292466384
0.1788889 -0.023677032 0.68599999 4292597713
0.18019442 -0.02367671 0.68599999 4292663259
0.18149988 -0.023676379 0.68599999 4292597209
0.18280542 -0.02367604 0.68599999 4292597715
0.1843794 -0.023710208 0.68699998 4292729302
0.18568696 -0.023709858 0.68699998 4292597713
0.18699449 -0.023709496 0.68699998 4292466384
0.18830211 -0.023709128 0.68699998 4292597965
0.18960975 -0.023708753 0.68699998 4292597965
0.19091736 -0.023708368 0.68699998 4292597963
0.19222505 -0.023707977 0.68699998 4292597963
0.19353278 -0.023707576 0.68699998 4292597965
0.19484052 -0.02370717 0.68699998 4292729552
0.19643383 -0.02374126 0.68800002 4292663758
0.19774354 -0.023740837 0.68800002 4292597965
0.19905324 -0.023740398 0.68800002 4292597713
0.20094545 -0.023808965 0.69 4292597713
0.202259 -0.023808511 0.69 4292598484
0.20357257 -0.023808047 0.69 4292598484
0.2048862 -0.023807578 0.69 4292598484
0.20619981 -0.023807094 0.69 4292598484
0.20781419 -0.023841107 0.69099998 4292598484
0.20912977 -0.023840606 0.69099998 4292664277
0.21044531 -0.023840096 0.69099998 4292664277
0.21176086 -0.023839576 0.69099998 4292664277
0.21369319 -0.023908045 0.69300002 4292664277
0.21532284 -0.023942001 0.69400001 4292598484
0.21664412 -0.023941446 0.69400001 4292795095
0.21796542 -0.023940885 0.69400001 4292663508
0.21991867 -0.024009302 0.69599998 4292663255
0.2212438 -0.024008719 0.69599998 4292860890
0.22320844 -0.024077108 0.69800001 4292664277
0.2255024 -0.024179978 0.70099998 4292795606
0.22748415 -0.024248337 0.70300001 4292467159
0.22914806 -0.024282193 0.704 4292532952
0.23179793 -0.024419509 0.708 4292532952
0.23314583 -0.024418842 0.708 4292532952
0.2344937 -0.024418166 0.708 4292532952
0.23650776 -0.024486452 0.70999998 4292467159
0.23785937 -0.024485752 0.70999998 4292335827
0.23954792 -0.024519525 0.71100003 4292664792
0.24157903 -0.024587765 0.713 4292991708
0.24429919 -0.024724958 0.71700001 4291544006
0.24566405 -0.024724197 0.71700001 4290556014
0.24702884 -0.024723431 0.71700001 4278190080
0.24839361 -0.024722643 0.71700001 4278190080
0.24975835 -0.02472184 0.71700001 4278321920
0.25112304 -0.024721028 0.71700001 4278518539
0.25213552 -0.024685727 0.71600002 4278650381
0.25279009 -0.024615934 0.71399999 4278847513
0.2541489 -0.024615085 0.71399999 4279176221
0.25550771 -0.024614217 0.71399999 4279702819
0.1127924 -0.023561241 0.722 4291018416
0.11384696 -0.023495875 0.72000003 4291084209
0.11521401 -0.023495769 0.72000003 4290953393
0.1164192 -0.023463029 0.71899998 4290953393
0.11778449 -0.02346292 0.71899998 4291084209
0.11881841 -0.023397548 0.71700001 4291084209
0.1200124 -0.023364801 0.71600002 4290953141
0.12103315 -0.02329942 0.71399999 4291018934
0.12187496 -0.02320141 0.71100003 4291019186
0.12235879 -0.023038123 0.70599997 4291019186
0.12334933 -0.022972737 0.704 4291019186
0.12415522 -0.022874715 0.70099998 4291019186
0.12548681 -0.022874583 0.70099998 4291216047
0.12681845 -0.022874448 0.70099998 4291216047
0.12796737 -0.022841683 0.69999999 4291216049
0.12929724 -0.022841543 0.69999999 4291216049
0.13025397 -0.022776142 0.69800001 4291281590
0.13158016 -0.022775991 0.69800001 4291347383
0.13271601 -0.022743212 0.69700003 4291347637
0.13384812 -0.022710426 0.69599998 4291347637
0.1351707 -0.022710269 0.69599998 4291478455
0.13649334 -0.022710109 0.69599998 4291544249
0.13781604 -0.02270994 0.69599998 4291610042
0.13913879 -0.022709772 0.69599998 4291807164
0.14046164 -0.022709599 0.69599998 4291807164
0.14178452 -0.022709422 0.69599998 4291807164
0.14331308 -0.022741865 0.69700003 4291807416
0.14401545 -0.022643799 0.69400001 4291807416
0.1451253 -0.022610977 0.69300002 4291873211
0.14602007 -0.022545528 0.69099998 4291939004
0.14712055 -0.022512702 0.69 4291939004
0.14800213 -0.022447247 0.68800002 4291939004
0.14931022 -0.022447037 0.68800002 4291939004
0.15039942 -0.022414196 0.68699998 4291939004
0.15170574 -0.022413984 0.68699998 4291939006
0.15278935 -0.022381136 0.68599999 4292070593
0.15409386 -0.022380909 0.68599999 4292070854
0.15539843 -0.022380676 0.68599999 4292070854
0.15670304 -0.022380438 0.68599999 4292005061
0.15754707 -0.022314951 0.68400002 4292070854
0.15884797 -0.022314701 0.68400002 4292071108
0.16061722 -0.022379693 0.68599999 4292005059
0.16144997 -0.022314189 0.68400002 4292136901
0.16275103 -0.022313921 0.68400002 4292202694
0.16405219 -0.022313656 0.68400002 4292202694
0.16535337 -0.022313381 0.68400002 4292202694
0.1666546 -0.022313097 0.68400002 4292136901
0.16844696 -0.022378052 0.68599999 4292136901
0.16925718 -0.022312514 0.68400002 4292268489
0.17055856 -0.022312216 0.68400002 4292334283
0.17185995 -0.022311905 0.68400002 4292334283
0.17366776 -0.022376833 0.68599999 4292729040
0.1752281 -0.02240913 0.68699998 4292663245
0.17653537 -0.022408802 0.68699998 4292597452
0.1775838 -0.022375846 0.68599999 4292268751
0.17888926 -0.022375509 0.68599999 4292597715
0.18019474 -0.022375159 0.68599999 4292532439
0.18150026 -0.022374803 0.68599999 4292466645
0.18280582 -0.022374446 0.68599999 4292466895
0.18437979 -0.022406688 0.68699998 4292466895
0.1856873 -0.022406312 0.68699998 4292466895
0.18699488 -0.022405922 0.68699998 4292203980
0.18830246 -0.022405531 0.68699998 4292334796
0.18961011 -0.022405131 0.68699998 4292202953
0.19091779 -0.022404723 0.68699998 4292202692
0.19250527 -0.022436919 0.68800002 4292202692
0.19353318 -0.022403883 0.68699998 4292465612
0.19484094 -0.022403447 0.68699998 4292597198
0.19643427 -0.02243562 0.68800002 4292466382
0.19774397 -0.02243517 0.68800002 4292466382
0.19905372 -0.022434711 0.68800002 4292466382
0.20036346 -0.022434248 0.68800002 4292597711
0.20225947 -0.022498982 0.69 4292532690
0.20357308 -0.022498498 0.69 4292532690
0.20488669 -0.022498004 0.69 4292335057
0.20649917 -0.022530105 0.69099998 4292400850
0.20781469 -0.022529589 0.69099998 4292466897
0.20973559 -0.022594275 0.69300002 4292466897
0.21105492 -0.022593737 0.69300002 4292597713
0.21237434 -0.022593195 0.69300002 4292466384
0.21400207 -0.022625243 0.69400001 4292400337
0.21532337 -0.022624677 0.69400001 4292597715
0.21664467 -0.022624103 0.69400001 4292466643
0.21859413 -0.022688719 0.69599998 4292532436
0.21991926 -0.022688119 0.69599998 4292532439
0.22124438 -0.022687513 0.69599998 4292532439
0.2238486 -0.022817278 0.69999999 4292467156
0.22614641 -0.022914436 0.70300001 4292467156
0.22748479 -0.022913789 0.70300001 4292467159
0.22914869 -0.022945724 0.704 4292532952
0.23179859 -0.023075426 0.708 4292467159
0.2331465 -0.023074739 0.708 4292467159
0.23449437 -0.023074046 0.708 4292532952
0.23650846 -0.023138518 0.70999998 4292270036
0.23786011 -0.0231378 0.70999998 4292203728
0.23954864 -0.023169653 0.71100003 4292795608
0.24191864 -0.023266668 0.71399999 4293254110
0.24498142 -0.023428833 0.71899998 4290030253
0.24566483 -0.023362886 0.71700001 4288317282
0.24702963 -0.023362096 0.71700001 4278190080
0.24839444 -0.023361294 0.71700001 4278190080
0.25045583 -0.023425641 0.71899998 4278322182
0.25112385 -0.023359651 0.71700001 4278584838
0.25248849 -0.023358811 0.71700001 4278979596
0.11279251 -0.02219284 0.722 4290887086
0.1141633 -0.022192718 0.722 4290887086
0.11521414 -0.022131119 0.72000003 4291018668
0.11641933 -0.022100247 0.71899998 4291084461
0.1177846 -0.022100117 0.71899998 4291149741
0.11881853 -0.022038506 0.71700001 4291149741
0.12001254 -0.022007635 0.71600002 4291083948
0.12103328 -0.02194602 0.71399999 4291215534
0.12187508 -0.021853667 0.71100003 4291084461
0.12270556 -0.021761315 0.708 4291018668
0.12369987 -0.021699689 0.70599997 4291150254
0.1250409 -0.021699538 0.70599997 4291150254
0.12584499 -0.021607179 0.70300001 4291150254
0.12718044 -0.021607021 0.70300001 4291216047
0.12815033 -0.02154539 0.70099998 4291215534
0.12929739 -0.021514487 0.69999999 4291149741
0.13062733 -0.021514319 0.69999999 4291346865
0.13158032 -0.02145268 0.69800001 4291412658
0.13271618 -0.021421771 0.69700003 4291412660
0.13404059 -0.021421589 0.69700003 4291346867
0.13517088 -0.021390675 0.69599998 4291281590
0.13649352 -0.021390487 0.69599998 4291281590
0.13781624 -0.021390297 0.69599998 4291610294
0.139139 -0.021390101 0.69599998 4291676087
0.14046182 -0.021389904 0.69599998 4291610042
0.14178473 -0.0213897 0.69599998 4291610042
0.14331329 -0.021420224 0.69700003 4291610042
0.14443067 -0.021389278 0.69599998 4291610042
0.14533491 -0.0213276 0.69400001 4291807416
0.14602028 -0.021235183 0.69099998 4291873209
0.14669433 -0.021142768 0.68800002 4291873209
0.14800233 -0.021142539 0.68800002 4291676087
0.14931044 -0.021142308 0.68800002 4291873211
0.15061858 -0.021142069 0.68800002 4291939004
0.15170594 -0.021111093 0.68699998 4291872957
0.15301232 -0.021110848 0.68699998 4291939006
0.15431872 -0.021110592 0.68699998 4291807938
0.15562519 -0.021110334 0.68699998 4291939268
0.15693173 -0.021110073 0.68699998 4291939268
0.15754731 -0.02101762 0.68400002 4292005061
0.15884824 -0.02101735 0.68400002 4292070341
0.16014922 -0.021017069 0.68400002 4292004548
0.16145027 -0.021016788 0.68400002 4292267715
0.16275135 -0.021016495 0.68400002 4292399557
0.16405247 -0.021016201 0.68400002 4292333508
0.16535366 -0.021015897 0.68400002 4292333508
0.16714218 -0.021077039 0.68599999 4292136647
0.16844726 -0.021076722 0.68599999 4292070854
0.16975242 -0.021076404 0.68599999 4292136649
0.17105758 -0.021076076 0.68599999 4292268235
0.17236277 -0.02107574 0.68599999 4292268489
0.17392124 -0.021106124 0.68699998 4292531405
0.17522846 -0.021105779 0.68699998 4292531405
0.17653571 -0.021105424 0.68699998 4292531405
0.17758414 -0.021074342 0.68599999 4292334544
0.1788896 -0.021073977 0.68599999 4292466130
0.18045777 -0.021104325 0.68699998 4292401104
0.18176521 -0.021103945 0.68699998 4292401104
0.18307266 -0.021103552 0.68699998 4292335309
0.18438017 -0.021103159 0.68699998 4292335309
0.18568771 -0.021102754 0.68699998 4292335309
0.18699527 -0.021102343 0.68699998 4292203980
0.1883029 -0.021101929 0.68699998 4292072139
0.18961051 -0.021101505 0.68699998 4292072139
0.19091822 -0.021101071 0.68699998 4292005059
0.19250573 -0.021131346 0.68800002 4292005059
0.19353366 -0.021100182 0.68699998 4291940299
0.1948414 -0.021099726 0.68699998 4292203728
0.19643472 -0.021129971 0.68800002 4292400589
0.19774444 -0.0211295 0.68800002 4292400589
0.19905415 -0.021129016 0.68800002 4292401102
0.20036392 -0.021128524 0.68800002 4292401102
0.2016737 -0.021128029 0.68800002 4292466895
0.20357355 -0.021188937 0.69 4292532688
0.20488718 -0.021188416 0.69 4292400850
0.20649968 -0.021218596 0.69099998 4292400850
0.20841673 -0.021279475 0.69300002 4292400850
0.20973612 -0.021278929 0.69300002 4292466643
0.21136004 -0.021309074 0.69400001 4292466897
0.21268134 -0.021308508 0.69400001 4292401104
0.21400267 -0.021307932 0.69400001 4292400852
0.2159445 -0.021368749 0.69599998 4292466645
0.21726961 -0.021368152 0.69599998 4292466645
0.21859473 -0.021367542 0.69599998 4292466645
0.21991986 -0.021366928 0.69599998 4292466643
0.22124498 -0.021366296 0.69599998 4292400850
0.22384925 -0.021488452 0.69999999 4292335829
0.22614703 -0.02157989 0.70300001 4292270036
0.22748548 -0.021579226 0.70300001 4292466645
0.22914939 -0.021609243 0.704 4292598232
0.23179929 -0.021731332 0.708 4292467156
0.2331472 -0.02173063 0.708 4292335827
0.23515752 -0.021791302 0.70999998 4292467159
0.2365092 -0.021790572 0.70999998 4292203987
0.23786083 -0.02178983 0.70999998 4292203728
0.24022323 -0.02188115 0.713 4292861401
0.11279265 -0.020824438 0.722 4290821039
0.11416345 -0.020824291 0.722 4290755246
0.11521426 -0.020766456 0.72000003 4290755498
0.11641946 -0.020737462 0.71899998 4290887084
0.11778477 -0.020737307 0.71899998 4290821289
0.11881868 -0.020679465 0.71700001 4290821289
0.11967747 -0.020592781 0.71399999 4291017641
0.12086391 -0.020563772 0.713 4291017641
0.12187526 -0.020505928 0.71100003 4291017641
0.12305231 -0.020476913 0.70999998 4291148970
0.12387528 -0.020390222 0.70700002 4290887338
0.12504108 -0.020361204 0.70599997 4291018668
0.12602417 -0.020303346 0.704 4291083948
0.12736152 -0.020303164 0.704 4291083948
0.12851614 -0.02027414 0.70300001 4291083948
0.12948231 -0.020216269 0.70099998 4291083948
0.13062751 -0.020187236 0.69999999 4291083948
0.13195753 -0.020187039 0.69999999 4291215534
0.13328759 -0.020186838 0.69999999 4291215534
0.13404079 -0.020100119 0.69700003 4291215534
0.13517107 -0.020071073 0.69599998 4291215284
0.13649371 -0.02007086 0.69599998 4291412406
0.13781644 -0.020070644 0.69599998 4291544249
0.13913921 -0.020070424 0.69599998 4291412406
0.14046201 -0.020070199 0.69599998 4291215538
0.14178494 -0.02006997 0.69599998 4291215538
0.14331351 -0.020098574 0.69700003 4291675065
0.14443092 -0.020069499 0.69599998 4291675065
0.14533514 -0.020011585 0.69400001 4291544247
0.1460205 -0.019924834 0.69099998 4291610040
0.14669456 -0.019838082 0.68800002 4291610042
0.14800259 -0.019837828 0.68800002 4291544249
0.14931068 -0.019837569 0.68800002 4291675835
0.15061885 -0.019837305 0.68800002 4291675835
0.15170622 -0.019808201 0.68699998 4291610044
0.15278985 -0.019779095 0.68599999 4291675837
0.15409438 -0.01977882 0.68599999 4291938752
0.15562549 -0.019807365 0.68699998 4292004546
0.156932 -0.019807074 0.68699998 4292004798
0.15754761 -0.01972029 0.68400002 4292004798
0.15861629 -0.01969116 0.68300003 4292004800
0.15991539 -0.019690856 0.68300003 4292004800
0.16145055 -0.019719375 0.68400002 4292070593
0.16275163 -0.019719061 0.68400002 4292004800
0.16405277 -0.019718736 0.68400002 4291939006
0.16535398 -0.01971841 0.68400002 4292136386
0.16714251 -0.019775731 0.68599999 4292136647
0.16844758 -0.019775389 0.68599999 4292136647
0.16975272 -0.019775044 0.68599999 4292136901
0.17105792 -0.019774692 0.68599999 4292202694
0.17236313 -0.019774331 0.68599999 4292202694
0.17392159 -0.019802792 0.68699998 4292465610
0.1752288 -0.019802416 0.68699998 4292400589
0.1762791 -0.019773213 0.68599999 4292400589
0.17758451 -0.019772831 0.68599999 4292335309
0.17888999 -0.019772438 0.68599999 4292401102
0.18019551 -0.01977204 0.68599999 4292335309
0.181501 -0.019771632 0.68599999 4292335309
0.18307309 -0.019800043 0.68699998 4292335309
0.18438056 -0.019799618 0.68699998 4292335309
0.18568811 -0.019799192 0.68699998 4292203980
0.18699571 -0.019798759 0.68699998 4292203980
0.18830337 -0.019798316 0.68699998 4292137160
0.18988696 -0.019826682 0.68800002 4292005831
0.19119656 -0.019826226 0.68800002 4291940038
0.19250616 -0.019825758 0.68800002 4291808452
0.19381586 -0.019825287 0.68800002 4291873991
0.19512548 -0.019824805 0.68800002 4292202955
0.1964352 -0.019824315 0.68800002 4292202953
0.19774491 -0.019823818 0.68800002 4292269003
0.19905464 -0.019823313 0.68800002 4292401104
0.20036441 -0.019822799 0.68800002 4292335055
0.20167424 -0.019822275 0.68800002 4292335309
0.20357408 -0.019879363 0.69 4292335309
0.20518467 -0.019907633 0.69099998 4292401104
0.20650022 -0.019907083 0.69099998 4292401104
0.20871803 -0.019992948 0.69400001 4292401104
0.21003933 -0.019992378 0.69400001 4292401104
0.21136062 -0.019991798 0.69400001 4292400850
0.21268193 -0.019991206 0.69400001 4292400850
0.21461996 -0.020048218 0.69599998 4292400850
0.21594509 -0.020047609 0.69599998 4292466643
0.21727021 -0.020046989 0.69599998 4292466897
0.21859536 -0.020046361 0.69599998 4292532690
0.22023647 -0.020074524 0.69700003 4292335827
0.22188142 -0.020102678 0.69800001 4292335827
0.22416967 -0.020188412 0.70099998 4292335829
0.2261477 -0.020245336 0.70300001 4292335829
0.22780971 -0.020273447 0.704 4292335829
0.2291501 -0.020272752 0.704 4292270036
0.2311452 -0.020329636 0.70599997 4292400852
0.23314789 -0.020386504 0.708 4292400852
0.23515822 -0.020443354 0.70999998 4292335829
0.23650996 -0.020442614 0.70999998 4292203987
0.23786159 -0.020441853 0.70999998 4292203987
0.11294902 -0.019482974 0.72299999 4290624430
0.11432171 -0.019482803 0.72299999 4290624430
0.11521443 -0.019401792 0.72000003 4290755500
0.11641963 -0.01937467 0.71899998 4290821293
0.11778494 -0.019374492 0.71899998 4290886314
0.11881888 -0.019320417 0.71700001 4290754985
0.11967763 -0.01923939 0.71399999 4290886055
0.1208641 -0.019212259 0.713 4290951848
0.12187542 -0.019158177 0.71100003 4291017387
0.12305251 -0.019131036 0.70999998 4291148972
0.12405068 -0.019076953 0.708 4291018154
0.12521839 -0.019049807 0.70700002 4291018154
0.12638238 -0.019022658 0.70599997 4291018154
0.1273617 -0.01896856 0.704 4290952361
0.12869912 -0.018968349 0.704 4290952107
0.12948249 -0.018887306 0.70099998 4291083950
0.13081433 -0.018887088 0.70099998 4291083948
0.13195774 -0.018859923 0.69999999 4291083948
0.13328782 -0.018859696 0.69999999 4291083696
0.13461794 -0.018859465 0.69999999 4291083696
0.13517126 -0.018751465 0.69599998 4291149491
0.13649394 -0.018751226 0.69599998 4291149491
0.13781667 -0.018750986 0.69599998 4291346867
0.13913943 -0.01875074 0.69599998 4291346867
0.14046226 -0.018750489 0.69599998 4291215284
0.14178517 -0.018750237 0.69599998 4291215284
0.14331374 -0.018776916 0.69700003 4291478453
0.14463869 -0.018776655 0.69700003 4291544247
0.14533541 -0.018695567 0.69400001 4291544247
0.14602077 -0.01861448 0.69099998 4291544247
0.14712125 -0.018587265 0.69 4291543995
0.14800286 -0.018533109 0.68800002 4291543995
0.14931095 -0.018532824 0.68800002 4291544249
0.15061913 -0.018532533 0.68800002 4291610042
0.1517065 -0.018505301 0.68699998 4291609790
0.15279016 -0.018478068 0.68599999 4291609790
0.15409467 -0.01847776 0.68599999 4291872959
0.15539925 -0.018477451 0.68599999 4292004546
0.15670387 -0.018477136 0.68599999 4292004798
0.15754791 -0.01842295 0.68400002 4291939004
0.1586166 -0.01839569 0.68300003 4292004798
0.1599157 -0.018395361 0.68300003 4291939004
0.16145088 -0.018421957 0.68400002 4291939006
0.16275196 -0.018421615 0.68400002 4291872957
0.16405313 -0.018421268 0.68400002 4291807938
0.16535431 -0.018420914 0.68400002 4292005061
0.16714285 -0.018474415 0.68599999 4292070854
0.16844794 -0.018474048 0.68599999 4292070854
0.16975309 -0.018473675 0.68599999 4292136386
0.17105828 -0.018473297 0.68599999 4292136386
0.1723635 -0.018472912 0.68599999 4292005831
0.17392197 -0.018499449 0.68699998 4292334796
0.17522919 -0.018499048 0.68699998 4292334794
0.17627952 -0.018471718 0.68599999 4292334794
0.17758492 -0.018471308 0.68599999 4292400589
0.17889038 -0.018470891 0.68599999 4292466382
0.1801959 -0.018470464 0.68599999 4292400587
0.18150142 -0.018470034 0.68599999 4292334794
0.18307348 -0.018496519 0.68699998 4292335309
0.18438099 -0.018496072 0.68699998 4292335309
0.18568854 -0.018495619 0.68699998 4292334794
0.18699615 -0.018495161 0.68699998 4292203207
0.18830377 -0.018494692 0.68699998 4292137160
0.18988745 -0.018521139 0.68800002 4292137160
0.19119704 -0.018520659 0.68800002 4292005831
0.19250663 -0.018520165 0.68800002 4291874245
0.19381632 -0.018519668 0.68800002 4291873991
0.19569319 -0.018572997 0.69 4291940040
0.19700673 -0.018572481 0.69 4291940040
0.19832025 -0.018571958 0.69 4292005833
0.19963382 -0.018571425 0.69 4292269003
0.2009474 -0.018570887 0.69 4292334796
0.202261 -0.018570336 0.69 4292137931
0.20357463 -0.018569781 0.69 4292203980
0.20518522 -0.018596131 0.69099998 4292335309
0.20709847 -0.018649379 0.69300002 4292466895
0.20871858 -0.018675704 0.69400001 4292335309
0.21003991 -0.018675111 0.69400001 4292335309
0.21197031 -0.018728325 0.69599998 4292335057
0.21329543 -0.01872771 0.69599998 4292335057
0.21462055 -0.018727088 0.69599998 4292401102
0.21594571 -0.018726457 0.69599998 4292401102
0.21727085 -0.018725816 0.69599998 4292597711
0.2189101 -0.01875207 0.69700003 4292663504
0.22023712 -0.018751409 0.69700003 4292466897
0.22188206 -0.018777642 0.69800001 4292466897
0.22417034 -0.018857663 0.70099998 4292466897
0.22647008 -0.01893767 0.704 4292466897
0.22781043 -0.018936962 0.704 4292466643
0.22915079 -0.018936247 0.704 4292400850
0.23114589 -0.01898931 0.70599997 4292334805
0.23314865 -0.019042365 0.708 4292334805
0.23449655 -0.019041611 0.708 4292203987
0.23584446 -0.019040851 0.708 4292203987
0.11188519 -0.018162962 0.72500002 4290756013
0.11294921 -0.018112665 0.72299999 4290624428
0.11416379 -0.018087422 0.722 4290624428
0.11521462 -0.018037124 0.72000003 4290689705
0.11641982 -0.01801187 0.71899998 4290755498
0.11778512 -0.018011671 0.71899998 4290755498
0.11881907 -0.017961364 0.71700001 4290755498
0.12001307 -0.017936103 0.71600002 4290951848
0.1208643 -0.01786074 0.713 4290951848
0.12187563 -0.017810427 0.71100003 4291016617
0.12305272 -0.017785156 0.70999998 4291016617
0.12405089 -0.017734839 0.708 4291016871
0.1252186 -0.017709563 0.70700002 4291148457
0.12638259 -0.017684285 0.70599997 4291017641
0.12772377 -0.017684054 0.70599997 4291017641
0.12869936 -0.017633721 0.704 4290952361
0.12948272 -0.017558338 0.70099998 4290952361
0.13081457 -0.017558094 0.70099998 4290952359
0.13214648 -0.017557848 0.70099998 4291018152
0.13347845 -0.017557595 0.70099998 4291018152
0.13461818 -0.017532295 0.69999999 4291018152
0.13594837 -0.017532036 0.69999999 4291083950
0.13669035 -0.017456638 0.69700003 4291017900
0.13801494 -0.017456369 0.69700003 4291083698
0.13933963 -0.017456099 0.69700003 4291215284
0.14046253 -0.017430777 0.69599998 4291084211
0.14178544 -0.017430495 0.69599998 4291084211
0.14331403 -0.017455257 0.69700003 4291215284
0.14463896 -0.017454965 0.69700003 4291215284
0.14533567 -0.017379543 0.69400001 4291280561
0.14602107 -0.017304117 0.69099998 4291346354
0.14733475 -0.017303815 0.69099998 4291478455
0.14843339 -0.017278466 0.69 4291478455
0.1497453 -0.017278153 0.69 4291347383
0.15061945 -0.01722776 0.68800002 4291478969
0.1517068 -0.017202394 0.68699998 4291543995
0.15301318 -0.01720207 0.68699998 4291610044
0.15409499 -0.017176701 0.68599999 4291610044
0.15539958 -0.017176365 0.68599999 4291675837
0.1567042 -0.017176023 0.68599999 4291807416
0.1580089 -0.017175678 0.68599999 4291939002
0.15884919 -0.017125253 0.68400002 4291939004
0.16015019 -0.017124895 0.68400002 4291939004
0.1619233 -0.017174603 0.68599999 4291742141
0.1632282 -0.017174235 0.68599999 4291807934
0.16453317 -0.017173862 0.68599999 4291938754
0.16583818 -0.01717348 0.68599999 4291938754
0.16738687 -0.017198127 0.68699998 4291742145
0.16869389 -0.017197734 0.68699998 4292070854
0.17000093 -0.017197331 0.68699998 4292136901
0.17130806 -0.017196929 0.68699998 4292136901
0.17261519 -0.017196517 0.68699998 4292136647
0.17417558 -0.017221132 0.68800002 4292268489
0.17548466 -0.017220704 0.68800002 4292202953
0.17653689 -0.017195242 0.68699998 4292269003
0.17784423 -0.017194808 0.68699998 4292202953
0.17915159 -0.017194362 0.68699998 4292269003
0.18019634 -0.017168885 0.68599999 4292334796
0.18150188 -0.017168429 0.68599999 4292269003
0.18307394 -0.01719299 0.68699998 4292137931
0.18438144 -0.017192518 0.68699998 4292137931
0.18568902 -0.01719204 0.68699998 4292072137
0.18699661 -0.017191555 0.68699998 4292072137
0.18830431 -0.017191065 0.68699998 4292202953
0.18988794 -0.017215587 0.68800002 4292202953
0.19175333 -0.017265119 0.69 4292137160
0.19306678 -0.017264603 0.69 4292005831
0.19438025 -0.017264081 0.69 4291742405
0.1956937 -0.017263548 0.69 4291940040
0.19700725 -0.017263008 0.69 4291940040
0.19832081 -0.017262463 0.69 4292005833
0.19963437 -0.017261906 0.69 4292202953
0.20094796 -0.017261343 0.69 4292269003
0.2022616 -0.017260771 0.69 4292137931
0.20357519 -0.017260192 0.69 4292137931
0.20577969 -0.017334647 0.69300002 4292203980
0.20709909 -0.017334046 0.69300002 4292203980
0.20871921 -0.017358454 0.69400001 4292335309
0.21004051 -0.017357836 0.69400001 4292335309
0.21197091 -0.017407229 0.69599998 4292203726
0.21329609 -0.017406592 0.69599998 4292203726
0.2146212 -0.017405948 0.69599998 4292137933
0.21594635 -0.017405294 0.69599998 4292137933
0.21758369 -0.017429641 0.69700003 4292334029
0.21891078 -0.017428968 0.69700003 4292597200
0.22055379 -0.017453291 0.69800001 4292531407
0.22188275 -0.017452598 0.69800001 4292465614
0.22417106 -0.017526902 0.70099998 4292137935
0.2264708 -0.017601194 0.704 4292400850
0.22781116 -0.017600466 0.704 4292400850
0.22915152 -0.01759973 0.704 4292400850
0.23114666 -0.01764898 0.70599997 4292137681
0.23314939 -0.017698215 0.708 4292137681
0.23449732 -0.017697444 0.708 4292137681
0.23584527 -0.017696664 0.708 4292203474
0.23886824 -0.017820843 0.713 4292465362
0.11188541 -0.016788879 0.72500002 4290624428
0.1129494 -0.016742351 0.72299999 4290755498
0.114164 -0.01671898 0.722 4290689705
0.11521483 -0.016672449 0.72000003 4290885801
0.11658196 -0.016672226 0.72000003 4290885801
0.11778533 -0.016648842 0.71899998 4290886316
0.11915071 -0.016648613 0.71899998 4290754987
0.12001329 -0.016578915 0.71600002 4290886055
0.12086453 -0.016509216 0.713 4290886055
0.12187584 -0.016462669 0.71100003 4291016619
0.12305295 -0.01643927 0.70999998 4291016619
0.12405113 -0.016392719 0.708 4291016617
0.12521885 -0.016369313 0.70700002 4291082666
0.12638284 -0.016345907 0.70599997 4290951846
0.12772401 -0.016345648 0.70599997 4290951846
0.12869962 -0.016299086 0.704 4291082664
0.1298524 -0.01627567 0.70300001 4291082664
0.13118805 -0.016275398 0.70300001 4291017639
0.13214673 -0.016228823 0.70099998 4291148968
0.13347873 -0.016228547 0.70099998 4291017893
0.13461845 -0.016205117 0.69999999 4291149222
0.13594866 -0.016204832 0.69999999 4290952359
0.13669059 -0.016135097 0.69700003 4290952359
0.13801521 -0.016134802 0.69700003 4291083948
0.13913998 -0.016111357 0.69599998 4291215534
0.14046283 -0.016111054 0.69599998 4291083948
0.14178576 -0.016110748 0.69599998 4290952361
0.14310871 -0.016110437 0.69599998 4291017651
0.14463925 -0.016133269 0.69700003 4291149493
0.14575484 -0.016109802 0.69599998 4291149491
0.14644402 -0.016040038 0.69300002 4291149491
0.14776151 -0.01603971 0.69300002 4291347119
0.14864883 -0.015993085 0.69099998 4291478705
0.14974563 -0.015969602 0.69 4291412660
0.15105762 -0.01596926 0.69 4291412660
0.15236962 -0.015968913 0.69 4291478451
0.15368171 -0.015968559 0.69 4291544501
0.15499385 -0.015968202 0.69 4291544247
0.15630604 -0.015967837 0.69 4291610040
0.1576183 -0.015967466 0.69 4291807416
0.15893061 -0.015967092 0.69 4291939002
0.16024297 -0.015966713 0.69 4291873211
0.16155539 -0.015966326 0.69 4291807418
0.16286786 -0.015965935 0.69 4291807166
0.16418037 -0.015965538 0.69 4291938752
0.16501324 -0.015918856 0.68800002 4291872959
0.16632208 -0.01591845 0.68800002 4291872959
0.16763096 -0.015918037 0.68800002 4291741893
0.16893986 -0.015917616 0.68800002 4292202444
0.17024884 -0.015917189 0.68800002 4292202694
0.17130847 -0.015893621 0.68699998 4292465610
0.1726156 -0.015893184 0.68699998 4292136647
0.17417601 -0.015915874 0.68800002 4292136647
0.17548513 -0.015915424 0.68800002 4292268487
0.17679434 -0.015914967 0.68800002 4292465610
0.17784467 -0.015891369 0.68699998 4292202953
0.17915206 -0.0158909 0.68699998 4292137160
0.18045948 -0.015890425 0.68699998 4292268999
0.18176693 -0.015889941 0.68699998 4292335048
0.18307441 -0.015889451 0.68699998 4292269001
0.18438196 -0.015888955 0.68699998 4292137414
0.18568957 -0.015888453 0.68699998 4292137160
0.1869971 -0.015887938 0.68699998 4292202953
0.1883048 -0.015887422 0.68699998 4292137414
0.18988845 -0.015910024 0.68800002 4292137414
0.19175386 -0.015955739 0.69 4292202440
0.1930673 -0.015955197 0.69 4292070854
0.19438079 -0.015954647 0.69 4292005063
0.19569427 -0.015954092 0.69 4292070856
0.19700781 -0.015953526 0.69 4291873991
0.1986088 -0.015976075 0.69099998 4292005833
0.19992425 -0.015975494 0.69099998 4292072137
0.20123978 -0.015974905 0.69099998 4292137931
0.20255528 -0.015974309 0.69099998 4292202953
0.20446092 -0.016019939 0.69300002 4292137160
0.2057803 -0.016019326 0.69300002 4292202955
0.20709969 -0.016018704 0.69300002 4292268749
0.2087198 -0.016041188 0.69400001 4292137933
0.21004115 -0.016040549 0.69400001 4292137933
0.21197158 -0.016086124 0.69599998 4292072139
0.21329676 -0.016085466 0.69599998 4292072139
0.2146219 -0.0160848 0.69599998 4292072139
0.21594705 -0.016084123 0.69599998 4292072139
0.21758439 -0.016106548 0.69700003 4292268751
0.21891144 -0.016105853 0.69700003 4292334544
0.22055449 -0.016128255 0.69800001 4292334544
0.22188343 -0.01612754 0.69800001 4292268751
0.22481135 -0.01624234 0.70300001 4292137681
0.22647154 -0.016264705 0.704 4292400852
0.2284591 -0.016310163 0.70599997 4292401104
0.22980325 -0.016309401 0.70599997 4292401104
0.23114742 -0.016308635 0.70599997 4292137681
0.2338088 -0.016400252 0.70999998 4292071888
0.23615418 -0.016468752 0.713 4292137935
0.23751163 -0.016467946 0.713 4292203728
0.23886903 -0.016467128 0.713 4292662741
0.11169191 -0.015776711 0.74199998 4290755759
0.11172865 -0.015585119 0.73299998 4290689455
0.11219428 -0.015457313 0.727 4290623406
0.11294964 -0.01537203 0.72299999 4290689192
0.11432233 -0.015371788 0.72299999 4290689192
0.1155351 -0.015350284 0.722 4290820008
0.1165822 -0.015307519 0.72000003 4290820008
0.1179494 -0.015307268 0.72000003 4290820008
0.11915094 -0.015285753 0.71899998 4290820008
0.12001353 -0.015221718 0.71600002 4290820008
0.12086478 -0.015157679 0.713 4290820008
0.1218761 -0.0151149 0.71100003 4290820006
0.12305321 -0.015093374 0.70999998 4290886055
0.12405137 -0.015050585 0.708 4291016871
0.12521911 -0.015029058 0.70700002 4291016871
0.12656212 -0.015028778 0.70700002 4291016869
0.12772426 -0.015007236 0.70599997 4291016869
0.1290655 -0.015006952 0.70599997 4291016871
0.13003738 -0.014964149 0.704 4291016871
0.13118833 -0.0149426 0.70300001 4291016871
0.13214703 -0.014899792 0.70099998 4290951078
0.13347901 -0.014899489 0.70099998 4290819745
0.13481107 -0.014899184 0.70099998 4291017123
0.13594896 -0.014877619 0.69999999 4290820260
0.136887 -0.014834796 0.69800001 4290951846
0.13801552 -0.014813227 0.69700003 4290951848
0.13914028 -0.01479165 0.69599998 4291017641
0.14046314 -0.014791324 0.69599998 4290952361
0.14178605 -0.014790991 0.69599998 4290952361
0.14310902 -0.014790653 0.69599998 4290952107
0.14463961 -0.014811565 0.69700003 4291017900
0.14512692 -0.014726217 0.69300002 4291083696
0.14644437 -0.014725869 0.69300002 4291083696
0.14776187 -0.014725511 0.69300002 4291083948
0.1486492 -0.014682656 0.69099998 4291215534
0.14996301 -0.01468229 0.69099998 4291150256
0.15105794 -0.014660672 0.69 4291216049
0.15237001 -0.014660299 0.69 4291281590
0.15368207 -0.014659918 0.69 4291478969
0.15499425 -0.014659536 0.69 4291478967
0.15630645 -0.014659144 0.69 4291544760
0.15761867 -0.014658747 0.69 4291610040
0.15893102 -0.014658349 0.69 4291610040
0.16024335 -0.01465794 0.69 4291610040
0.16155577 -0.014657527 0.69 4291676089
0.16286825 -0.01465711 0.69 4291807164
0.16418077 -0.014656684 0.69 4291872957
0.16501369 -0.014613776 0.68800002 4291807168
0.16608074 -0.014592099 0.68699998 4291872961
0.16738771 -0.014591659 0.68699998 4291807938
0.16894029 -0.014612455 0.68800002 4291939268
0.17024927 -0.014612003 0.68800002 4292004546
0.1713089 -0.014590304 0.68699998 4292070595
0.17261608 -0.014589843 0.68699998 4292071108
0.17417644 -0.014610607 0.68800002 4292071108
0.17548561 -0.014610129 0.68800002 4292136647
0.1767948 -0.014609646 0.68800002 4292136647
0.17810403 -0.014609156 0.68800002 4292136647
0.17915255 -0.014587428 0.68699998 4292202440
0.18045996 -0.014586924 0.68699998 4292202440
0.18176742 -0.014586415 0.68699998 4292202440
0.18334143 -0.014607131 0.68800002 4292136647
0.18465087 -0.014606609 0.68800002 4292136647
0.18569008 -0.014584849 0.68699998 4292202694
0.18699764 -0.014584313 0.68699998 4292136901
0.18857944 -0.014605 0.68800002 4291940036
0.190441 -0.014646903 0.69 4292137414
0.19175442 -0.014646344 0.69 4292070854
0.19306786 -0.014645776 0.69 4292136647
0.19438136 -0.014645204 0.69 4292136134
0.19569486 -0.01464462 0.69 4292136134
0.1970084 -0.014644032 0.69 4291743429
0.19860938 -0.01466466 0.69099998 4291874758
0.19992489 -0.014664054 0.69099998 4291809735
0.20124038 -0.014663439 0.69099998 4292006857
0.20255589 -0.014662821 0.69099998 4292202953
0.20475659 -0.014725851 0.69400001 4292137160
0.20607789 -0.014725212 0.69400001 4292137160
0.20739919 -0.014724567 0.69400001 4292269003
0.20932196 -0.014766342 0.69599998 4292072139
0.21064712 -0.014765677 0.69599998 4292072139
0.21197224 -0.014765004 0.69599998 4292072139
0.21329741 -0.014764323 0.69599998 4292137933
0.21493092 -0.014784846 0.69700003 4292137931
0.21625802 -0.014784148 0.69700003 4292137931
0.21758507 -0.014783439 0.69700003 4292072142
0.21922626 -0.014803933 0.69800001 4292137935
0.22118716 -0.01484562 0.69999999 4292137935
0.22251996 -0.014844885 0.69999999 4292072142
0.22513187 -0.014928963 0.704 4292072142
0.22647227 -0.014928204 0.704 4292137935
0.22845986 -0.014969843 0.70599997 4292006346
0.22980405 -0.014969062 0.70599997 4292072139
0.23180301 -0.015010675 0.708 4292006094
0.23413891 -0.015073477 0.71100003 4292071888
0.23615497 -0.015115059 0.713 4292072142
0.23751241 -0.015114233 0.713 4292466643
0.2392049 -0.015134597 0.71399999 4292925400
0.1102836 -0.014370693 0.74199998 4291544501
0.11169214 -0.01437044 0.74199998 4291017900
0.11172889 -0.014195881 0.73299998 4290557615
0.11219453 -0.014079425 0.727 4290360492
0.11294986 -0.0140017 0.72299999 4290491297
0.11416446 -0.013982071 0.722 4290688419
0.11521532 -0.013943075 0.72000003 4290623399
0.11658247 -0.013942806 0.72000003 4290623399
0.11794966 -0.01394253 0.72000003 4290754215
0.11915121 -0.013922885 0.71899998 4290820008
0.1200138 -0.013864514 0.71600002 4290623399
0.12086505 -0.01380614 0.713 4290689192
0.12187639 -0.013767126 0.71100003 4290754213
0.12322681 -0.013766836 0.71100003 4290754213
0.12440209 -0.013747175 0.70999998 4290819747
0.1253965 -0.013708153 0.708 4290819747
0.1265624 -0.013688489 0.70700002 4290951074
0.12772456 -0.013668819 0.70599997 4290951074
0.12906581 -0.013668509 0.70599997 4290951078
0.13040711 -0.013668192 0.70599997 4290951078
0.13118865 -0.013609794 0.70300001 4290819495
0.13252439 -0.01360947 0.70300001 4290687908
0.13386017 -0.013609143 0.70300001 4290753701
0.1348114 -0.013570094 0.70099998 4291016617
0.13614351 -0.013569756 0.70099998 4290820260
0.13727956 -0.013550059 0.69999999 4290886053
0.13821387 -0.013510998 0.69800001 4291082662
0.13934056 -0.013491297 0.69700003 4291082662
0.14066532 -0.013490941 0.69700003 4290952361
0.14199014 -0.013490584 0.69700003 4291018154
0.14331502 -0.01349022 0.69700003 4290821289
0.14463995 -0.013489852 0.69700003 4290755496
