# .PCD v0.7 - Point Cloud Data file format
VERSION 0.7
FIELDS x y z rgba
SIZE 4 4 4 4
TYPE F F F U
COUNT 1 1 1 1
WIDTH 1057
HEIGHT 1
VIEWPOINT 0 0 0 1 0 0 0
POINTS 1057
DATA ascii
0.23647706 -0.088995621 0.69800001 4292335575
0.2378047 -0.088995382 0.69800001 4292335575
0.24084526 -0.089632623 0.70300001 4292203989
0.24390478 -0.090269811 0.708 4292203989
0.2459441 -0.090524487 0.70999998 4292269782
0.24764264 -0.090651609 0.71100003 4292532954
0.24899472 -0.090651207 0.71100003 4292467677
0.25034675 -0.090650775 0.71100003 4291546575
0.2516987 -0.090650275 0.71100003 4286748842
0.11360294 -0.092381738 0.736 4293520630
0.11500032 -0.092382617 0.736 4293716708
0.11608149 -0.092132472 0.73400003 4293519586
0.11699506 -0.091756806 0.73100001 4293519586
0.11773533 -0.091255598 0.727 4293519586
0.11878817 -0.09100543 0.72500002 4293519586
0.11966771 -0.090629749 0.722 4293519586
0.12053593 -0.090254068 0.71899998 4293585379
0.12156235 -0.090003915 0.71700001 4293519586
0.12275264 -0.089879274 0.71600002 4293585381
0.12376587 -0.089629099 0.71399999 4293848296
0.12494679 -0.089504458 0.713 4293848550
0.12594683 -0.089254297 0.71100003 4293848550
0.12711835 -0.089129657 0.70999998 4293782757
0.12810522 -0.088879496 0.708 4293848550
0.12926736 -0.088754848 0.70700002 4293979366
0.13061048 -0.088755749 0.70700002 4293979366
0.13139375 -0.088380016 0.704 4293781990
0.1327313 -0.088380918 0.704 4293979112
0.13349757 -0.0880052 0.70099998 4293848550
0.13482952 -0.088006087 0.70099998 4293782757
0.13596728 -0.087881446 0.69999999 4293782503
0.13729742 -0.087882318 0.69999999 4293782503
0.13823153 -0.087632112 0.69800001 4293848044
0.13935806 -0.087507449 0.69700003 4293782251
0.14068267 -0.087508343 0.69700003 4293585381
0.14180359 -0.08738368 0.69599998 4293585381
0.14312637 -0.087384544 0.69599998 4293519588
0.14444922 -0.087385423 0.69599998 4293519588
0.14535327 -0.087135188 0.69400001 4293585379
0.1466724 -0.087136053 0.69400001 4293914343
0.1479916 -0.087136917 0.69400001 4293782244
0.1490957 -0.087012216 0.69300002 4293782244
0.15041311 -0.087013081 0.69300002 4293585379
0.15129264 -0.086762801 0.69099998 4293585379
0.15260634 -0.086763658 0.69099998 4293782757
0.1536973 -0.086638927 0.69 4293914343
0.15500918 -0.086639769 0.69 4293651685
0.15632111 -0.086640596 0.69 4293717478
0.15763307 -0.086641416 0.69 4293651687
0.15894507 -0.086642228 0.69 4293520101
0.15956034 -0.086266331 0.68699998 4293585127
0.16063258 -0.086141571 0.68599999 4293585127
0.16193712 -0.086142354 0.68599999 4293585381
0.16276576 -0.085891999 0.68400002 4293716710
0.16406655 -0.085892767 0.68400002 4293585379
0.16585092 -0.086144686 0.68599999 4293519586
0.16715562 -0.086145431 0.68599999 4293519588
0.16846035 -0.086146198 0.68599999 4293519588
0.16976511 -0.086146936 0.68599999 4293520101
0.17057113 -0.085896499 0.68400002 4293520101
0.17187215 -0.085897222 0.68400002 4293387745
0.17317322 -0.085897923 0.68400002 4293387745
0.17421925 -0.085773043 0.68300003 4293453792
0.17551848 -0.085773729 0.68300003 4293519586
0.1768177 -0.085774407 0.68300003 4293453538
0.17811701 -0.08577507 0.68300003 4293387745
0.17967899 -0.085901298 0.68400002 4293387745
0.18071562 -0.085776366 0.68300003 4293256159
0.18201505 -0.085776985 0.68300003 4293256927
0.18331438 -0.085777596 0.68300003 4293256927
0.18461379 -0.085778184 0.68300003 4293059296
0.18591323 -0.085778765 0.68300003 4293059296
0.18721268 -0.085779324 0.68300003 4293059296
0.18851218 -0.085779883 0.68300003 4293059296
0.18981166 -0.085780412 0.68300003 4292993505
0.19083132 -0.085655347 0.68199998 4292993505
0.19212896 -0.085655831 0.68199998 4292993503
0.19342659 -0.08565633 0.68199998 4292993503
0.19472422 -0.085656777 0.68199998 4292992989
0.1960219 -0.085657246 0.68199998 4292861403
0.19674093 -0.085406467 0.68000001 4292796380
0.19803478 -0.085406892 0.68000001 4293059296
0.19932868 -0.085407287 0.68000001 4292927709
0.20180269 -0.08591006 0.68400002 4292796380
0.20310417 -0.08591041 0.68400002 4292730585
0.20500335 -0.086161956 0.68599999 4292730585
0.20630866 -0.086162269 0.68599999 4292730587
0.20761396 -0.086162575 0.68599999 4292730587
0.20891927 -0.086162843 0.68599999 4292796126
0.21022455 -0.086163096 0.68599999 4292730333
0.21152985 -0.086163335 0.68599999 4292664538
0.21283512 -0.086163536 0.68599999 4292664538
0.21414037 -0.086163722 0.68599999 4292664792
0.21544565 -0.086163878 0.68599999 4292730585
0.21675088 -0.086164005 0.68599999 4292598997
0.21869186 -0.086415336 0.68800002 4292664790
0.21968102 -0.086289801 0.68699998 4292664540
0.22098815 -0.086289875 0.68699998 4292664540
0.22261877 -0.086415507 0.68800002 4292730335
0.22392774 -0.086415507 0.68800002 4292664542
0.22589135 -0.086666681 0.69 4292401882
0.22753333 -0.086792231 0.69099998 4292336089
0.22884788 -0.086792149 0.69099998 4292532954
0.23116167 -0.087168857 0.69400001 4292532954
0.23348682 -0.087545536 0.69700003 4292467161
0.23514956 -0.08767096 0.69800001 4292335575
0.2364773 -0.087670766 0.69800001 4292269782
0.2378049 -0.087670527 0.69800001 4292269782
0.24084558 -0.088298284 0.70300001 4292203989
0.24390511 -0.088925987 0.708 4292203989
0.24594446 -0.089176849 0.70999998 4292204241
0.24729474 -0.089176483 0.70999998 4292270034
0.24899516 -0.089301683 0.71100003 4292336089
0.24999513 -0.089175642 0.70999998 4291941587
0.25134519 -0.089175172 0.70999998 4289575074
0.11360207 -0.090986028 0.736 4293586155
0.11499944 -0.090986893 0.736 4293519588
0.11608062 -0.090740517 0.73400003 4293519588
0.11699417 -0.090370506 0.73100001 4293585381
0.11773445 -0.089876883 0.727 4293519588
0.11845959 -0.089383252 0.72299999 4293519586
0.11916959 -0.088889591 0.71899998 4293585379
0.12053505 -0.088890485 0.71899998 4293585379
0.12156147 -0.08864411 0.71700001 4293585379
0.12275175 -0.088521339 0.71600002 4293585379
0.12376498 -0.088274956 0.71399999 4293716708
0.12494589 -0.0881522 0.713 4293453792
0.12594594 -0.087905809 0.71100003 4293716708
0.12711747 -0.087783046 0.70999998 4293716195
0.1279234 -0.087413028 0.70700002 4293716195
0.12926647 -0.087413907 0.70700002 4293847267
0.13042486 -0.087291144 0.70599997 4293913060
0.13120621 -0.086921088 0.70300001 4293584610
0.13254187 -0.086921968 0.70300001 4293781990
0.13349669 -0.086675562 0.70099998 4293782757
0.13463628 -0.086552784 0.69999999 4293782757
0.13596641 -0.086553663 0.69999999 4293782503
0.13729654 -0.086554535 0.69999999 4293782503
0.13823067 -0.086308107 0.69800001 4293782505
0.13935718 -0.086185329 0.69700003 4293585127
0.14047997 -0.086062551 0.69599998 4293519586
0.14139524 -0.0858161 0.69400001 4293519586
0.14271423 -0.085816957 0.69400001 4293650402
0.14403328 -0.085817814 0.69400001 4293650402
0.14535239 -0.085818671 0.69400001 4293519586
0.14667155 -0.08581952 0.69400001 4293585379
0.14799075 -0.085820369 0.69400001 4293716195
0.14909485 -0.085697562 0.69300002 4293716195
0.15041226 -0.085698396 0.69300002 4293716708
0.1512918 -0.085451908 0.69099998 4293716708
0.15260549 -0.085452735 0.69099998 4293520101
0.15369649 -0.08532989 0.69 4293585894
0.15500835 -0.085330702 0.69 4293651687
0.15632027 -0.085331514 0.69 4293585894
0.15717536 -0.085085005 0.68800002 4293520101
0.15848358 -0.085085794 0.68800002 4293520101
0.1593273 -0.08483924 0.68599999 4293585381
0.16063181 -0.084840029 0.68599999 4293585381
0.16193634 -0.084840804 0.68599999 4293519588
0.162765 -0.08459422 0.68400002 4293519588
0.16406581 -0.08459498 0.68400002 4293454052
0.16585019 -0.084843077 0.68599999 4293454052
0.16666754 -0.08459647 0.68400002 4293454306
0.16796847 -0.084597193 0.68400002 4293454306
0.16926946 -0.08459793 0.68400002 4293322722
0.17057043 -0.084598646 0.68400002 4293322722
0.17187145 -0.084599338 0.68400002 4293387745
0.17291938 -0.084476359 0.68300003 4293387745
0.17421857 -0.084477037 0.68300003 4293322206
0.17551781 -0.084477723 0.68300003 4293322206
0.17655818 -0.084354684 0.68199998 4293256159
0.17785555 -0.084355325 0.68199998 4293256159
0.17915298 -0.084355958 0.68199998 4293321952
0.18045041 -0.084356584 0.68199998 4293321952
0.18174788 -0.084357187 0.68199998 4293059550
0.18304537 -0.084357776 0.68199998 4293059550
0.18461324 -0.084482066 0.68300003 4292993503
0.18591264 -0.084482625 0.68300003 4293059296
0.18721214 -0.084483184 0.68300003 4293059296
0.18823558 -0.084360026 0.68199998 4293059296
0.18953323 -0.084360562 0.68199998 4292993503
0.19027121 -0.084113672 0.68000001 4292993503
0.19156505 -0.084114157 0.68000001 4292993503
0.19285889 -0.084114634 0.68000001 4292796380
0.19415279 -0.084115095 0.68000001 4292730333
0.1954466 -0.08411552 0.68000001 4292796126
0.19674051 -0.084115945 0.68000001 4292927709
0.19803439 -0.08411634 0.68000001 4292993503
0.1993283 -0.084116735 0.68000001 4292730587
0.20062219 -0.0841171 0.68000001 4292796380
0.20310384 -0.084612258 0.68400002 4292730585
0.20440537 -0.084612586 0.68400002 4292664792
0.20630835 -0.084860288 0.68599999 4292598745
0.20761369 -0.084860586 0.68599999 4292664538
0.20891902 -0.084860854 0.68599999 4292664540
0.21022433 -0.0848611 0.68599999 4292664540
0.21152963 -0.084861308 0.68599999 4292664538
0.21283494 -0.084861517 0.68599999 4292664538
0.21414021 -0.084861681 0.68599999 4292664025
0.21544549 -0.084861837 0.68599999 4292664025
0.21706674 -0.084985681 0.68699998 4292532436
0.21869174 -0.08510948 0.68800002 4292598486
0.21968098 -0.084985852 0.68699998 4292664540
0.22098809 -0.084985897 0.68699998 4292664540
0.22261876 -0.085109651 0.68800002 4292533724
0.22392772 -0.085109636 0.68800002 4292467931
0.22621879 -0.085480727 0.69099998 4292336089
0.22753341 -0.085480675 0.69099998 4292336089
0.22951035 -0.085728005 0.69300002 4292467161
0.2311618 -0.08585161 0.69400001 4292467161
0.233487 -0.086222582 0.69700003 4292335575
0.23514976 -0.086346105 0.69800001 4292269782
0.23647746 -0.086345896 0.69800001 4292269782
0.23848656 -0.086593062 0.69999999 4292269782
0.24118842 -0.087087624 0.704 4292073173
0.24356094 -0.087458439 0.70700002 4292073173
0.24490561 -0.087458096 0.70700002 4291941844
0.24729511 -0.087828837 0.70999998 4291941844
0.24864535 -0.087828435 0.70999998 4292270297
0.24999553 -0.087827988 0.70999998 4292796642
0.25134566 -0.087827526 0.70999998 4290361544
0.11390991 -0.089833789 0.73799998 4293717214
0.11499859 -0.08959119 0.736 4293519588
0.11607974 -0.089348599 0.73400003 4293453538
0.1169933 -0.088984273 0.73100001 4293650404
0.11773359 -0.088498205 0.727 4293716197
0.11845873 -0.088012144 0.72299999 4293650402
0.11916874 -0.087526061 0.71899998 4293650402
0.12019891 -0.08728347 0.71700001 4293585379
0.12156058 -0.087284319 0.71700001 4293716708
0.122408 -0.086919963 0.71399999 4293585379
0.12376411 -0.086920835 0.71399999 4293716708
0.12494502 -0.086799957 0.713 4293716708
0.12594508 -0.086557351 0.71100003 4293914343
0.12729564 -0.086558215 0.71100003 4293847013
0.12792251 -0.08607211 0.70700002 4293847013
0.12926558 -0.086072981 0.70700002 4293716197
0.13042398 -0.085952096 0.70599997 4293979112
0.13120535 -0.085587718 0.70300001 4293716197
0.13216393 -0.085345082 0.70099998 4293716197
0.13349582 -0.085345939 0.70099998 4293848037
0.1346354 -0.085225046 0.69999999 4293848037
0.13596553 -0.085225917 0.69999999 4293782757
0.13729569 -0.085226774 0.69999999 4293782757
0.1382298 -0.084984124 0.69800001 4293716710
0.13935633 -0.084863223 0.69700003 4293519588
0.1404791 -0.084742315 0.69599998 4293519586
0.14139438 -0.084499657 0.69400001 4293519586
0.14271338 -0.084500492 0.69400001 4293519584
0.14403243 -0.084501326 0.69400001 4293519584
0.14535156 -0.084502183 0.69400001 4293584608
0.1466707 -0.084503002 0.69400001 4293584608
0.1479899 -0.084503844 0.69400001 4293715684
0.14909402 -0.084382914 0.69300002 4293847013
0.14997733 -0.084140196 0.69099998 4293716197
0.15129097 -0.084141023 0.69099998 4293781990
0.15238382 -0.084020056 0.69 4293716712
0.15369567 -0.084020883 0.69 4293585127
0.15500754 -0.084021673 0.69 4293519847
0.15586637 -0.083778925 0.68800002 4293519847
0.15694612 -0.08365795 0.68699998 4293454052
0.15825242 -0.083658732 0.68699998 4293322722
0.15932652 -0.08353772 0.68599999 4293519586
0.16063103 -0.083538502 0.68599999 4293585379
0.16193557 -0.083539262 0.68599999 4293453538
0.16276424 -0.083296463 0.68400002 4293321952
0.16406505 -0.083297193 0.68400002 4293322206
0.16536592 -0.083297938 0.68400002 4293453792
0.16666684 -0.083298668 0.68400002 4293453792
0.1677222 -0.083177596 0.68300003 4293519586
0.16902126 -0.083178304 0.68300003 4293322206
0.17032036 -0.083179004 0.68300003 4293124828
0.1716195 -0.08317969 0.68300003 4293321952
0.17291869 -0.083180375 0.68300003 4293321952
0.1739628 -0.083059251 0.68199998 4293256159
0.17526016 -0.083059907 0.68199998 4293321952
0.17655751 -0.083060548 0.68199998 4293059296
0.17733334 -0.082817599 0.68000001 4293059296
0.178627 -0.082818225 0.68000001 4293256159
0.1804498 -0.08306241 0.68199998 4293256159
0.1817473 -0.083062999 0.68199998 4293124830
0.18304478 -0.083063588 0.68199998 4293059037
0.18434234 -0.083064154 0.68199998 4293059037
0.18563992 -0.083064713 0.68199998 4293059037
0.1869375 -0.083065256 0.68199998 4293124828
0.18823506 -0.083065785 0.68199998 4293124828
0.1889769 -0.082822695 0.68000001 4292993501
0.19027071 -0.082823195 0.68000001 4292993501
0.19156456 -0.082823664 0.68000001 4292796126
0.19285844 -0.082824133 0.68000001 4292730333
0.1941523 -0.08282458 0.68000001 4292730333
0.19544619 -0.082825005 0.68000001 4292796126
0.19674011 -0.082825407 0.68000001 4292796380
0.19803399 -0.082825802 0.68000001 4292927709
0.19932795 -0.082826182 0.68000001 4292730587
0.20062181 -0.082826532 0.68000001 4292730587
0.20280659 -0.083192289 0.68300003 4292730585
0.20440504 -0.083314419 0.68400002 4292598999
0.20570658 -0.083314709 0.68400002 4292532952
0.20761344 -0.083558604 0.68599999 4292467159
0.20891874 -0.083558843 0.68599999 4292598747
0.21022411 -0.083559088 0.68599999 4292598747
0.21152942 -0.083559304 0.68599999 4292532952
0.21283476 -0.083559491 0.68599999 4292598745
0.21414007 -0.083559662 0.68599999 4292532952
0.21544537 -0.083559804 0.68599999 4292532952
0.2170666 -0.083681732 0.68699998 4292532952
0.21869165 -0.083803639 0.68800002 4292467159
0.21968088 -0.083681896 0.68699998 4292598745
0.22098807 -0.083681948 0.68699998 4292664538
0.22261876 -0.08380378 0.68800002 4292533722
0.22392774 -0.08380378 0.68800002 4292467929
0.22621883 -0.084169164 0.69099998 4292336089
0.2275335 -0.084169112 0.69099998 4292336089
0.22951046 -0.084412634 0.69300002 4292467161
0.23116192 -0.084534325 0.69400001 4292467161
0.23348716 -0.084899604 0.69700003 4292269782
0.23514996 -0.085021242 0.69800001 4292203989
0.23647772 -0.085021026 0.69800001 4292269782
0.23848681 -0.0852644 0.69999999 4292269782
0.24118869 -0.085751355 0.704 4292203987
0.24321674 -0.085994668 0.70599997 4292203987
0.2445595 -0.085994326 0.70599997 4291875540
0.24659888 -0.086237587 0.708 4291612368
0.24794535 -0.08623717 0.708 4292072149
0.24999598 -0.086480342 0.70999998 4292927458
0.25134617 -0.08647988 0.70999998 4291347926
0.11110686 -0.088432685 0.73799998 4293453302
0.11250792 -0.088433512 0.73799998 4293848037
0.11360037 -0.088194698 0.736 4293584608
0.11468525 -0.08795587 0.73400003 4293518815
0.11607888 -0.087956712 0.73400003 4293518815
0.11699245 -0.087598056 0.73100001 4293649890
0.11740883 -0.086879902 0.72500002 4293847013
0.11845787 -0.086641066 0.72299999 4293847267
0.11916788 -0.086162552 0.71899998 4293715682
0.12019804 -0.085923739 0.71700001 4293453790
0.12139021 -0.085804746 0.71600002 4293716962
0.12240715 -0.085565902 0.71399999 4293585892
0.12358994 -0.085446909 0.713 4293585892
0.12459371 -0.085208073 0.71100003 4293716708
0.12576708 -0.08508908 0.70999998 4293716708
0.12657864 -0.084730394 0.70700002 4293913060
0.12774071 -0.084611379 0.70599997 4293913060
0.1290819 -0.084612228 0.70599997 4293847267
0.13005365 -0.084373385 0.704 4293913060
0.13120449 -0.084254377 0.70300001 4293848037
0.13216308 -0.084015526 0.70099998 4293848037
0.13349497 -0.08401636 0.70099998 4293716195
0.13463458 -0.08389736 0.69999999 4293782244
0.13596468 -0.083898194 0.69999999 4293585381
0.13729481 -0.083899036 0.69999999 4293585381
0.13822895 -0.083660163 0.69800001 4293585381
0.13935547 -0.083541147 0.69700003 4293519588
0.14007457 -0.083182402 0.69400001 4293387999
0.14139356 -0.083183229 0.69400001 4293387999
0.14271255 -0.083184063 0.69400001 4293453790
0.14403161 -0.083184883 0.69400001 4293519584
0.14535072 -0.08318571 0.69400001 4293715682
0.14666986 -0.083186515 0.69400001 4293715682
0.14777583 -0.083067469 0.69300002 4293649890
0.14866291 -0.082828544 0.69099998 4293715684
0.14997652 -0.082829356 0.69099998 4293453538
0.15107124 -0.082710296 0.69 4293585381
0.15194134 -0.082471348 0.68800002 4293585127
0.15324938 -0.082472123 0.68800002 4293519334
0.15455745 -0.082472913 0.68800002 4293519588
0.15586561 -0.082473703 0.68800002 4293519588
0.15694532 -0.08235459 0.68699998 4293519588
0.15802129 -0.082235478 0.68599999 4293519588
0.15932576 -0.082236245 0.68599999 4293453538
0.16063027 -0.08223699 0.68599999 4293321952
0.16193481 -0.082237735 0.68599999 4293387486
0.16276351 -0.081998713 0.68400002 4293387486
0.1640643 -0.081999436 0.68400002 4293387999
0.1653652 -0.082000159 0.68400002 4293387999
0.16666609 -0.082000874 0.68400002 4293256157
0.16772148 -0.081881694 0.68300003 4293256157
0.16902058 -0.081882395 0.68300003 4293256157
0.17007029 -0.081763178 0.68199998 4293322206
0.17136756 -0.081763841 0.68199998 4293191134
0.17266484 -0.081764512 0.68199998 4293191134
0.17396215 -0.081765167 0.68199998 4293191136
0.17525949 -0.081765801 0.68199998 4293191136
0.17655689 -0.081766441 0.68199998 4293125089
0.17733271 -0.081527263 0.68000001 4293059296
0.17862639 -0.081527874 0.68000001 4293189599
0.18044919 -0.081768252 0.68199998 4293321441
0.18174671 -0.081768848 0.68199998 4293255646
0.18304425 -0.081769414 0.68199998 4293124059
0.18434179 -0.081769958 0.68199998 4293059037
0.18563934 -0.081770495 0.68199998 4293059037
0.18693697 -0.081771038 0.68199998 4293189853
0.18823457 -0.081771553 0.68199998 4293255646
0.18897641 -0.081532255 0.68000001 4293059035
0.19027025 -0.081532732 0.68000001 4293059035
0.1915641 -0.081533186 0.68000001 4292796378
0.19285798 -0.081533656 0.68000001 4292796378
0.19415186 -0.08153408 0.68000001 4292664538
0.19544576 -0.08153449 0.68000001 4292730587
0.1967397 -0.081534892 0.68000001 4292796380
0.19803365 -0.08153528 0.68000001 4292796380
0.19932756 -0.081535637 0.68000001 4292467159
0.20062147 -0.081535988 0.68000001 4292664538
0.20250931 -0.081776127 0.68199998 4292598745
0.20380707 -0.081776425 0.68199998 4292598745
0.20540555 -0.081896618 0.68300003 4292598999
0.2070079 -0.082016811 0.68400002 4292598999
0.20891847 -0.082256861 0.68599999 4292598747
0.209611 -0.082017288 0.68400002 4292598747
0.21091254 -0.082017481 0.68400002 4292598745
0.21221407 -0.08201766 0.68400002 4292598745
0.21413991 -0.082257643 0.68599999 4292467159
0.21544521 -0.08225777 0.68599999 4292467159
0.21706647 -0.082377791 0.68699998 4292532952
0.2186916 -0.082497813 0.68800002 4292467159
0.21968088 -0.082377955 0.68699998 4292467159
0.22098804 -0.082377993 0.68699998 4292532952
0.22261876 -0.082497932 0.68800002 4292532952
0.22392775 -0.082497917 0.68800002 4292532952
0.22621888 -0.082857601 0.69099998 4292401882
0.22753356 -0.082857549 0.69099998 4292336089
0.2288482 -0.082857452 0.69099998 4292007380
0.23116204 -0.083217055 0.69400001 4292204502
0.23315229 -0.083456717 0.69599998 4292270036
0.23481326 -0.083576463 0.69700003 4292270036
0.23647794 -0.083696172 0.69800001 4292269782
0.23882776 -0.08405564 0.70099998 4292203989
0.241189 -0.084415101 0.704 4292138196
0.24321702 -0.084654614 0.70599997 4292138196
0.2445599 -0.084654279 0.70599997 4291743440
0.24625096 -0.084773824 0.70700002 4291743440
0.2479458 -0.084893323 0.708 4291809231
0.24999647 -0.085132703 0.70999998 4292664540
0.25134665 -0.085132226 0.70999998 4292006106
0.10970504 -0.087032497 0.73799998 4288651442
0.11110605 -0.087033302 0.73799998 4293520380
0.11220222 -0.086798258 0.736 4293848037
0.11329084 -0.086563207 0.73400003 4293387486
0.11468441 -0.086564034 0.73400003 4293387486
0.11607805 -0.086564861 0.73400003 4293387486
0.11747174 -0.086565681 0.73400003 4293649888
0.11740801 -0.085505076 0.72500002 4293649888
0.11845703 -0.08527001 0.72299999 4293649888
0.11916705 -0.084799081 0.71899998 4293649888
0.1201972 -0.084564038 0.71700001 4293584606
0.12138935 -0.084446914 0.71600002 4293782242
0.12223487 -0.084093906 0.713 4293782242
0.1232424 -0.083858848 0.71100003 4293782242
0.12459286 -0.083859675 0.71100003 4293716195
0.12523483 -0.083388723 0.70700002 4293650402
0.12639876 -0.0832716 0.70599997 4293847267
0.127378 -0.08303652 0.704 4293847267
0.12853256 -0.082919404 0.70300001 4293847267
0.12949863 -0.082684338 0.70099998 4293715682
0.13083039 -0.082685143 0.70099998 4293716195
0.13197371 -0.08256802 0.69999999 4293716195
0.1333037 -0.082568854 0.69999999 4293716195
0.13424908 -0.082333758 0.69800001 4293782244
0.13557538 -0.082334585 0.69800001 4293716197
0.13670559 -0.082217447 0.69700003 4293716197
0.1380301 -0.082218267 0.69700003 4293519588
0.13935465 -0.082219087 0.69700003 4293519588
0.14007376 -0.081866026 0.69400001 4293453792
0.14139272 -0.081866831 0.69400001 4293387999
0.14271173 -0.081867635 0.69400001 4293387995
0.14382327 -0.08175049 0.69300002 4293454044
0.14514047 -0.081751287 0.69300002 4293584608
0.14603506 -0.081516154 0.69099998 4293584608
0.14734857 -0.081516944 0.69099998 4293584610
0.14844698 -0.081399769 0.69 4293584610
0.1497587 -0.081400558 0.69 4293650404
0.15107043 -0.081401341 0.69 4293650404
0.15194057 -0.081166178 0.68800002 4293519588
0.15324861 -0.081166953 0.68800002 4293519588
0.15455671 -0.08116772 0.68800002 4293453538
0.15541172 -0.080932513 0.68599999 4293453538
0.15671611 -0.080933265 0.68599999 4293519586
0.15802056 -0.080934018 0.68599999 4293519586
0.15932502 -0.080934763 0.68599999 4293387745
0.16062951 -0.080935493 0.68599999 4293256159
0.16193409 -0.080936223 0.68599999 4293322206
0.16276276 -0.080700979 0.68400002 4293387999
0.1640636 -0.080701701 0.68400002 4293518813
0.16536449 -0.080702402 0.68400002 4293387484
0.16666542 -0.080703102 0.68400002 4293321693
0.16772079 -0.080585793 0.68300003 4293321693
0.16901988 -0.080586471 0.68300003 4293321693
0.17006962 -0.080469146 0.68199998 4293387486
0.17136689 -0.080469809 0.68199998 4293322206
0.17266418 -0.080470443 0.68199998 4293387999
0.17396149 -0.080471091 0.68199998 4293191134
0.17525887 -0.080471717 0.68199998 4293059548
0.17655624 -0.080472328 0.68199998 4293125089
0.17785369 -0.080472939 0.68199998 4293125089
0.17915115 -0.08047352 0.68199998 4293058783
0.18044861 -0.080474101 0.68199998 4293058783
0.18174614 -0.080474675 0.68199998 4292992989
0.18304366 -0.080475233 0.68199998 4292992989
0.18434124 -0.08047577 0.68199998 4292927707
0.18563882 -0.080476314 0.68199998 4292927707
0.18693644 -0.08047682 0.68199998 4292927194
0.18823405 -0.080477327 0.68199998 4292992987
0.1895317 -0.080477796 0.68199998 4292927961
0.19082937 -0.080478273 0.68199998 4292796632
0.19156367 -0.080242731 0.68000001 4292927961
0.19285753 -0.080243163 0.68000001 4292927961
0.19415146 -0.080243595 0.68000001 4292664538
0.19544539 -0.08024399 0.68000001 4292730587
0.19673935 -0.080244385 0.68000001 4292796378
0.19803326 -0.08024475 0.68000001 4292796378
0.19932722 -0.0802451 0.68000001 4292598747
0.20062117 -0.080245435 0.68000001 4292796126
0.20191514 -0.080245748 0.68000001 4292598745
0.20320913 -0.080246046 0.68000001 4292532952
0.20510456 -0.080482334 0.68199998 4292533204
0.20670499 -0.080600612 0.68300003 4292598997
0.2083092 -0.080718867 0.68400002 4292664540
0.20961079 -0.080719076 0.68400002 4292664540
0.21091235 -0.08071927 0.68400002 4292598745
0.2122139 -0.080719441 0.68400002 4292532952
0.21413974 -0.08095561 0.68599999 4292467159
0.21544512 -0.080955736 0.68599999 4292467159
0.21675043 -0.080955848 0.68599999 4292467159
0.21837363 -0.081073932 0.68699998 4292467159
0.21968082 -0.081074007 0.68699998 4292467159
0.22130968 -0.081192054 0.68800002 4292467159
0.22261874 -0.081192054 0.68800002 4292467161
0.22392781 -0.081192046 0.68800002 4292467161
0.22621892 -0.081546023 0.69099998 4292336343
0.22753362 -0.081545956 0.69099998 4292336343
0.22884826 -0.08154586 0.69099998 4292203989
0.23116219 -0.08189977 0.69400001 4292203989
0.23315246 -0.08213564 0.69599998 4292270034
0.23481345 -0.082253478 0.69700003 4292270034
0.23647816 -0.082371287 0.69800001 4292203987
0.23950942 -0.08296109 0.70300001 4292138194
0.24118926 -0.083078824 0.704 4292138196
0.24252833 -0.083078519 0.704 4292138196
0.24456026 -0.08331421 0.70599997 4291743953
0.245903 -0.08331383 0.70599997 4291612368
0.24724577 -0.083313428 0.70599997 4291743690
0.24894057 -0.08343102 0.70700002 4292598999
0.25134715 -0.083784565 0.70999998 4292334553
0.10970424 -0.085633181 0.73799998 4289965496
0.11080414 -0.0854019 0.736 4293847283
0.11189651 -0.085170619 0.73400003 4293585379
0.11313567 -0.085055381 0.73299998 4293256157
0.11452734 -0.085056178 0.73299998 4293321693
0.11560281 -0.084824912 0.73100001 4293518815
0.11683077 -0.084709689 0.73000002 4293584095
0.11773108 -0.084362365 0.727 4293649888
0.11845622 -0.083899006 0.72299999 4293584608
0.11916624 -0.083435632 0.71899998 4293584608
0.12019639 -0.083204359 0.71700001 4293584608
0.12155807 -0.083205171 0.71700001 4293782244
0.12223408 -0.082741797 0.713 4293650402
0.1232416 -0.082510516 0.71100003 4293650402
0.12459205 -0.082511321 0.71100003 4293716195
0.12523402 -0.082047924 0.70700002 4293716195
0.12639794 -0.081932679 0.70599997 4293650402
0.12719627 -0.081585333 0.70300001 4293650402
0.12853175 -0.081586152 0.70300001 4293650402
0.12949781 -0.081354849 0.70099998 4293650402
0.13064294 -0.081239596 0.69999999 4293650402
0.13197288 -0.081240408 0.69999999 4293650402
0.13292201 -0.08100909 0.69800001 4293519586
0.13424827 -0.081009902 0.69800001 4293519586
0.13538034 -0.080894656 0.69700003 4293453538
0.13670479 -0.080895454 0.69700003 4293519588
0.13802928 -0.080896258 0.69700003 4293519588
0.13935384 -0.080897048 0.69700003 4293519588
0.14007294 -0.080549657 0.69400001 4293584608
0.14139193 -0.080550455 0.69400001 4293584608
0.1425053 -0.080435187 0.69300002 4293387997
0.14382246 -0.080435969 0.69300002 4293453790
0.14472079 -0.080204614 0.69099998 4293387999
0.14603426 -0.080205396 0.69099998 4293322206
0.14734776 -0.080206178 0.69099998 4293387745
0.14844619 -0.080090873 0.69 4293453538
0.14975791 -0.080091655 0.69 4293453538
0.1506318 -0.079860277 0.68800002 4293519588
0.15171893 -0.079744942 0.68699998 4293519588
0.15302509 -0.079745688 0.68699998 4293453538
0.15433128 -0.079746455 0.68699998 4293453538
0.15541098 -0.079631113 0.68599999 4293453538
0.15671536 -0.07963185 0.68599999 4293387999
0.1580198 -0.079632573 0.68599999 4293387999
0.15932429 -0.07963331 0.68599999 4293387999
0.16062881 -0.079634026 0.68599999 4293124828
0.16146126 -0.079402573 0.68400002 4293124828
0.16276205 -0.079403274 0.68400002 4293256157
0.1640629 -0.079403967 0.68400002 4293255898
0.16536379 -0.07940466 0.68400002 4293321691
0.16642109 -0.079289258 0.68300003 4293255131
0.16772012 -0.079289921 0.68300003 4293255131
0.16901924 -0.079290591 0.68300003 4293189851
0.17006898 -0.07917513 0.68199998 4293189851
0.17136621 -0.079175778 0.68199998 4293124828
0.17266355 -0.079176411 0.68199998 4293059035
0.17396091 -0.079177044 0.68199998 4292993501
0.17525826 -0.07917764 0.68199998 4292993501
0.17603789 -0.078946047 0.68000001 4292992989
0.17733154 -0.078946643 0.68000001 4293058783
0.17862521 -0.078947216 0.68000001 4293124830
0.1804481 -0.079179987 0.68199998 4293124830
0.18174562 -0.079180539 0.68199998 4292796380
0.18304314 -0.079181075 0.68199998 4292927709
0.18434072 -0.079181604 0.68199998 4292993501
0.18563831 -0.079182111 0.68199998 4292993501
0.18693593 -0.079182617 0.68199998 4292796380
0.18823357 -0.079183102 0.68199998 4292927709
0.18953125 -0.079183586 0.68199998 4292796632
0.19082892 -0.079184033 0.68199998 4292796632
0.19212662 -0.079184473 0.68199998 4292796632
0.19285712 -0.0789527 0.68000001 4292796632
0.19415104 -0.078953095 0.68000001 4292335829
0.19544497 -0.07895349 0.68000001 4292664538
0.19673896 -0.07895387 0.68000001 4292730585
0.19774167 -0.07883811 0.67900002 4292730585
0.19903375 -0.07883846 0.67900002 4292467159
0.20062084 -0.078954883 0.68000001 4292664538
0.20191482 -0.078955188 0.68000001 4292664538
0.20320882 -0.078955479 0.68000001 4292598745
0.20450282 -0.078955747 0.68000001 4292270036
0.20640208 -0.079188213 0.68199998 4292532952
0.20830898 -0.079420663 0.68400002 4292598747
0.20930412 -0.07930477 0.68300003 4292467161
0.2106038 -0.079304956 0.68300003 4292467159
0.21221377 -0.079421237 0.68400002 4292467159
0.21351531 -0.079421379 0.68400002 4292467159
0.21544495 -0.079653703 0.68599999 4292467159
0.21675035 -0.079653814 0.68599999 4292335829
0.21805571 -0.079653889 0.68599999 4292335829
0.21968076 -0.079770051 0.68699998 4292467159
0.22098799 -0.079770081 0.68699998 4292467159
0.22229515 -0.079770081 0.68699998 4292335829
0.22392781 -0.079886168 0.68800002 4292335829
0.22589161 -0.080118358 0.69 4292335829
0.22720443 -0.080118276 0.69 4292270036
0.22884838 -0.080234289 0.69099998 4292203989
0.23116234 -0.080582507 0.69400001 4292203989
0.23348762 -0.080930687 0.69700003 4292006608
0.23515055 -0.081046619 0.69800001 4292006608
0.23715597 -0.08127863 0.69999999 4292138194
0.23882824 -0.081394486 0.70099998 4292203987
0.24084698 -0.081626445 0.70300001 4292138194
0.24252869 -0.081742242 0.704 4292138194
0.24386777 -0.081741907 0.704 4291743951
0.24520682 -0.081741534 0.704 4291743951
0.24654581 -0.081741139 0.704 4291677643
0.24858893 -0.081972927 0.70599997 4292467159
0.11080336 -0.084006377 0.736 4293585138
0.11189572 -0.083778873 0.73400003 4293519586
0.11282619 -0.083437227 0.73100001 4293322206
0.11421408 -0.083438016 0.73100001 4293387482
0.11544387 -0.083324671 0.73000002 4293519067
0.11682994 -0.083325438 0.73000002 4293584095
0.11773027 -0.082983799 0.727 4293584095
0.11878312 -0.082756311 0.72500002 4293518815
0.11883397 -0.08184392 0.71700001 4293518815
0.1201956 -0.08184471 0.71700001 4293584610
0.12155727 -0.0818455 0.71700001 4293716197
0.12223326 -0.081389695 0.713 4293650402
0.12324078 -0.081162184 0.71100003 4293650402
0.12459125 -0.081162989 0.71100003 4293716449
0.12523322 -0.080707163 0.70700002 4293782242
0.12639715 -0.080593795 0.70599997 4293650656
0.12719548 -0.080252126 0.70300001 4293650656
0.12853093 -0.080252916 0.70300001 4293584608
0.12949701 -0.08002539 0.70099998 4293584608
0.13064215 -0.079912014 0.69999999 4293584608
0.13197209 -0.079912812 0.69999999 4293584608
0.13292122 -0.079685271 0.69800001 4293584608
0.13424747 -0.079686068 0.69800001 4293584608
0.13537954 -0.079572678 0.69700003 4293584610
0.136704 -0.079573482 0.69700003 4293650404
0.13802849 -0.079574257 0.69700003 4293650402
0.13915312 -0.079460874 0.69599998 4293584608
0.14007215 -0.079233311 0.69400001 4293584608
0.14139113 -0.079234093 0.69400001 4293518815
0.14250451 -0.079120703 0.69300002 4293518813
0.14382167 -0.079121478 0.69300002 4293584606
0.14472002 -0.078893885 0.69099998 4293584608
0.14582215 -0.07878048 0.69 4293518815
0.14713375 -0.07878124 0.69 4293387745
0.14844544 -0.078782007 0.69 4293387745
0.14932306 -0.078554399 0.68800002 4293453538
0.1504121 -0.078440979 0.68699998 4293519588
0.15171818 -0.078441702 0.68699998 4293650402
0.15302433 -0.078442439 0.68699998 4293518815
0.15433054 -0.078443177 0.68699998 4293453792
0.15541026 -0.078329727 0.68599999 4293519586
0.15671462 -0.078330435 0.68599999 4293387999
0.15801908 -0.07833115 0.68599999 4293387999
0.15932357 -0.078331873 0.68599999 4293387486
0.1601598 -0.078104191 0.68400002 4293255644
0.16146055 -0.078104883 0.68400002 4293321693
0.16252343 -0.077991396 0.68300003 4293255644
0.16382235 -0.077992067 0.68300003 4293255644
0.16512138 -0.077992737 0.68300003 4293321693
0.1664204 -0.0779934 0.68300003 4293189851
0.1674739 -0.077879861 0.68199998 4293189851
0.16877109 -0.077880494 0.68199998 4293124057
0.16956961 -0.077652745 0.68000001 4293124057
0.17086309 -0.077653371 0.68000001 4293059037
0.17215662 -0.077653997 0.68000001 4292992987
0.17345016 -0.077654593 0.68000001 4292993241
0.17474373 -0.077655189 0.68000001 4293059035
0.17603733 -0.07765577 0.68000001 4293058783
0.17733096 -0.077656336 0.68000001 4292992989
0.17862464 -0.077656902 0.68000001 4293059037
0.17991833 -0.077657454 0.68000001 4293059037
0.18174502 -0.077886388 0.68199998 4292927707
0.18304259 -0.077886917 0.68199998 4292927707
0.18434022 -0.077887438 0.68199998 4292993755
0.18563779 -0.07788793 0.68199998 4293125341
0.18693547 -0.077888422 0.68199998 4292927712
0.18823311 -0.077888884 0.68199998 4292796126
0.18953077 -0.077889346 0.68199998 4292730585
0.19082849 -0.077889808 0.68199998 4292730585
0.1921262 -0.077890225 0.68199998 4292861655
0.1928567 -0.077662222 0.68000001 4292795606
0.19386512 -0.0775484 0.67900002 4292664792
0.1951572 -0.077548794 0.67900002 4292664792
0.19644925 -0.077549152 0.67900002 4292730583
0.19774133 -0.077549495 0.67900002 4292730583
0.19903347 -0.077549838 0.67900002 4292598745
0.20032549 -0.077550128 0.67900002 4292598745
0.20161761 -0.077550426 0.67900002 4292598999
0.20290975 -0.077550709 0.67900002 4292664792
0.20450255 -0.077665173 0.68000001 4292335575
0.20640185 -0.077893823 0.68199998 4292335575
0.20800424 -0.078008272 0.68300003 4292467161
0.20930396 -0.078008473 0.68300003 4292467161
0.21060362 -0.078008637 0.68300003 4292335829
0.21221358 -0.078123003 0.68400002 4292335829
0.21351519 -0.078123145 0.68400002 4292335827
0.21544489 -0.078351691 0.68599999 4292335827
0.21675026 -0.078351773 0.68599999 4292467159
0.21805562 -0.07835184 0.68599999 4292270036
0.21968071 -0.078466095 0.68699998 4292335829
0.22098798 -0.078466117 0.68699998 4292335829
0.22229517 -0.07846611 0.68699998 4292270034
0.22392786 -0.078580305 0.68800002 4292270034
0.22589168 -0.078808688 0.69 4292138196
0.2272045 -0.078808591 0.69 4292138196
0.22884849 -0.078922696 0.69099998 4292072401
0.23116249 -0.079265222 0.69400001 4292138194
0.2334878 -0.079607703 0.69700003 4292137683
0.23515072 -0.079721734 0.69800001 4292071890
0.23715621 -0.07994993 0.69999999 4292138448
0.23882854 -0.080063902 0.70099998 4292138448
0.24084727 -0.080292046 0.70300001 4292138448
0.24252899 -0.080405943 0.704 4292138448
0.24386816 -0.080405623 0.704 4291875278
0.24520719 -0.08040525 0.704 4291875278
0.24654619 -0.08040484 0.704 4291677132
0.24788514 -0.080404408 0.704 4292006096
0.11080261 -0.082610883 0.736 4293454572
0.11219984 -0.082611643 0.736 4293387999
0.11282542 -0.08205118 0.73100001 4293322206
0.11421332 -0.082051948 0.73100001 4293584347
0.11544309 -0.08194048 0.73000002 4293650140
0.11682916 -0.08194124 0.73000002 4293584095
0.11789142 -0.081717521 0.72799999 4293584095
0.11878232 -0.081381552 0.72500002 4293518815
0.1188332 -0.080484316 0.71700001 4293387486
0.12019482 -0.080485091 0.71700001 4293518815
0.12155648 -0.080485865 0.71700001 4293650402
0.12291823 -0.080486648 0.71700001 4293584608
0.12272 -0.079477124 0.708 4293518815
0.12371429 -0.079253383 0.70599997 4293518815
0.1250553 -0.07925415 0.70599997 4293518815
0.12603828 -0.079030409 0.704 4293584608
0.12737562 -0.079031184 0.704 4293584608
0.12853016 -0.078919709 0.70300001 4293518815
0.12949622 -0.078695945 0.70099998 4293584608
0.13064136 -0.078584455 0.69999999 4293518815
0.13197131 -0.07858523 0.69999999 4293518815
0.13292043 -0.078361467 0.69800001 4293518813
0.13424669 -0.078362241 0.69800001 4293584606
0.13537875 -0.078250743 0.69700003 4293518815
0.13670322 -0.078251518 0.69700003 4293584608
0.13782968 -0.078140005 0.69599998 4293715682
0.13915235 -0.07814078 0.69599998 4293715682
0.14007138 -0.077916987 0.69400001 4293584095
0.14139035 -0.077917755 0.69400001 4293584095
0.14188686 -0.077469423 0.69 4293584347
0.14278325 -0.077245615 0.68800002 4293650140
0.14409097 -0.07724636 0.68800002 4293518815
0.14539872 -0.077247113 0.68800002 4293518815
0.14713302 -0.077472404 0.69 4293518815
0.14844468 -0.077473149 0.69 4293518815
0.14932232 -0.077249318 0.68800002 4293189853
0.15041135 -0.077137761 0.68699998 4293518561
0.15171745 -0.077138484 0.68699998 4293584608
0.15302362 -0.077139206 0.68699998 4293584608
0.15432982 -0.077139921 0.68699998 4293387999
0.15540953 -0.077028349 0.68599999 4293322206
0.15671392 -0.077029042 0.68599999 4293322206
0.15801838 -0.077029757 0.68599999 4293124828
0.15932286 -0.077030443 0.68599999 4293255644
0.1601591 -0.076806545 0.68400002 4293255644
0.16145988 -0.076807223 0.68400002 4293124057
0.16252275 -0.076695606 0.68300003 4293124057
0.1638217 -0.076696262 0.68300003 4292993241
0.16512074 -0.076696925 0.68300003 4293256157
0.16641974 -0.076697558 0.68300003 4293059548
0.16747326 -0.076585904 0.68199998 4292927961
0.16877045 -0.076586522 0.68199998 4292926935
0.169569 -0.076362558 0.68000001 4293189851
0.17086247 -0.076363169 0.68000001 4293255646
0.17215599 -0.076363772 0.68000001 4293189853
0.17344955 -0.076364353 0.68000001 4293059035
0.17474315 -0.076364927 0.68000001 4293059035
0.17603673 -0.076365493 0.68000001 4293058783
0.17733042 -0.076366052 0.68000001 4292992989
0.17862409 -0.076366603 0.68000001 4292927707
0.1799178 -0.076367125 0.68000001 4292927707
0.18174453 -0.076592259 0.68199998 4292993755
0.18304209 -0.076592766 0.68199998 4292927961
0.1843397 -0.076593272 0.68199998 4292927961
0.1856373 -0.076593757 0.68199998 4292927961
0.18720911 -0.076706551 0.68300003 4292730587
0.18823262 -0.076594681 0.68199998 4292796380
0.18953033 -0.076595128 0.68199998 4292730585
0.19082807 -0.07659556 0.68199998 4292664792
0.19212581 -0.076595984 0.68199998 4292664277
0.1928563 -0.076371752 0.68000001 4292795606
0.19386478 -0.076259829 0.67900002 4292795606
0.19515683 -0.076260194 0.67900002 4292795606
0.19644891 -0.076260552 0.67900002 4292598999
0.197741 -0.07626088 0.67900002 4292796378
0.19903311 -0.0762612 0.67900002 4292664790
0.20032521 -0.076261498 0.67900002 4292598997
0.20161735 -0.076261781 0.67900002 4292270034
0.20290948 -0.076262042 0.67900002 4292467156
0.20450231 -0.076374598 0.68000001 4292335829
0.2064016 -0.076599441 0.68199998 4292467159
0.20800403 -0.076711982 0.68300003 4292467161
0.20930374 -0.076712169 0.68300003 4292335575
0.21060351 -0.076712333 0.68300003 4292335829
0.21221346 -0.076824792 0.68400002 4292335829
0.21351504 -0.076824911 0.68400002 4292204241
0.2148167 -0.076825023 0.68400002 4292335827
0.21611828 -0.076825105 0.68400002 4292335827
0.21805558 -0.077049792 0.68599999 4292335827
0.21968071 -0.077162139 0.68699998 4292138448
0.22130966 -0.077274472 0.68800002 4292270034
0.22261877 -0.077274464 0.68800002 4292138448
0.2239279 -0.077274427 0.68800002 4292204241
0.22589175 -0.077499002 0.69 4292204241
0.22720461 -0.077498905 0.69 4292204241
0.22884859 -0.077611111 0.69099998 4292072401
0.23082957 -0.077835619 0.69300002 4292072401
0.23348801 -0.078284718 0.69700003 4292072401
0.23515092 -0.078396827 0.69800001 4292072401
0.23749524 -0.078733556 0.70099998 4292072401
0.23951019 -0.07895793 0.70300001 4292072401
0.24084754 -0.078957655 0.70300001 4291875278
0.24252932 -0.079069652 0.704 4291875278
0.24386853 -0.079069316 0.704 4291611852
0.24520755 -0.079068936 0.704 4291677645
0.24654663 -0.079068534 0.704 4291545545
0.24788558 -0.079068102 0.704 4291940047
0.1121991 -0.081216164 0.736 4293387997
0.11267033 -0.080554821 0.73000002 4293322204
0.1140563 -0.080555566 0.73000002 4293321689
0.11544233 -0.080556318 0.73000002 4293321689
0.11682838 -0.080557071 0.73000002 4293387486
0.11772872 -0.080226772 0.727 4293321693
0.11845387 -0.079786114 0.72299999 4293452509
0.11883243 -0.079124749 0.71700001 4293452509
0.11969115 -0.078794435 0.71399999 4293518302
0.1210471 -0.07879518 0.71399999 4293715682
0.12137455 -0.078133784 0.708 4293584606
0.12271924 -0.078134544 0.708 4293518813
0.12388877 -0.078024946 0.70700002 4293518815
0.12505452 -0.077915326 0.70599997 4293387486
0.12603754 -0.07769537 0.704 4293387486
0.12737484 -0.07769613 0.704 4293387486
0.12852938 -0.077586517 0.70300001 4293518815
0.12949544 -0.077366546 0.70099998 4293584608
0.13082722 -0.077367291 0.70099998 4293518813
0.13197055 -0.077257685 0.69999999 4293518813
0.13330054 -0.077258438 0.69999999 4293387482
0.13424592 -0.077038452 0.69800001 4293584860
0.13537799 -0.076928832 0.69700003 4293518815
0.13670246 -0.076929599 0.69700003 4293518815
0.13782893 -0.076819956 0.69599998 4293518815
0.1391516 -0.076820709 0.69599998 4293584608
0.14007065 -0.076600701 0.69400001 4293518813
0.14138961 -0.076601438 0.69400001 4293518813
0.14188612 -0.076160677 0.69 4293387484
0.14278252 -0.075940654 0.68800002 4293387484
0.14409024 -0.075941376 0.68800002 4293518813
0.14539801 -0.075942107 0.68800002 4293387484
0.14713228 -0.076163597 0.69 4293518815
0.14844395 -0.07616432 0.69 4293518815
0.14975567 -0.07616502 0.69 4293321439
0.15062959 -0.075944982 0.68800002 4293321439
0.15193757 -0.075945675 0.68800002 4293518815
0.15324566 -0.075946383 0.68800002 4293650402
0.15432914 -0.075836696 0.68699998 4293518813
0.15540884 -0.075726993 0.68599999 4293387484
0.15671323 -0.075727679 0.68599999 4293255646
0.15801768 -0.075728364 0.68599999 4293189853
0.15932219 -0.075729035 0.68599999 4293189599
0.16015844 -0.075508915 0.68400002 4293189599
0.16145919 -0.075509578 0.68400002 4293124059
0.16252209 -0.075399838 0.68300003 4293124059
0.16382104 -0.075400487 0.68300003 4292993241
0.16512007 -0.07540112 0.68300003 4293256157
0.1664191 -0.075401746 0.68300003 4292993753
0.16747263 -0.075291961 0.68199998 4292796630
0.16876985 -0.07529258 0.68199998 4292927961
0.16956839 -0.075072378 0.68000001 4293125341
0.17086186 -0.075072967 0.68000001 4293255646
0.17215541 -0.075073555 0.68000001 4293189853
0.17344896 -0.075074129 0.68000001 4293124057
0.17474258 -0.075074688 0.68000001 4293124057
0.17603618 -0.075075239 0.68000001 4292992987
0.17732985 -0.075075783 0.68000001 4292992987
0.17862359 -0.075076319 0.68000001 4292927707
0.17991726 -0.075076826 0.68000001 4292927707
0.18174401 -0.075298153 0.68199998 4292796632
0.18304159 -0.075298637 0.68199998 4292796632
0.18433921 -0.075299129 0.68199998 4292796632
0.18563685 -0.075299606 0.68199998 4292730583
0.18720864 -0.075410478 0.68300003 4292730585
0.18850821 -0.07541091 0.68300003 4292730585
0.18952991 -0.075300924 0.68199998 4292664792
0.19082764 -0.075301349 0.68199998 4292598999
0.19212538 -0.075301744 0.68199998 4292598999
0.19342311 -0.075302124 0.68199998 4292598999
0.19414991 -0.075081676 0.68000001 4292598484
0.19515648 -0.074971616 0.67900002 4292598484
0.19644856 -0.074971944 0.67900002 4292598999
0.1977407 -0.074972279 0.67900002 4292730585
0.19903283 -0.074972585 0.67900002 4292664790
0.20032491 -0.074972861 0.67900002 4292664790
0.20161709 -0.074973129 0.67900002 4292532950
0.20290922 -0.074973382 0.67900002 4292598999
0.20450209 -0.075084031 0.68000001 4292532950
0.20640142 -0.075305082 0.68199998 4292664792
0.20800382 -0.075415693 0.68300003 4292467159
0.20930362 -0.075415879 0.68300003 4292270036
0.21060333 -0.075416028 0.68300003 4292270036
0.21221334 -0.075526573 0.68400002 4292335829
0.21351498 -0.075526699 0.68400002 4292270034
0.2148166 -0.075526781 0.68400002 4292335827
0.2161182 -0.075526856 0.68400002 4292336081
0.21805555 -0.075747751 0.68599999 4292336081
0.21968068 -0.075858183 0.68699998 4292270034
0.22098799 -0.075858191 0.68699998 4292335827
0.22261882 -0.075968601 0.68800002 4292335057
0.22457893 -0.076189391 0.69 4292335057
0.22621921 -0.076299734 0.69099998 4292204493
0.22753401 -0.076299645 0.69099998 4292270286
0.22884876 -0.076299518 0.69099998 4292006608
0.23016351 -0.076299384 0.69099998 4291875278
0.23147823 -0.076299213 0.69099998 4292006608
0.23582494 -0.077292785 0.69999999 4292006608
0.23715667 -0.077292547 0.69999999 4292072142
0.23951049 -0.077623546 0.70300001 4292137935
0.24084786 -0.077623256 0.70300001 4291875278
0.24252965 -0.077733345 0.704 4291875278
0.24386887 -0.077733018 0.704 4291611598
0.24520797 -0.077732638 0.704 4291545805
0.24654704 -0.077732228 0.704 4291545545
0.11110219 -0.080036879 0.73799998 4293454054
0.11219835 -0.079820707 0.736 4293387997
0.11313263 -0.079496078 0.73299998 4293256411
0.11405557 -0.079171456 0.73000002 4293125593
0.11544158 -0.079172194 0.73000002 4293125593
0.11682765 -0.079172924 0.73000002 4293322204
0.11772798 -0.078848295 0.727 4293322204
0.11779778 -0.077981368 0.71899998 4293386716
0.11866593 -0.077656731 0.71600002 4293452509
0.11969038 -0.077440545 0.71399999 4293452509
0.12053777 -0.077115908 0.71100003 4293584095
0.12137382 -0.076791257 0.708 4293518815
0.12271849 -0.076791994 0.708 4293387486
0.12388801 -0.076684259 0.70700002 4293518815
0.12523091 -0.076684996 0.70700002 4293518815
0.12639485 -0.076577276 0.70599997 4293321693
0.1273741 -0.076361082 0.704 4293321693
0.12852864 -0.076253362 0.70300001 4293321693
0.12949471 -0.076037146 0.70099998 4293518815
0.13082649 -0.076037884 0.70099998 4293255644
0.13196979 -0.075930156 0.69999999 4293255644
0.1332998 -0.075930901 0.69999999 4293255644
0.1342452 -0.075714692 0.69800001 4293387486
0.13537726 -0.075606942 0.69700003 4293321693
0.13670172 -0.075607672 0.69700003 4293518815
0.13782817 -0.075499922 0.69599998 4293518815
0.13915084 -0.07550066 0.69599998 4293518815
0.14006992 -0.075284429 0.69400001 4293518813
0.14118516 -0.075176679 0.69300002 4293387484
0.14147411 -0.074634977 0.68800002 4293321689
0.14278179 -0.074635699 0.68800002 4293321689
0.14388008 -0.074527934 0.68699998 4293387486
0.14518595 -0.074528627 0.68699998 4293387486
0.14670512 -0.074637823 0.68800002 4293321693
0.14801298 -0.074638523 0.68800002 4293387486
0.14975499 -0.074856199 0.69 4293387486
0.15062888 -0.074639916 0.68800002 4293387486
0.15193692 -0.074640609 0.68800002 4293321693
0.15324497 -0.074641287 0.68800002 4293321693
0.15432844 -0.074533477 0.68699998 4293321691
0.15540816 -0.074425653 0.68599999 4293321691
0.15671258 -0.074426331 0.68599999 4293124057
0.15801702 -0.074426986 0.68599999 4293189851
0.15932153 -0.074427642 0.68599999 4293189853
0.1606261 -0.074428305 0.68599999 4293189853
0.16145858 -0.074211948 0.68400002 4293189851
0.16275941 -0.074212581 0.68400002 4293189851
0.16382042 -0.074104711 0.68300003 4293124828
0.16511945 -0.07410533 0.68300003 4292993241
0.16641851 -0.074105941 0.68300003 4292664790
0.16747202 -0.073998034 0.68199998 4292730583
0.16876926 -0.07399863 0.68199998 4292927961
0.17006652 -0.073999211 0.68199998 4292927961
0.17086127 -0.073782787 0.68000001 4293189853
0.17215484 -0.073783353 0.68000001 4293189853
0.1734484 -0.073783904 0.68000001 4293124057
0.17474203 -0.073784448 0.68000001 4293124057
0.17603566 -0.073784992 0.68000001 4292992989
0.17732933 -0.073785514 0.68000001 4292992989
0.17862307 -0.073786035 0.68000001 4292927707
0.18044598 -0.074003555 0.68199998 4292927707
0.18174355 -0.074004039 0.68199998 4292796632
0.18330953 -0.074113034 0.68300003 4292796632
0.18433872 -0.074004985 0.68199998 4292796632
0.18563639 -0.074005432 0.68199998 4292730583
0.18720818 -0.074114397 0.68300003 4292730585
0.18850778 -0.074114837 0.68300003 4292664792
0.18952951 -0.074006729 0.68199998 4292335829
0.19082724 -0.074007131 0.68199998 4292598745
0.19212501 -0.074007511 0.68199998 4292532950
0.19342279 -0.074007884 0.68199998 4292467156
0.19472057 -0.074008234 0.68199998 4292532950
0.19544354 -0.073791541 0.68000001 4292532950
0.19673757 -0.073791876 0.68000001 4292598745
0.19774038 -0.073683664 0.67900002 4292598745
0.19903253 -0.073683955 0.67900002 4292533204
0.20032464 -0.073684223 0.67900002 4292664790
0.20161682 -0.073684484 0.67900002 4292533974
0.20290898 -0.073684722 0.67900002 4292468181
0.20450187 -0.073793463 0.68000001 4292400850
0.20640121 -0.074010707 0.68199998 4292400850
0.20800364 -0.074119411 0.68300003 4292269782
0.20960985 -0.074228093 0.68400002 4292203989
0.21091153 -0.074228242 0.68400002 4292137935
0.21221322 -0.074228369 0.68400002 4292203728
0.21351486 -0.074228473 0.68400002 4292138448
