# .PCD v0.7 - Point Cloud Data file format
VERSION 0.7
FIELDS x y z rgba
SIZE 4 4 4 4
TYPE F F F U
COUNT 1 1 1 1
WIDTH 1089
HEIGHT 1
VIEWPOINT 0 0 0 1 0 0 0
POINTS 1089
DATA ascii
0.054413591 0.049312282 0.58099997 4292463815
0.055420205 0.049228173 0.57999998 4292136649
0.056423057 0.049144074 0.579 4292070856
0.057422161 0.049059987 0.57800001 4292005061
0.058518734 0.049060792 0.57800001 4291807938
0.059718493 0.049146488 0.579 4291608770
0.061342217 0.04957173 0.58399999 4291740356
0.062343355 0.04948771 0.583 4291871944
0.063123062 0.049233913 0.57999998 4291937737
0.064112879 0.049149908 0.579 4291674048
0.065211579 0.049150802 0.579 4291674048
0.066195779 0.049066812 0.57800001 4291805116
0.067292653 0.049067736 0.57800001 4291936958
0.068507895 0.049153559 0.579 4291608508
0.069486529 0.049069617 0.57800001 4291542715
0.070583515 0.049070571 0.57800001 4291805118
0.071680553 0.04907155 0.57800001 4291805118
0.072777614 0.049072538 0.57800001 4291804602
0.073874742 0.049073532 0.57800001 4291870652
0.075101607 0.049159456 0.579 4291607993
0.076069087 0.049075566 0.57800001 4291476407
0.077166349 0.04907662 0.57800001 4291149241
0.17370854 0.065717548 0.773 4288581251
0.17517899 0.065719582 0.773 4283251762
0.17619243 0.065551572 0.77100003 4283310850
0.17719832 0.065383546 0.76899999 4286468914
0.1779643 0.065130502 0.76599997 4288382084
0.17825049 0.064707391 0.76099998 4291934907
0.17969838 0.06470941 0.76099998 4290954451
0.18114629 0.064711429 0.76099998 4287993767
0.18211441 0.064543404 0.759 4288777388
0.18355864 0.064545438 0.759 4289764283
0.18500292 0.064547479 0.759 4291603911
0.18595596 0.064379439 0.75700003 4293511908
0.18665388 0.064126343 0.75400001 4294039517
0.18808877 0.064128369 0.75400001 4293513173
0.18952371 0.064130425 0.75400001 4291676350
0.19095871 0.064132474 0.75400001 4287860356
0.19188341 0.063964404 0.75199997 4285557890
0.19280058 0.063796334 0.75 4289242298
0.19422805 0.063798383 0.75 4292396996
0.19487301 0.063545227 0.74699998 4294963951
0.19629486 0.063547269 0.74699998 4294899190
0.1977168 0.063549325 0.74699998 4293451744
0.19967194 0.063721523 0.74900001 4291939799
0.20109771 0.063723572 0.74900001 4284899948
0.20252354 0.063725621 0.74900001 4279635480
0.20313254 0.063472442 0.74599999 4278190081
0.20400429 0.063304305 0.74400002 4278190094
0.20486848 0.063136175 0.74199998 4282270305
0.2062811 0.063138209 0.74199998 4285624678
0.20769377 0.063140243 0.74199998 4292401100
0.20910646 0.063142285 0.74199998 4293978601
0.042801939 0.051014394 0.588 4292464847
0.043917064 0.051014997 0.588 4292464847
0.044955634 0.050928861 0.58700001 4292661712
0.046068922 0.050929498 0.58700001 4292727505
0.047182247 0.050930154 0.58700001 4292661708
0.048131038 0.050757285 0.58499998 4292530121
0.049240615 0.050757974 0.58499998 4292398792
0.050264157 0.050671909 0.58399999 4292530121
0.051283937 0.050585859 0.583 4292529610
0.052299954 0.050499819 0.58200002 4292661197
0.053403966 0.050500557 0.58200002 4292529860
0.054601662 0.05058809 0.583 4292464067
0.055612091 0.050502092 0.58200002 4292136647
0.0567162 0.050502885 0.58200002 4292202440
0.057820357 0.050503686 0.58200002 4292005061
0.058924533 0.050504506 0.58200002 4291676096
0.060235023 0.050678886 0.58399999 4291675587
0.06134307 0.050679747 0.58399999 4291872709
0.062344223 0.050593838 0.583 4291937737
0.063341618 0.050507933 0.58200002 4291871944
0.064445972 0.050508827 0.58200002 4292003266
0.065437742 0.05042294 0.58099997 4291805888
0.066311225 0.050250288 0.579 4292067774
0.067410022 0.050251227 0.579 4292199360
0.068627164 0.050338965 0.57999998 4291805116
0.069607705 0.050253134 0.579 4291542200
0.070584491 0.050167318 0.57800001 4291542463
0.071681537 0.050168302 0.57800001 4291542463
0.07277862 0.0501693 0.57800001 4291608506
0.07400357 0.050257113 0.579 4291608506
0.075102642 0.050258145 0.579 4291280057
0.076201752 0.05025918 0.579 4291280057
0.077300899 0.050260235 0.579 4291215286
0.17134888 0.066835776 0.76899999 4282532670
0.17281166 0.06683781 0.76899999 4279912704
0.17472775 0.067013688 0.77100003 4278193408
0.17573741 0.0668419 0.76899999 4278190080
0.17650905 0.066583164 0.76599997 4284245614
0.17750169 0.066411369 0.764 4288578460
0.17825252 0.066152632 0.76099998 4294962687
0.17970042 0.066154689 0.76099998 4294965759
0.18114835 0.06615673 0.76099998 4294966527
0.18211645 0.06598492 0.759 4294967039
0.1835607 0.065986983 0.759 4294967295
0.1845175 0.065815173 0.75700003 4294042107
0.18595803 0.065817237 0.75700003 4293779191
0.18665594 0.065558463 0.75400001 4292266439
0.18809085 0.06556052 0.75400001 4288647567
0.18952578 0.065562584 0.75400001 4286481499
0.19045426 0.065390743 0.75199997 4286218584
0.19188547 0.065392807 0.75199997 4286549153
0.19254558 0.065134004 0.74900001 4289049030
0.19345321 0.064962134 0.74699998 4288513462
0.19487503 0.064964205 0.74699998 4288052911
0.19603415 0.064879306 0.74599999 4287195231
0.19745414 0.064881369 0.74599999 4284431925
0.19887425 0.064883433 0.74599999 4287596371
0.2002943 0.064885505 0.74599999 4288451680
0.20171441 0.064887568 0.74599999 4291610014
0.20258997 0.064715669 0.74400002 4292399274
0.20318376 0.064456776 0.741 4292662243
0.20459443 0.064458825 0.741 4294570239
0.20544916 0.06428691 0.73900002 4292794352
0.20685606 0.064288959 0.73900002 4292465644
0.20882665 0.064464994 0.741 4290690498
0.21022014 0.064034075 0.736 4291806642
0.042875331 0.052218523 0.58899999 4292793300
0.04399237 0.052219138 0.58899999 4292727251
0.045032859 0.052131116 0.588 4292595665
0.046148058 0.052131761 0.588 4292595665
0.048131716 0.051867124 0.58499998 4292595917
0.049241312 0.051867817 0.58499998 4292529870
0.050350942 0.051868528 0.58499998 4292398540
0.051284667 0.051691916 0.583 4292529610
0.052300688 0.051603992 0.58200002 4292595403
0.053404719 0.05160474 0.58200002 4292793550
0.054508783 0.051605511 0.58200002 4292398792
0.05561287 0.051606297 0.58200002 4292136649
0.056716997 0.051607098 0.58200002 4292136649
0.057821162 0.051607907 0.58200002 4292136134
0.05912786 0.051786091 0.58399999 4291807168
0.060235877 0.051786941 0.58399999 4291806916
0.061343942 0.051787801 0.58399999 4291806916
0.062345106 0.0517 0.583 4291675587
0.063451335 0.051700898 0.583 4292004296
0.064557612 0.051701803 0.583 4292201157
0.065551296 0.051614042 0.58200002 4291674813
0.066541217 0.051526293 0.58099997 4292067772
0.067643806 0.051527232 0.58099997 4292133821
0.068746448 0.051528193 0.58099997 4291870652
0.069728896 0.051440481 0.57999998 4291673016
0.070707597 0.05135278 0.579 4291345600
0.071682535 0.051265091 0.57800001 4291411393
0.072779633 0.051266104 0.57800001 4291346615
0.074004598 0.051355828 0.579 4291215286
0.15000203 0.066585355 0.75 4293517537
0.15142798 0.066587254 0.75 4293846763
0.152854 0.066589162 0.75 4292794332
0.15613142 0.067390159 0.759 4291675085
0.15757464 0.067392096 0.759 4290490554
0.15901797 0.067394063 0.759 4290096035
0.16194119 0.068017587 0.76599997 4293188306
0.16339792 0.068019591 0.76599997 4293847265
0.16485471 0.068021595 0.76599997 4294307816
0.16631156 0.068023607 0.76599997 4294437619
0.16776848 0.068025626 0.76599997 4294108654
0.16922542 0.068027653 0.76599997 4293321441
0.17090529 0.068118505 0.76700002 4287794829
0.17236426 0.068120554 0.76700002 4284175989
0.1738233 0.068122603 0.76700002 4278190096
0.17505388 0.068035848 0.76599997 4278190080
0.17489809 0.067416161 0.759 4282006076
0.17634209 0.067418225 0.759 4286339685
0.17778613 0.067420274 0.759 4293971674
0.17875794 0.067244679 0.75700003 4293321198
0.18019825 0.067246743 0.75700003 4293255405
0.18211852 0.067426488 0.759 4293451757
0.1835628 0.067428574 0.759 4293122792
0.18403205 0.06707529 0.755 4292530653
0.18546876 0.067077368 0.755 4291675344
0.18665799 0.066990606 0.75400001 4287407260
0.1880929 0.0669927 0.75400001 4283130715
0.18902513 0.066817082 0.75199997 4278531072
0.18969654 0.066552609 0.74900001 4284649807
0.19061171 0.066376969 0.74699998 4287010456
0.19177642 0.0662902 0.74599999 4287010456
0.1931963 0.066292278 0.74599999 4286474885
0.19409449 0.066116624 0.74400002 4286803850
0.1955107 0.06611871 0.74400002 4286341734
0.19639748 0.065943033 0.74199998 4286933871
0.19780993 0.065945104 0.74199998 4289564828
0.1992224 0.065947182 0.74199998 4291209653
0.20063493 0.065949269 0.74199998 4293186772
0.20204744 0.065951347 0.74199998 4293252566
0.2031858 0.065864548 0.741 4293383902
0.20404428 0.065688841 0.73900002 4293252316
0.20545119 0.065690905 0.73900002 4292201942
0.20685814 0.065692984 0.73900002 4291017412
0.20798326 0.065606155 0.73799998 4286553752
0.20882086 0.065430418 0.736 4284316790
0.21022218 0.065432459 0.736 4287459934
0.052301448 0.052708227 0.58200002 4292398540
0.053405482 0.05270898 0.58200002 4292595401
0.054509565 0.052709766 0.58200002 4292529608
0.055613667 0.052710555 0.58200002 4292136138
0.056815263 0.052801933 0.583 4292070089
0.059229955 0.052984752 0.58499998 4291675583
0.060339876 0.052985601 0.58499998 4291674561
0.061554901 0.053077064 0.58600003 4291674561
0.062666811 0.053077955 0.58600003 4291937471
0.06366992 0.052988287 0.58499998 4292134850
0.064780004 0.052989203 0.58499998 4292069561
0.065777488 0.052899558 0.58399999 4291609010
0.066885754 0.052900512 0.58399999 4291805369
0.067994051 0.052901473 0.58399999 4291871163
0.068984069 0.052811868 0.583 4291805369
0.069850102 0.05263168 0.58099997 4291476405
0.07095284 0.052632682 0.58099997 4291411908
0.072179623 0.052724306 0.58200002 4291346115
0.073284343 0.052725337 0.58200002 4291215284
0.0743891 0.052726388 0.58200002 4291346613
0.07549388 0.052727439 0.58200002 4291083448
0.15000392 0.068009406 0.75 4286343840
0.15142986 0.068011314 0.75 4286870897
0.1528559 0.068013236 0.75 4285489244
0.15613338 0.068831362 0.759 4284046397
0.15757661 0.068833329 0.759 4278190080
0.15901992 0.068835311 0.759 4278191104
0.16088611 0.069018684 0.76099998 4281090087
0.16254666 0.069111392 0.76200002 4289104232
0.1644263 0.069294803 0.764 4294630844
0.16587934 0.069296829 0.764 4294698995
0.16733249 0.069298878 0.764 4294964991
0.16878562 0.06930092 0.764 4294636788
0.16979323 0.069121554 0.76200002 4294636788
0.17124271 0.069123618 0.76200002 4292006637
0.17201233 0.068853527 0.759 4287532714
0.17345624 0.068855599 0.759 4280176483
0.17397842 0.068494774 0.755 4278191385
0.17541479 0.068496846 0.755 4278190080
0.17731969 0.068680368 0.75700003 4279704086
0.17875999 0.068682455 0.75700003 4283513162
0.17972425 0.068503074 0.755 4284960865
0.18116081 0.068505161 0.755 4280952912
0.18259747 0.068507254 0.755 4278190098
0.1837904 0.068418622 0.75400001 4278190080
0.18616495 0.068241328 0.75199997 4278784256
0.18852448 0.068064034 0.75 4281741898
0.18919209 0.067793876 0.74699998 4286742167
0.19035864 0.067705221 0.74599999 4290424205
0.1917785 0.067707315 0.74599999 4291608479
0.19268045 0.06752789 0.74400002 4293120712
0.1935748 0.067348458 0.74199998 4293647312
0.19498719 0.067350559 0.74199998 4293188569
0.19613488 0.067261875 0.741 4293320155
0.19754542 0.067263968 0.741 4291017444
0.198956 0.067266069 0.741 4290688479
0.19982582 0.067086615 0.73900002 4286347452
0.20123264 0.067088701 0.73900002 4285163177
0.20765357 0.066013671 0.727 4278190080
0.20903774 0.06601572 0.727 4279372553
0.21042193 0.066017762 0.727 4286208826
0.2103148 0.064300336 0.708 4294636534
0.053498022 0.053905737 0.583 4292529608
0.054604013 0.053906523 0.583 4292529608
0.061660837 0.054281481 0.58700001 4291674815
0.062774658 0.05428239 0.58700001 4291609020
0.063779674 0.054190841 0.58600003 4291674813
0.064891674 0.054191776 0.58600003 4291740347
0.065891065 0.054100238 0.58499998 4291674553
0.067001246 0.054101203 0.58499998 4291739322
0.068111464 0.054102182 0.58499998 4291805116
0.069221713 0.054103177 0.58499998 4291674300
0.070332021 0.05410419 0.58499998 4291476920
0.071442351 0.054105211 0.58499998 4291214782
0.072676748 0.054198738 0.58600003 4291148989
0.073789053 0.054199789 0.58600003 4291083446
0.14891993 0.070262812 0.759 4287535777
0.14996669 0.070079602 0.75700003 4284314238
0.15040584 0.069618642 0.75199997 4286024855
0.15183562 0.069620594 0.75199997 4288317600
0.15428452 0.070085473 0.75700003 4288251807
0.15613535 0.070272617 0.759 4286348969
0.1575786 0.070274606 0.759 4278190118
0.15902194 0.070276618 0.759 4278190080
0.16046529 0.070278615 0.759 4278190080
0.16233537 0.07046584 0.76099998 4284292608
0.1639979 0.070560478 0.76200002 4291858784
0.16544716 0.070562519 0.76200002 4293906882
0.16689649 0.070564583 0.76200002 4294960341
0.16979529 0.070568718 0.76200002 4294965238
0.17156115 0.070109807 0.75700003 4292071388
0.17048734 0.069093086 0.74599999 4287014079
0.17190655 0.069095142 0.74599999 4280237399
0.17332581 0.069097206 0.74599999 4278190116
0.17685333 0.069932923 0.755 4278190109
0.17901219 0.069659218 0.75199997 4278190080
0.18044305 0.069661312 0.75199997 4278190096
0.19216457 0.068755947 0.74199998 4294302172
0.20765562 0.067395031 0.727 4278190113
0.20850043 0.065919854 0.71100003 4291339145
0.20896871 0.065643705 0.708 4294628795
0.21031681 0.065645702 0.708 4294700775
0.21166487 0.065647691 0.708 4294569446
0.061556701 0.055301018 0.58600003 4291740606
0.062668636 0.055301931 0.58600003 4291674813
0.063889444 0.055397235 0.58700001 4291740606
0.064892627 0.055303812 0.58600003 4291937210
0.066004671 0.055304773 0.58600003 4291608245
0.067116767 0.055305757 0.58600003 4291476407
0.068228893 0.055306744 0.58600003 4291278771
0.069341063 0.055307757 0.58600003 4291213749
0.070453264 0.055308774 0.58600003 4291213749
0.071565516 0.055309813 0.58600003 4291016619
0.072677813 0.055310868 0.58600003 4290819497
0.073790126 0.055311929 0.58600003 4290555316
0.078992739 0.058333512 0.61799997 4290292145
0.080295622 0.058429066 0.61900002 4290029992
0.093224265 0.058442753 0.61900002 4288909960
0.094399884 0.05844409 0.61900002 4288646543
0.14981064 0.072835684 0.77100003 4278192896
0.14892188 0.071704008 0.759 4278456066
0.14996864 0.071517028 0.75700003 4282131804
0.15100785 0.071330041 0.755 4293448191
0.15244332 0.071332015 0.755 4294238970
0.15428652 0.071522973 0.75700003 4294966015
0.15613735 0.071713932 0.759 4293252351
0.15716539 0.071526974 0.75700003 4291015395
0.15860491 0.071528994 0.75700003 4287007627
0.16004451 0.071531028 0.75700003 4278190595
0.16191077 0.071722046 0.759 4278190080
0.16335429 0.071724109 0.759 4279834124
0.16479784 0.071726166 0.759 4287066895
0.16514632 0.071255721 0.75400001 4292725093
0.16658048 0.071257785 0.75400001 4293712863
0.16868323 0.071543396 0.75700003 4294965243
0.16787586 0.070600353 0.74699998 4294965242
0.16907024 0.070507906 0.74599999 4294965499
0.1704894 0.070509978 0.74599999 4294374906
0.17190862 0.070512064 0.74599999 4291611600
0.17332789 0.070514143 0.74599999 4286877877
0.1747472 0.070516229 0.74599999 4280561749
0.17616658 0.07051833 0.74599999 4279253832
0.17782404 0.070614964 0.74699998 4285306788
0.17924541 0.07061708 0.74699998 4290884504
0.18972608 0.069785222 0.73799998 4288777118
0.18905887 0.069030836 0.73000002 4283111552
0.1904484 0.069032952 0.73000002 4281073760
0.19262628 0.069318742 0.73299998 4281872384
0.19402155 0.069320858 0.73299998 4284306710
0.20428741 0.068112172 0.72000003 4292987622
0.20451571 0.067735821 0.71600002 4289965231
0.20587891 0.067737862 0.71600002 4281017382
0.20724216 0.067739911 0.71600002 4278194176
0.2071487 0.067268908 0.71100003 4278190080
0.20850244 0.067270927 0.71100003 4279369728
0.20897073 0.066989101 0.708 4286010709
0.21031879 0.066991113 0.708 4289172103
0.21106894 0.066803865 0.70599997 4293711820
0.21241321 0.066805862 0.70599997 4293516783
0.21315196 0.066618599 0.704 4294569470
0.061557613 0.056413077 0.58600003 4290754746
0.062669575 0.056414001 0.58600003 4291409576
0.063890405 0.05651122 0.58700001 4291409576
0.064893588 0.056415904 0.58600003 4291409326
0.066005647 0.056416873 0.58600003 4291475119
0.067117758 0.056417864 0.58600003 4291279025
0.068346322 0.056515139 0.58700001 4291081647
0.069460414 0.056516167 0.58700001 4291082160
0.070574529 0.056517202 0.58700001 4290950574
0.075108252 0.05921419 0.61500001 4290752166
0.076275609 0.059215304 0.61500001 4290752166
0.077568918 0.059312727 0.616 4290620326
0.078993887 0.059506442 0.61799997 4290357410
0.080296777 0.059603907 0.61900002 4289767070
0.081471913 0.059605107 0.61900002 4289438105
0.087951504 0.059227303 0.61500001 4288713614
0.08911936 0.059228592 0.61500001 4288779407
0.09043406 0.059326194 0.616 4288910994
0.091603883 0.059327498 0.616 4289304720
0.092773765 0.059328824 0.616 4288975755
0.094401225 0.05961911 0.61900002 4288712069
0.096040107 0.059909418 0.62199998 4288185469
0.097221546 0.0599108 0.62199998 4288053620
0.14352973 0.073330171 0.76099998 4278190099
0.14497626 0.073332109 0.76099998 4278190140
0.14642286 0.073334061 0.76099998 4278190144
0.14990488 0.073627129 0.764 4278190080
0.14997061 0.072954513 0.75700003 4283046408
0.15140985 0.07295651 0.75700003 4292191892
0.15284914 0.072958507 0.75700003 4293187541
0.1542885 0.072960511 0.75700003 4293318870
0.15572794 0.072962545 0.75700003 4293578494
0.15675218 0.072771803 0.755 4293709823
0.1581879 0.072773829 0.755 4290756584
0.1596237 0.072775878 0.755 4284374663
0.16105954 0.072777927 0.755 4278191659
0.16249545 0.072779998 0.755 4278190108
0.16371427 0.072685666 0.75400001 4278190080
0.16471034 0.072494946 0.75199997 4284442716
0.16614071 0.072497025 0.75199997 4292327577
0.16712546 0.07230629 0.75 4294960840
0.1676532 0.071922742 0.74599999 4294963702
0.16861905 0.071732 0.74400002 4294963959
0.16957732 0.071541257 0.74199998 4294966015
0.17098893 0.071543343 0.74199998 4293517285
0.17240062 0.071545452 0.74199998 4292005340
0.17381231 0.071547538 0.74199998 4289505206
0.17522407 0.071549647 0.74199998 4287273625
0.17711201 0.071744636 0.74400002 4289115829
0.18501168 0.070987977 0.736 4290492620
0.18413292 0.070122026 0.727 4289571518
0.1855166 0.070124134 0.727 4281496161
0.18690029 0.070126243 0.727 4278535476
0.18854302 0.070224807 0.72799999 4278190137
0.1899287 0.070226923 0.72799999 4278190123
0.19184005 0.070421971 0.73000002 4278190080
0.20010038 0.068513237 0.70999998 4294631405
0.20145212 0.068515286 0.70999998 4294631405
0.20308957 0.06861385 0.71100003 4292334572
0.20444328 0.068615906 0.71100003 4288847542
0.20579699 0.068617962 0.71100003 4278211723
0.20715071 0.068620004 0.71100003 4278198873
0.20821121 0.06852553 0.70999998 4278190080
0.20897272 0.068334535 0.708 4278190080
0.21032083 0.068336554 0.708 4284234496
0.21047302 0.067952484 0.704 4289168966
0.21181346 0.067954496 0.704 4293315247
0.21285114 0.067859963 0.70300001 4294762693
0.21358033 0.067668885 0.70099998 4294045680
0.063891351 0.057625238 0.58700001 4290687391
0.06489455 0.057528034 0.58600003 4290489510
0.066006638 0.057529029 0.58600003 4290423717
0.067233287 0.057628196 0.58700001 4290292899
0.06834735 0.057629209 0.58700001 4290292899
0.06946145 0.057630256 0.58700001 4289766304
0.07057558 0.057631295 0.58700001 4289568669
0.07510937 0.060381431 0.61500001 4289897109
0.076400757 0.060480751 0.616 4289897109
0.077570058 0.060481891 0.616 4289502353
0.078995071 0.060679436 0.61799997 4289370511
0.080297984 0.060778804 0.61900002 4289370511
0.081473097 0.060780004 0.61900002 4288778374
0.082114212 0.060388457 0.61500001 4289107859
0.083146408 0.060291477 0.61400002 4289107859
0.084312186 0.060292717 0.61400002 4288844948
0.085478008 0.060293965 0.61400002 4288713362
0.086643875 0.060295232 0.61400002 4288713362
0.087952793 0.060394716 0.61500001 4288713362
0.089120656 0.060396008 0.61500001 4288515467
0.090435363 0.060495518 0.616 4288252552
0.091605209 0.060496848 0.616 4288514952
0.092775114 0.060498193 0.616 4288581001
0.094402589 0.060794182 0.61900002 4288712067
0.096041493 0.061090201 0.62199998 4287988345
0.097222932 0.061091594 0.62199998 4287988095
0.14171176 0.074576743 0.759 4289967000
0.14315444 0.074578665 0.759 4290953895
0.14421621 0.074384123 0.75700003 4291214534
0.14565521 0.074386083 0.75700003 4287464333
0.14670564 0.074191518 0.755 4281088595
0.14755233 0.073898703 0.75199997 4278190103
0.14898202 0.073900692 0.75199997 4278190080
0.14941168 0.073411301 0.74699998 4278912774
0.15083198 0.073413305 0.74699998 4286605342
0.15388291 0.074201554 0.755 4292329333
0.15531853 0.074203596 0.755 4293380331
0.15654661 0.074107364 0.75400001 4294964991
0.15798043 0.07410942 0.75400001 4293580799
0.15941434 0.074111484 0.75400001 4290028239
0.16084829 0.074113555 0.75400001 4279181966
0.16185184 0.073919035 0.75199997 4278190177
0.16263072 0.073626243 0.74900001 4278190080
0.16361725 0.073431708 0.74699998 4279179789
0.16481721 0.073335506 0.74599999 4288450581
0.16623622 0.073337592 0.74599999 4292924505
0.16675632 0.072946452 0.74199998 4293778910
0.16816786 0.072948553 0.74199998 4293778910
0.16935088 0.072852328 0.741 4293778649
0.1707606 0.072854452 0.741 4293646806
0.17240271 0.072954878 0.74199998 4293385186
0.17358018 0.072858684 0.741 4293516515
0.17499004 0.072860807 0.741 4293056997
0.18086888 0.071302257 0.72500002 4278190080
0.18224867 0.071304373 0.72500002 4278190080
0.18413505 0.071503192 0.727 4278190080
0.1855187 0.071505323 0.727 4280954880
0.18690242 0.071507446 0.727 4282533894
0.18828614 0.07150957 0.727 4280694636
0.18966997 0.071511701 0.727 4278190648
0.19279936 0.069655225 0.708 4289238119
0.1941472 0.069657288 0.708 4290427312
0.19521894 0.06956099 0.70700002 4291743429
0.19767703 0.069956623 0.71100003 4292464356
0.19903064 0.069958702 0.71100003 4292267234
0.20010243 0.069862388 0.70999998 4293318611
0.20145419 0.069864459 0.70999998 4294239713
0.20309164 0.069964945 0.71100003 4294043644
0.20415778 0.069868594 0.70999998 4294043644
0.20550959 0.069870673 0.70999998 4287995106
0.20686142 0.069872722 0.70999998 4280823413
0.20762673 0.069677949 0.708 4278190084
0.20867962 0.069581591 0.70700002 4278190081
0.21002582 0.069583632 0.70700002 4278190080
0.21047504 0.069290385 0.704 4280095245
0.21181548 0.069292404 0.704 4287465233
0.21224757 0.068999127 0.70099998 4292597087
0.21358229 0.069001123 0.70099998 4293716197
0.072190791 0.062045775 0.62 4289307289
0.073249206 0.061946809 0.61900002 4289437338
0.074424095 0.061947927 0.61900002 4289437338
0.075476885 0.061848979 0.61799997 4289897370
0.076649956 0.061850127 0.61799997 4289568406
0.07782308 0.061851297 0.61799997 4289502353
0.078996249 0.06185247 0.61799997 4289502353
0.079780281 0.061553415 0.61500001 4289698449
0.080947824 0.061554622 0.61500001 4289237898
0.082115419 0.06155584 0.61500001 4289238162
0.083147652 0.061456986 0.61400002 4289172368
0.084313437 0.061458245 0.61400002 4288845202
0.085479274 0.0614595 0.61400002 4288516238
0.086645156 0.061460782 0.61400002 4288516238
0.087811083 0.061462078 0.61400002 4288516238
0.089121953 0.061563481 0.61500001 4288581511
0.090289883 0.061564811 0.61500001 4288449924
0.091606557 0.061666261 0.616 4288449159
0.093228295 0.061967932 0.61900002 4288514952
0.09440396 0.061969314 0.61900002 4288515204
0.096042879 0.062271044 0.62199998 4287923067
0.097068019 0.062172327 0.62099999 4287725693
0.098247625 0.06217375 0.62099999 4287593850
0.135719 0.074311547 0.74199998 4290616219
0.13990146 0.075815745 0.75700003 4290616219
0.14134029 0.075817689 0.75700003 4292591540
0.14240196 0.07561934 0.755 4292723126
0.14383714 0.075621307 0.755 4291872457
0.14507994 0.075523123 0.75400001 4289043358
0.14651333 0.07552512 0.75400001 4281426827
0.14755432 0.075326778 0.75199997 4278202198
0.14898403 0.075328797 0.75199997 4278190122
0.14941369 0.074829943 0.74699998 4278190107
0.15083399 0.074831963 0.74699998 4279435264
0.15388495 0.075635426 0.755 4288774265
0.15857071 0.075142771 0.75 4290223801
0.16219853 0.074848451 0.74699998 4282527290
0.16340032 0.074750356 0.74599999 4283185219
0.16437744 0.074552059 0.74400002 4287066173
0.16579264 0.07455416 0.74400002 4291211131
0.16675842 0.074355863 0.74199998 4290886335
0.16794333 0.074257776 0.741 4291544008
0.1688959 0.074059464 0.73900002 4292790207
0.17030181 0.07406158 0.73900002 4292658364
0.17170779 0.074063711 0.73900002 4292921034
0.1799864 0.072878003 0.727 4278190080
0.18037201 0.072479136 0.72299999 4278190080
0.18174802 0.072481275 0.72299999 4278190080
0.18312404 0.072483398 0.72299999 4282270529
0.18501045 0.072686046 0.72500002 4286802817
0.18777029 0.072690323 0.72500002 4288845745
0.18899859 0.071593776 0.71399999 4284562021
0.19035774 0.071595892 0.71399999 4285686366
0.19171691 0.071598008 0.71399999 4286476139
0.19307615 0.071600124 0.71399999 4290616732
0.19280145 0.071000539 0.708 4292261814
0.19414927 0.071002632 0.708 4292859093
0.19522101 0.070904434 0.70700002 4292069321
0.19656703 0.070906527 0.70700002 4290822086
0.19875279 0.071209498 0.70999998 4289900984
0.20010453 0.071211591 0.70999998 4289899689
0.20145628 0.071213678 0.70999998 4292531153
0.20280808 0.071215771 0.70999998 4292730333
0.20358473 0.071017228 0.708 4292664540
0.20493275 0.071019307 0.708 4288721864
0.20628078 0.071021385 0.708 4281287255
0.20733556 0.070923135 0.70700002 4280685338
0.20838651 0.070824876 0.70599997 4280553751
0.20913661 0.070626281 0.704 4280224048
0.21017811 0.070527993 0.70300001 4282526803
0.21151662 0.070530035 0.70300001 4286673763
0.21224959 0.070331395 0.70099998 4291871667
0.21358432 0.070333399 0.70099998 4292532189
0.072191894 0.063222587 0.62 4289437340
0.073368661 0.063223705 0.62 4289568158
0.074425228 0.063122861 0.61900002 4289633951
0.075478032 0.063022025 0.61799997 4289568406
0.076651126 0.063023187 0.61799997 4289436819
0.07757239 0.062820412 0.616 4289436819
0.078741789 0.062821597 0.616 4288976268
0.079781488 0.06272082 0.61500001 4289105810
0.080949046 0.062722042 0.61500001 4289171603
0.082116656 0.062723272 0.61500001 4289040526
0.083284326 0.062724531 0.61500001 4288843404
0.084452018 0.062725797 0.61500001 4288580747
0.085619763 0.062727064 0.61500001 4288514954
0.086646467 0.062626384 0.61400002 4288384649
0.087812379 0.062627688 0.61400002 4288384649
0.089123286 0.062731005 0.61500001 4288581251
0.090291217 0.062732346 0.61500001 4288647045
0.091607913 0.062835708 0.616 4288580227
0.093079045 0.063041084 0.61799997 4288646020
0.094252825 0.063042477 0.61799997 4288580481
0.095735475 0.063247912 0.62 4287988345
0.09706945 0.063351333 0.62099999 4287857022
0.098249063 0.063352771 0.62099999 4287659899
0.13290052 0.075716749 0.74199998 4287526565
0.13431069 0.075718641 0.74199998 4290026699
0.13572092 0.075720549 0.74199998 4290091965
0.1371312 0.075722471 0.74199998 4287920796
0.14040869 0.076744944 0.75199997 4284830306
0.14183807 0.076746911 0.75199997 4284435804
0.14326757 0.0767489 0.75199997 4286341230
0.1446971 0.076750897 0.75199997 4290881204
0.14612669 0.076752901 0.75199997 4290949059
0.14716391 0.076550789 0.75 4289501613
0.14858982 0.076552823 0.75 4283256961
0.14981574 0.076452769 0.74900001 4278190124
0.15083602 0.076250657 0.74699998 4278321666
0.15225643 0.076252714 0.74699998 4280953386
0.15367684 0.076254763 0.74699998 4285486386
0.15509734 0.076256834 0.74699998 4286341439
0.15651791 0.076258928 0.74699998 4286404965
0.16608632 0.075458989 0.73900002 4289240210
0.16726549 0.075359009 0.73799998 4289700761
0.17949338 0.074054919 0.72500002 4278196235
0.18037418 0.07385277 0.72299999 4278197521
0.18175015 0.073854931 0.72299999 4280428085
0.18312618 0.073857062 0.72299999 4290297035
0.18450223 0.073859215 0.72299999 4292723949
0.18784796 0.073559202 0.72000003 4294963434
0.18843004 0.073254831 0.71700001 4293057260
0.18900071 0.072950453 0.71399999 4293649398
0.19035985 0.072952583 0.71399999 4293254640
0.19064498 0.072546013 0.70999998 4293649398
0.19199657 0.072548121 0.70999998 4293647851
0.19280353 0.072345883 0.708 4294042609
0.19387718 0.072245814 0.70700002 4291480002
0.19522311 0.072247915 0.70700002 4279439883
0.1965691 0.072250023 0.70700002 4278190080
0.19819501 0.072354317 0.708 4278190080
0.19954295 0.072356418 0.708 4278190080
0.20089088 0.072358526 0.708 4278190080
0.20195323 0.072258428 0.70700002 4284501524
0.21236686 0.069526598 0.68000001 4293977316
0.21334736 0.069426276 0.67900002 4294965238
0.072193004 0.064399451 0.62 4289370263
0.073251456 0.064296722 0.61900002 4289435021
0.074306123 0.064193979 0.61799997 4289632656
0.075479187 0.064195134 0.61799997 4289502867
0.076652311 0.064196318 0.61799997 4289437073
0.077573583 0.063989744 0.616 4289436819
0.078615159 0.063887067 0.61500001 4288713353
0.079782687 0.063888289 0.61500001 4288908427
0.080950275 0.063889518 0.61500001 4288974220
0.082117915 0.063890778 0.61500001 4288909197
0.083285592 0.063892044 0.61500001 4288777611
0.0844533 0.063893318 0.61500001 4288581001
0.085621074 0.063894615 0.61500001 4288514952
0.086788863 0.063895918 0.61500001 4288515456
0.087956719 0.063897245 0.61500001 4288317821
0.08912462 0.063898586 0.61500001 4288382584
0.090292573 0.063899942 0.61500001 4288448378
0.091906704 0.064213023 0.61799997 4288119163
0.093080446 0.064214408 0.61799997 4288184956
0.09425424 0.064215817 0.61799997 4287988095
0.095428057 0.064217225 0.61799997 4287922302
0.096758269 0.064322576 0.61900002 4287725693
0.09793409 0.064324021 0.61900002 4287659899
0.13361888 0.077541552 0.74599999 4286083975
0.1343126 0.077127688 0.74199998 4286939284
0.13572285 0.077129625 0.74199998 4286868619
0.1378724 0.077547356 0.74599999 4281868607
0.14003724 0.077965148 0.75 4278190080
0.14146285 0.077967122 0.75 4278785801
0.14288853 0.077969119 0.75 4287257664
0.14431427 0.077971138 0.75 4291928967
0.14554575 0.077869192 0.74900001 4293577683
0.14657727 0.077663288 0.74699998 4290222240
0.14799748 0.077665322 0.74699998 4285429634
0.14941774 0.07766737 0.74699998 4280758331
0.15063615 0.077565454 0.74599999 4282134580
0.15205465 0.077567525 0.74599999 4282989889
0.17551731 0.074907854 0.72000003 4290095799
0.17688747 0.074910015 0.72000003 4285753204
0.17875281 0.075120248 0.722 4278204244
0.1854436 0.074508861 0.71600002 4293379534
0.18680651 0.074511021 0.71600002 4293511377
0.18738095 0.074200965 0.713 4292265937
0.18820876 0.073994972 0.71100003 4292068557
0.18929556 0.073893033 0.70999998 4291875024
0.19011007 0.073687017 0.708 4292138196
0.19145785 0.073689148 0.708 4292727764
0.19253334 0.073587209 0.70700002 4292399056
0.19360505 0.073485233 0.70599997 4287408023
0.19439684 0.073279172 0.704 4278191872
0.19573709 0.073281288 0.704 4278190080
0.21236876 0.070819087 0.68000001 4292458927
0.21334933 0.070716888 0.67900002 4294827475
0.21464211 0.07071881 0.67900002 4294307051
0.21593489 0.070720732 0.67900002 4293517791
0.071017377 0.065575264 0.62 4289567645
0.072194137 0.065576382 0.62 4288580749
0.073252589 0.065471753 0.61900002 4288513910
0.074307285 0.065367125 0.61799997 4288711032
0.075480372 0.06536831 0.61799997 4289040778
0.076653488 0.065369487 0.61799997 4289567122
0.07757479 0.065159149 0.616 4289239945
0.078616388 0.065054581 0.61500001 4288647808
0.079783924 0.06505581 0.61500001 4288843404
0.080951534 0.065057062 0.61500001 4288777611
0.082119174 0.065058321 0.61500001 4288514952
0.083286867 0.065059602 0.61500001 4288514952
0.084454603 0.065060891 0.61500001 4288515204
0.085622378 0.06506221 0.61500001 4288449411
0.086790189 0.065063521 0.61500001 4288449663
0.087958068 0.06506487 0.61500001 4288186492
0.089125976 0.065066226 0.61500001 4288054903
0.090293944 0.065067589 0.61500001 4288186746
0.09161067 0.065174773 0.616 4287988097
0.092780605 0.065176167 0.616 4287988097
0.093950614 0.065177582 0.616 4287593854
0.095120654 0.065179005 0.616 4287462012
0.096603394 0.065392077 0.61799997 4287265905
0.097777337 0.065393537 0.61799997 4287397491
0.1336208 0.078958236 0.74599999 4279370752
0.13467658 0.078748502 0.74400002 4279699712
0.13609062 0.078750454 0.74400002 4279173120
0.1371351 0.078540713 0.74199998 4278583296
0.13854547 0.078542672 0.74199998 4278193920
0.14071037 0.078968085 0.74599999 4280103456
0.14212845 0.078970097 0.74599999 4285092671
0.1435466 0.078972109 0.74599999 4286605910
0.14515914 0.079080008 0.74699998 4286799460
0.17051157 0.076479048 0.722 4292662745
0.17188537 0.076481216 0.722 4292662745
0.17277925 0.076271504 0.72000003 4292398804
0.17390746 0.076167732 0.71899998 4291017151
0.17527567 0.076169886 0.71899998 4291018182
0.18415082 0.075339578 0.71100003 4282777627
0.1852432 0.075235762 0.70999998 4281204740
0.18659471 0.07523793 0.70999998 4278190080
0.18794616 0.075240068 0.70999998 4278190080
0.18876448 0.075030275 0.708 4278192640
0.18984368 0.074926443 0.70700002 4281484327
0.19118959 0.074928597 0.70700002 4283975989
0.19226316 0.074824758 0.70599997 4283975989
0.19305871 0.074614927 0.704 4287399762
0.19412281 0.074511059 0.70300001 4287991899
0.19546117 0.074513189 0.70300001 4291478946
0.20947282 0.072001658 0.67900002 4278190080
0.21076564 0.072003618 0.67900002 4278190080
0.21205842 0.072005577 0.67900002 4282714649
0.21335125 0.072007515 0.67900002 4289886086
0.21432792 0.0719034 0.67799997 4292000173
0.21561877 0.071905315 0.67799997 4294829272
0.071018495 0.066752218 0.62 4289436571
0.072195277 0.066753365 0.62 4288515469
0.073253751 0.066646859 0.61900002 4288579455
0.074308462 0.066540346 0.61799997 4288710784
0.075481556 0.06654153 0.61799997 4288646020
0.076654702 0.06654273 0.61799997 4289040778
0.077576004 0.066328593 0.616 4288647047
0.078617603 0.066222146 0.61500001 4288778376
0.079785168 0.06622339 0.61500001 4288843917
0.080952793 0.06622465 0.61500001 4288514952
0.082120448 0.066225931 0.61500001 4288448646
0.083288155 0.066227213 0.61500001 4288646024
0.084455892 0.066228524 0.61500001 4288449411
0.085623689 0.06622985 0.61500001 4288317825
0.08679153 0.066231191 0.61500001 4288186244
0.087959409 0.06623254 0.61500001 4288186244
0.089127339 0.066233903 0.61500001 4288054905
0.090295322 0.066235296 0.61500001 4288054905
0.091612056 0.06634438 0.616 4287858305
0.092782028 0.066345803 0.616 4287529341
0.093799524 0.066239521 0.61500001 4287200112
0.094967693 0.066240974 0.61500001 4287200112
0.096135907 0.066242419 0.61500001 4287003258
0.09730415 0.066243879 0.61500001 4287266686
0.13362275 0.080374971 0.74599999 4278190080
0.13467853 0.08016146 0.74400002 4278255616
0.13609259 0.080163427 0.74400002 4278649088
0.13713707 0.079949908 0.74199998 4280886044
0.13854745 0.079951905 0.74199998 4282202426
0.13995788 0.079953901 0.74199998 4282596928
0.14136839 0.079955921 0.74199998 4283453254
0.14277893 0.079957947 0.74199998 4283979598
0.14418955 0.079959989 0.74199998 4284569185
0.1666045 0.077307358 0.71700001 4292070352
0.16796868 0.077309512 0.71700001 4292530903
0.16980524 0.077527314 0.71899998 4292596950
0.17342588 0.077318154 0.71700001 4291478215
0.17672881 0.075819142 0.70300001 4283588726
0.17832008 0.075929135 0.704 4278190095
0.17965996 0.075931281 0.704 4278190080
0.18099993 0.075933442 0.704 4278190080
0.18580839 0.076263502 0.70700002 4278190080
0.18770017 0.075944215 0.704 4278190080
0.18904027 0.075946361 0.704 4282861898
0.19011001 0.075840637 0.70300001 4284504407
0.1953216 0.074774489 0.69300002 4294367976
0.19664097 0.07477659 0.69300002 4294170854
0.19824606 0.074886605 0.69400001 4292991193
0.19956733 0.074888706 0.69400001 4291477954
0.20059922 0.074782893 0.69300002 4289834687
0.20191863 0.074784964 0.69300002 4288190119
0.20367202 0.074465357 0.69 4278192923
0.20439161 0.074251577 0.68800002 4278845471
0.20510361 0.074037775 0.68599999 4278190098
0.20580797 0.073823951 0.68400002 4278190080
0.20711029 0.07382597 0.68400002 4278517760
0.20688915 0.073288307 0.67900002 4279173123
0.20818196 0.073290288 0.67900002 4279698956
0.20947477 0.073292285 0.67900002 4279698956
0.2107676 0.07329426 0.67900002 4278386688
0.21174806 0.073188268 0.67799997 4278779904
0.21303898 0.073190235 0.67799997 4282857258
0.21432981 0.073192164 0.67799997 4288115038
0.21562071 0.073194101 0.67799997 4292720548
0.071134187 0.068038814 0.62099999 4289568147
0.072196431 0.067930408 0.62 4288581251
0.073254913 0.067822002 0.61900002 4288711556
0.074429892 0.067823187 0.61900002 4288711556
0.075604893 0.067824386 0.61900002 4288514952
0.076655909 0.067716025 0.61799997 4288975503
0.0778291 0.067717247 0.61799997 4288778376
0.079002351 0.067718498 0.61799997 4288778376
0.079916179 0.067500606 0.616 4288778124
0.081085697 0.06750188 0.616 4288383366
0.082255274 0.067503162 0.616 4288383366
0.083424896 0.067504473 0.616 4288383366
0.084869206 0.067724973 0.61799997 4288120450
0.085764259 0.067507125 0.616 4287922815
0.086934008 0.067508489 0.616 4287922563
0.088103816 0.06750986 0.616 4287856770
0.089273639 0.067511246 0.616 4287463547
0.090443552 0.067512639 0.616 4287529341
0.091613472 0.067514054 0.616 4287464061
0.092783451 0.067515485 0.616 4287464061
0.093800947 0.067407317 0.61500001 4288450678
0.094969139 0.067408778 0.61500001 4288977022
0.096137352 0.067410238 0.61500001 4289173915
0.097305633 0.067411728 0.61500001 4289173915
0.098634072 0.067522839 0.616 4289108892
0.099804334 0.067524351 0.616 4289108892
0.10146641 0.067854732 0.61900002 4289043356
0.1028083 0.067965902 0.62 4289240992
0.13362472 0.081791788 0.74599999 4283321934
0.13468049 0.081574492 0.74400002 4283848278
0.13609457 0.081576474 0.74400002 4286412115
0.13695423 0.081249528 0.741 4287004252
0.13836272 0.081251532 0.741 4286544255
0.13977127 0.081253551 0.741 4285952375
0.16319273 0.078336157 0.71399999 4291478201
0.16455109 0.078338303 0.71399999 4291872959
0.16590954 0.078340456 0.71399999 4291675587
0.16773658 0.078562073 0.71600002 4291609538
0.16909891 0.078564242 0.71600002 4292069321
0.17355998 0.076931179 0.70099998 4290492338
0.17489406 0.076933324 0.70099998 4290492338
0.17673095 0.077154979 0.70300001 4288850622
0.17806897 0.077157147 0.70300001 4287008418
0.17940694 0.077159315 0.70300001 4286022518
0.18100208 0.077271238 0.704 4285495918
0.18234207 0.077273414 0.704 4287137149
0.19400434 0.076089472 0.69300002 4287725465
0.19475999 0.075871989 0.69099998 4282320757
0.19607559 0.075874113 0.69099998 4280746076
0.19739112 0.075876206 0.69099998 4278190080
0.19870675 0.075878322 0.69099998 4278190080
0.20409659 0.075449452 0.68699998 4278191636
0.20510562 0.075341679 0.68599999 4279244580
0.20550905 0.075014241 0.68300003 4280162578
0.20650674 0.074906446 0.68199998 4280359700
0.20689115 0.074578956 0.67900002 4280621341
0.20818397 0.07458096 0.67900002 4280555548
0.20916824 0.074473105 0.67799997 4279964694
0.21045916 0.074475087 0.67799997 4279898901
0.21175003 0.074477062 0.67799997 4279635226
0.21304092 0.074479029 0.67799997 4278714380
0.21433178 0.074480981 0.67799997 4279435264
0.21498659 0.074263215 0.676 4282655266
0.21627359 0.074265137 0.676 4287658321
0.071135327 0.069217801 0.62099999 4288581511
0.072197601 0.069107503 0.62 4288449924
0.07325609 0.068997212 0.61900002 4288712069
0.074431084 0.068998404 0.61900002 4288646020
0.075483963 0.068888143 0.61799997 4288646024
0.076657139 0.068889365 0.61799997 4288448646
0.077830344 0.068890609 0.61799997 4288513669
0.079003602 0.068891861 0.61799997 4288513669
0.079917446 0.068670191 0.616 4288448380
0.080955371 0.068559997 0.61500001 4288514173
0.082123056 0.068561301 0.61500001 4287990144
0.083426215 0.068674102 0.616 4287858557
0.084595881 0.068675436 0.616 4287792512
0.085765615 0.068676792 0.616 4287726719
0.086935371 0.068678148 0.616 4287330678
0.088105194 0.068679541 0.616 4287659899
0.089275047 0.068680927 0.616 4287200891
0.090444952 0.06868235 0.616 4287464063
0.091614902 0.068683781 0.616 4287071874
0.092784904 0.068685219 0.616 4287334789
0.093954943 0.068686679 0.616 4289173902
0.095125042 0.068688147 0.616 4289437073
0.09629517 0.068689629 0.616 4289435804
0.097465359 0.068691134 0.616 4289501597
0.098635584 0.068692647 0.616 4289371295
0.099805869 0.068694174 0.616 4289305501
0.10146796 0.06903027 0.61900002 4289240994
0.10264404 0.069031827 0.61900002 4289174945
0.1604782 0.079688407 0.71399999 4291411654
0.1618365 0.079690561 0.71399999 4291148739
0.16296631 0.079581112 0.713 4291148471
0.16432279 0.07958328 0.713 4291148471
0.16591172 0.079697073 0.71399999 4290950844
0.17296514 0.078595974 0.704 4291346634
0.17356214 0.078263223 0.70099998 4290558398
0.17489623 0.078265391 0.70099998 4290097847
0.17623033 0.078267567 0.70099998 4290229443
0.17756452 0.078269742 0.70099998 4289308341
0.17940915 0.078495234 0.70300001 4288716442
0.18609083 0.077393726 0.69300002 4293712601
0.18741004 0.077395871 0.69300002 4292793550
0.18872927 0.077398024 0.69300002 4291872448
0.19136782 0.077402316 0.69300002 4289045173
0.1952264 0.076852351 0.68800002 4278190080
0.19653627 0.076854452 0.68800002 4278190080
0.2056004 0.075867616 0.67900002 4280425245
0.20658845 0.075757891 0.67799997 4280161824
0.20787936 0.075759903 0.67799997 4279898395
0.20855324 0.075538434 0.676 4279898395
0.20984034 0.075540408 0.676 4280030237
0.21112737 0.07554239 0.676 4279702819
0.21499579 0.075103156 0.67199999 4281337600
0.21627517 0.075105064 0.67199999 4288180052
0.066635922 0.070619039 0.62300003 4288580749
0.067818291 0.070620149 0.62300003 4288580749
0.069000676 0.070621267 0.62300003 4288646541
0.07007046 0.070509039 0.62199998 4288317575
0.071136482 0.070396841 0.62099999 4288186492
0.072198771 0.070284657 0.62 4287923319
0.07325729 0.070172489 0.61900002 4287988347
0.074432299 0.070173696 0.61900002 4287988347
0.075485192 0.070061542 0.61799997 4287856770
0.076658368 0.070062771 0.61799997 4287725441
0.077831596 0.070064023 0.61799997 4288119424
0.079004884 0.070065297 0.61799997 4288119424
0.079788998 0.069726467 0.61500001 4288119154
0.08095666 0.069727764 0.61500001 4288316276
0.082124367 0.069729075 0.61500001 4287988599
0.083292104 0.069730408 0.61500001 4287922806
0.084459908 0.06973175 0.61500001 4287924350
0.085627742 0.069733106 0.61500001 4288713866
0.086795621 0.069734491 0.61500001 4289108361
0.087963566 0.069735885 0.61500001 4289502863
0.089131534 0.0697373 0.61500001 4289699998
0.090299554 0.069738723 0.61500001 4289897120
0.091467619 0.069740154 0.61500001 4289831848
0.092635728 0.069741614 0.61500001 4289766054
0.093803883 0.069743082 0.61500001 4289832100
0.094972096 0.069744572 0.61500001 4289437342
0.096140333 0.069746055 0.61500001 4289436319
0.097466864 0.069860987 0.616 4290028457
0.098637111 0.069862515 0.616 4289239454
0.099807411 0.069864057 0.616 4289107868
0.10146952 0.070205867 0.61900002 4289173663
0.10264561 0.070207432 0.61900002 4289305249
0.10382175 0.070209026 0.61900002 4289304736
0.15776393 0.081040688 0.71399999 4290688701
0.15912212 0.081042841 0.71399999 4290622908
0.16048037 0.081045002 0.71399999 4290688449
0.16161203 0.080933668 0.713 4290820035
0.17162761 0.079931587 0.704 4292136399
0.17272167 0.079820238 0.70300001 4292662743
0.17356433 0.079595335 0.70099998 4292136149
0.17489839 0.07959751 0.70099998 4291675598
0.17623252 0.079599701 0.70099998 4290953922
0.18555588 0.078483649 0.69099998 4279831829
0.18687131 0.078485802 0.69099998 4278386688
0.18818673 0.078487962 0.69099998 4278190080
0.20469399 0.076817416 0.676 4280358946
0.20598106 0.076819435 0.676 4280161572
0.21480528 0.074116617 0.65200001 4292530431
0.21604644 0.074118413 0.65200001 4292992999
0.066637032 0.071801893 0.62300003 4288843406
0.067819409 0.071803011 0.62300003 4288777613
0.068891063 0.071688883 0.62199998 4288580997
0.069958963 0.071574785 0.62099999 4288580997
0.071023107 0.071460687 0.62 4288319108
0.072199948 0.071461871 0.62 4287924350
0.073258482 0.071347803 0.61900002 4287988095
0.074433506 0.071349025 0.61900002 4288119424
0.075486414 0.071234986 0.61799997 4287462012
0.076411538 0.071005702 0.616 4287725441
0.077580981 0.071006969 0.616 4288120196
0.079006173 0.071238793 0.61799997 4288185990
0.079790294 0.070894271 0.61500001 4288316026
0.080957964 0.070895575 0.61500001 4288513406
0.082125694 0.070896909 0.61500001 4288513671
0.083293453 0.07089825 0.61500001 4288579464
0.084461272 0.070899621 0.61500001 4288646541
0.085629128 0.070900984 0.61500001 4289041298
0.0866559 0.070787095 0.61400002 4289502867
0.087821938 0.070788495 0.61400002 4289963418
0.089132942 0.070905201 0.61500001 4290291111
0.090301 0.070906654 0.61500001 4290422953
0.091469087 0.070908099 0.61500001 4290356395
0.092637204 0.070909567 0.61500001 4290224553
0.093805365 0.070911042 0.61500001 4290028196
0.094973579 0.070912547 0.61500001 4289830560
0.096141845 0.070914052 0.61500001 4289239454
0.097310163 0.07091558 0.61500001 4289437090
0.098638654 0.071032435 0.616 4288977565
0.099808961 0.071033984 0.616 4288846236
0.1009793 0.071035556 0.616 4289173663
0.10248139 0.071267784 0.61799997 4289305249
0.10382336 0.071384706 0.61900002 4289305249
0.17089844 0.080923088 0.70099998 4291675846
0.17198676 0.080809847 0.69999999 4291939018
0.17898142 0.079786085 0.69099998 4288587703
0.18029669 0.07978826 0.69099998 4287074463
0.18161197 0.079790436 0.69099998 4278209130
0.18292733 0.079792611 0.69099998 4278208359
0.21145137 0.075926617 0.65700001 4278190080
0.2120546 0.07569734 0.65499997 4278190080
0.21330163 0.07569921 0.65499997 4281155117
0.21480708 0.075356148 0.65200001 4288932065
0.21505411 0.075011209 0.64899999 4292665572
0.21628956 0.075012982 0.64899999 4293323501
0.066638142 0.072984815 0.62300003 4289896609
0.067711674 0.072868779 0.62199998 4289830560
0.068781443 0.072752766 0.62099999 4289831314
0.069847472 0.072636783 0.62 4289962900
0.071024291 0.072637953 0.62 4289765791
0.072084695 0.072521985 0.61900002 4289699998
0.073259696 0.072523192 0.61900002 4289568156
0.074314483 0.072407246 0.61799997 4289568156
0.075487673 0.072408505 0.61799997 4289371549
0.076412804 0.072175428 0.616 4289437342
0.07758227 0.072176702 0.616 4289897122
0.078751773 0.072177991 0.616 4290160295
0.079791598 0.072062127 0.61500001 4290356897
0.080959298 0.072063453 0.61500001 4290554019
0.08199349 0.071947612 0.61400002 4290225838
0.083159372 0.071948968 0.61400002 4290554803
0.084325306 0.071950339 0.61400002 4290227119
0.085491277 0.071951725 0.61400002 4289963947
0.086657293 0.071953125 0.61400002 4290293414
0.087823354 0.071954548 0.61400002 4290359207
0.089134395 0.072073177 0.61500001 4289832100
0.090302438 0.072074614 0.61500001 4289897893
0.09147054 0.07207609 0.61500001 4290027946
0.092638679 0.072077572 0.61500001 4289896103
0.093806855 0.072079062 0.61500001 4289896609
0.094975084 0.072080567 0.61500001 4289830560
0.096143372 0.072082102 0.61500001 4289568417
0.097311713 0.072083645 0.61500001 4289568417
0.098480076 0.072085194 0.61500001 4289371810
0.099810526 0.072203971 0.616 4289766568
0.1009809 0.072205558 0.616 4289634464
0.10248297 0.072441585 0.61799997 4289371549
0.10365724 0.07244321 0.61799997 4289437092
0.16884097 0.081901036 0.69800001 4290885551
0.18104525 0.079699606 0.67900002 4278196570
0.21054181 0.077759162 0.662 4282269512
0.20956254 0.07693883 0.65499997 4285359454
0.21080956 0.076940723 0.65499997 4287728002
0.21173275 0.07682512 0.65399998 4290491795
0.21265216 0.076709516 0.653 4291347104
0.21389526 0.076711349 0.653 4292270034
0.21480887 0.076595701 0.65200001 4293585894
0.21505591 0.076245062 0.64899999 4293717228
0.21595807 0.076129377 0.648 4293651435
0.21719158 0.076131143 0.648 4293847265
0.066639259 0.074167781 0.62300003 4290158760
0.067603938 0.073930815 0.62099999 4290158760
0.06867183 0.073812917 0.62 4290290078
0.069735982 0.073695034 0.61900002 4290421920
0.070910916 0.073696218 0.61900002 4290159525
0.072085902 0.073697425 0.61900002 4290028196
0.073260918 0.07369864 0.61900002 4289897893
0.074315719 0.073580816 0.61799997 4290095015
0.075488925 0.073582068 0.61799997 4290160810
0.076414071 0.073345214 0.616 4290160810
0.077583551 0.073346496 0.616 4290160295
0.078625247 0.073228732 0.61500001 4290226088
0.079792924 0.073230051 0.61500001 4290487976
0.080828987 0.073112309 0.61400002 4290553769
0.081861295 0.072994582 0.61299998 4290028972
0.083025306 0.072995938 0.61299998 4290489523
0.084326692 0.073116414 0.61400002 4290228402
0.085492678 0.073117815 0.61400002 4289965231
0.086658716 0.073119223 0.61400002 4289835180
0.087824792 0.073120661 0.61400002 4289637544
0.088990897 0.073122106 0.61400002 4289176484
0.090303913 0.073242664 0.61500001 4289242277
