# .PCD v0.7 - Point Cloud Data file format
VERSION 0.7
FIELDS x y z rgba
SIZE 4 4 4 4
TYPE F F F U
COUNT 1 1 1 1
WIDTH 1043
HEIGHT 1
VIEWPOINT 0 0 0 1 0 0 0
POINTS 1043
DATA ascii
0.099938668 -0.00028689692 0.69 4294110955
0.10139517 -0.00028687165 0.69099998 4294242541
0.10270687 -0.00028642479 0.69099998 4294439404
0.10401864 -0.0002859722 0.69099998 4294373611
0.10563534 -0.00028634028 0.69300002 4294110955
0.10710535 -0.00028628737 0.69400001 4294110955
0.108423 -0.00028581548 0.69400001 4294308588
0.11005696 -0.0002861601 0.69599998 4294374381
0.11137853 -0.00028567528 0.69599998 4294308588
0.11302402 -0.00028600416 0.69800001 4294374381
0.11434948 -0.00028550628 0.69800001 4294373611
0.11600648 -0.0002858192 0.69999999 4294176233
0.11750349 -0.00028571583 0.70099998 4294110439
0.11883485 -0.00028519833 0.70099998 4294373611
0.12050913 -0.00028548716 0.70300001 4294176233
0.12184441 -0.00028495639 0.70300001 4294176233
0.12370539 -0.00028563352 0.70599997 4294110441
0.12504651 -0.0002850887 0.70599997 4294110441
0.12674573 -0.00028534414 0.708 4294045159
0.12863351 -0.00028599272 0.71100003 4293979366
0.13034993 -0.00028622916 0.713 4293913060
-0.003592656 0.0010586567 0.72799999 4294307039
-0.0021980102 0.0010513711 0.72299999 4293912545
-0.00082804647 0.0010513628 0.72299999 4294373096
0.00054116227 0.0010499068 0.722 4294373348
0.0019039328 0.001047003 0.72000003 4294373348
0.0032545812 0.001042651 0.71700001 4294373350
0.0046067266 0.0010412137 0.71600002 4294570472
0.0059467517 0.0010383285 0.71399999 4294439402
0.0072689746 0.0010339952 0.71100003 4294373609
0.0086161839 0.0010340307 0.71100003 4294373607
0.0099493824 0.001032618 0.70999998 4294505449
0.011262884 0.0010297571 0.708 4294439654
0.012604421 0.0010298111 0.708 4294373861
0.013926262 0.0010284167 0.70700002 4294176739
0.015244318 0.0010270282 0.70599997 4294571240
0.016535109 0.001024191 0.704 4294636265
0.017843705 0.0010228147 0.70300001 4294702058
0.019093968 0.0010185337 0.69999999 4294637038
0.020362046 0.0010157137 0.69800001 4294571244
0.021653624 0.0010143546 0.69700003 4294636265
0.022974379 0.0010144566 0.69700003 4294702058
0.024295151 0.0010145649 0.69700003 4294702310
0.025579184 0.0010132233 0.69599998 4294768104
0.026820797 0.0010104317 0.69400001 4294767852
0.028135931 0.0010105576 0.69400001 4294767852
0.029408641 0.0010092332 0.69300002 4294570990
0.030633248 0.0010064581 0.69099998 4294505197
0.031942748 0.0010066016 0.69099998 4294636265
0.033204142 0.0010052942 0.69 4294702058
0.03451179 0.0010054498 0.69 4294571242
0.035715628 0.0010026965 0.68800002 4294768365
0.037019528 0.0010028635 0.68800002 4294637036
0.038323451 0.0010030365 0.68800002 4294571242
0.039569799 0.0010017575 0.68699998 4294571244
0.040871877 0.0010019423 0.68699998 4294768367
0.042112589 0.0010006743 0.68599999 4294834160
0.043412831 0.0010008711 0.68599999 4294834160
0.044713087 0.0010010736 0.68599999 4294834160
0.045879234 0.0009983629 0.68400002 4294834160
0.047175758 0.00099857687 0.68400002 4294768369
0.048401453 0.00099733658 0.68300003 4294768369
0.049696151 0.00099756208 0.68300003 4294768369
0.050990872 0.00099779374 0.68300003 4294834162
0.052285638 0.00099803123 0.68300003 4294834160
0.053580433 0.00099827477 0.68300003 4294768367
0.055116288 0.00100291 0.68599999 4294571758
0.056416843 0.0010031664 0.68599999 4294703344
0.057717424 0.0010034288 0.68599999 4294637551
0.058845989 0.0010007712 0.68400002 4294637551
0.06014286 0.0010010448 0.68400002 4294637038
0.061439767 0.0010013245 0.68400002 4294834160
0.062736712 0.00100161 0.68400002 4294769139
0.064033709 0.0010019016 0.68400002 4294769139
0.065330729 0.0010021991 0.68400002 4294637297
0.066627808 0.0010025025 0.68400002 4294637297
0.067924932 0.0010028121 0.68400002 4294768369
0.069222093 0.0010031274 0.68400002 4294636784
0.070725471 0.0010063826 0.68599999 4294636784
0.071816534 0.0010037761 0.68400002 4294636784
0.073113821 0.0010041092 0.68400002 4294571244
0.074411154 0.0010044483 0.68400002 4294571244
0.075708538 0.0010047934 0.68400002 4294571244
0.077005967 0.0010051446 0.68400002 4294637038
0.078303456 0.0010055016 0.68400002 4294571758
0.079600967 0.0010058645 0.68400002 4294505708
0.081135094 0.0010091756 0.68599999 4294439402
0.082436517 0.0010095516 0.68599999 4294505195
0.083493866 0.001006989 0.68400002 4294439402
0.084791586 0.0010073757 0.68400002 4294439402
0.086341091 0.001010715 0.68599999 4294439402
0.087642707 0.0010111146 0.68599999 4294439402
0.088685073 0.0010085712 0.68400002 4294439404
0.089983001 0.0010089816 0.68400002 4294439404
0.091681346 0.0010138251 0.68699998 4294439402
0.092985079 0.0010142492 0.68699998 4294373609
0.094288878 0.0010146793 0.68699998 4294110691
0.095592722 0.0010151153 0.68699998 4294373607
0.097037673 0.0010170355 0.68800002 4294373609
0.098343536 0.0010174839 0.68800002 4294373609
0.099939115 0.0010208974 0.69 4294307818
0.10139561 0.0010228393 0.69099998 4294373611
0.10270734 0.0010233076 0.69099998 4294242795
0.10401911 0.0010237818 0.69099998 4294242795
0.10563583 0.0010272268 0.69300002 4294176746
0.10710583 0.0010291974 0.69400001 4294176746
0.1084235 0.0010296917 0.69400001 4294176746
0.11005744 0.0010331607 0.69599998 4294110953
0.11137901 0.0010336685 0.69599998 4294176233
0.11302452 0.001037154 0.69800001 4294176233
0.11434999 0.0010376753 0.69800001 4294110439
0.116007 0.0010411772 0.69999999 4294176233
0.11750402 0.0010431999 0.70099998 4294176233
0.11883539 0.0010437414 0.70099998 4294307818
0.12050966 0.0010472683 0.70300001 4293978853
0.12184495 0.0010478232 0.70300001 4293978853
0.12370597 0.0010528583 0.70599997 4293978601
0.12522419 0.00105492 0.70700002 4293978601
0.12710434 0.0010599751 0.70999998 4294044648
0.12845315 0.00106056 0.70999998 4293912806
0.12998489 0.0010626457 0.71100003 4293715684
-0.0035926753 0.0024376444 0.72799999 4294307039
-0.0021980228 0.0024208853 0.72299999 4294109669
-0.00082805264 0.002420875 0.72299999 4294373098
0.00054191233 0.0024208715 0.72299999 4294373348
0.0019039396 0.0024108295 0.72000003 4294373348
0.0032545947 0.0024007941 0.71700001 4294373350
0.0046067461 0.002397462 0.71600002 4294373350
0.0059467782 0.0023907879 0.71399999 4294373096
0.0072690076 0.0023807723 0.71100003 4294373096
0.008616223 0.0023808081 0.71100003 4294373350
0.009949428 0.0023775022 0.70999998 4294570472
0.011262937 0.0023708537 0.708 4294570724
0.01260448 0.0023709096 0.708 4294570724
0.013926326 0.0023676227 0.70700002 4294439141
0.015244391 0.0023643421 0.70599997 4294636263
0.016535185 0.0023577192 0.704 4294702058
0.017843788 0.0023544515 0.70300001 4294767852
0.019094057 0.002344491 0.69999999 4294833649
0.020362141 0.002337886 0.69800001 4294833649
0.021684788 0.0023379859 0.69800001 4294570472
0.022974486 0.0023347426 0.69700003 4294439143
0.024295267 0.0023348555 0.69700003 4294570472
0.025579298 0.0023316243 0.69599998 4294702058
0.026898218 0.0023317498 0.69599998 4294702058
0.028136062 0.0023251809 0.69400001 4294767852
0.029408779 0.0023219683 0.69300002 4294505197
0.03063339 0.0023154104 0.69099998 4294439404
0.031942897 0.0023155606 0.69099998 4294439402
0.033204302 0.0023123657 0.69 4294439402
0.034511954 0.0023125282 0.69 4294505449
0.0357158 0.0023059936 0.68800002 4294637036
0.037019704 0.0023061684 0.68800002 4294505195
0.03832363 0.0023063496 0.68800002 4294439402
0.039569989 0.0023031842 0.68699998 4294505197
0.040872071 0.0023033782 0.68699998 4294768369
0.042112786 0.0023002247 0.68599999 4294768365
0.043413036 0.0023004308 0.68599999 4294834158
0.044713303 0.0023006429 0.68599999 4294768367
0.04587945 0.0022941534 0.68400002 4294637038
0.047175981 0.0022943774 0.68400002 4294571506
0.048472542 0.0022946077 0.68400002 4294505712
0.049769141 0.0022948447 0.68400002 4294637038
0.051065773 0.0022950878 0.68400002 4294768367
0.052285876 0.0022919811 0.68300003 4294768365
0.053580675 0.0022922363 0.68300003 4294637036
0.054955859 0.0022958538 0.68400002 4294571758
0.056417111 0.0023028362 0.68599999 4294703344
0.0577177 0.0023031109 0.68599999 4294768365
0.058846269 0.0022966773 0.68400002 4294637036
0.060143139 0.0022969642 0.68400002 4294637038
0.061440054 0.0022972568 0.68400002 4294768367
0.06273701 0.0022975565 0.68400002 4294899440
0.064034 0.0022978622 0.68400002 4294965746
0.065331042 0.0022981742 0.68400002 4294834162
0.066628121 0.0022984922 0.68400002 4294768369
0.067925237 0.0022988166 0.68400002 4294570990
0.069222406 0.002299147 0.68400002 4294505197
0.070519611 0.0022994839 0.68400002 4294505197
0.071816862 0.0022998268 0.68400002 4294570990
0.073114164 0.0023001761 0.68400002 4294571244
0.074411504 0.0023005316 0.68400002 4294571244
0.075708888 0.0023008932 0.68400002 4294571244
0.07700634 0.0023012613 0.68400002 4294637038
0.078303814 0.0023016352 0.68400002 4294637036
0.079601347 0.0023020154 0.68400002 4294571242
0.081135482 0.002309134 0.68599999 4294439402
0.082436912 0.0023095279 0.68599999 4294439402
0.083494239 0.0023031933 0.68400002 4294439402
0.084791988 0.0023035984 0.68400002 4294373609
0.086341478 0.0023107461 0.68599999 4294373609
0.087643132 0.0023111652 0.68599999 4294373609
0.0889448 0.0023115899 0.68599999 4294439402
0.090246536 0.0023120209 0.68599999 4294373609
0.091681778 0.002315829 0.68699998 4294307816
0.092985511 0.0023162726 0.68699998 4294176487
0.094289318 0.0023167229 0.68699998 4294110689
0.095593169 0.0023171792 0.68699998 4294176739
0.097038135 0.0023210156 0.68800002 4294307816
0.098343983 0.0023214847 0.68800002 4294176487
0.099939577 0.0023287097 0.69 4294307818
0.10139609 0.0023325682 0.69099998 4294307818
0.10270783 0.0023330583 0.69099998 4294177000
0.1040196 0.0023335542 0.69099998 4294177000
0.10563631 0.0023408122 0.69300002 4294176746
0.10710634 0.0023447003 0.69400001 4294242795
0.10842401 0.0023452172 0.69400001 4294307818
0.11005797 0.0023524996 0.69599998 4294176233
0.11137956 0.0023530305 0.69599998 4294110953
0.11302502 0.0023603302 0.69800001 4294045159
0.11435052 0.0023608748 0.69800001 4294176233
0.11617327 0.0023715748 0.70099998 4294176233
0.11750457 0.002372134 0.70099998 4294176487
0.11883594 0.0023726991 0.70099998 4294307816
0.12068166 0.0023834277 0.704 4293978599
0.12236549 0.0023907805 0.70599997 4293978599
0.12388176 0.0023947558 0.70700002 4293979116
0.12540191 0.0023987393 0.708 4293847787
0.12710491 0.0024061189 0.70999998 4293847783
0.12845378 0.0024067292 0.70999998 4293650404
0.1299855 0.0024107362 0.71100003 4293715684
-0.0049721622 0.0038166787 0.72799999 4293122765
-0.003592697 0.0038166521 0.72799999 4294175453
-0.0021980377 0.0037904198 0.72299999 4293978338
-0.00082806055 0.0037904072 0.72299999 4294175716
0.00054191134 0.0037904021 0.72299999 4294109919
0.0019039453 0.003774676 0.72000003 4294307555
0.0032636854 0.0037694424 0.71899998 4294373348
0.0046067657 0.0037537301 0.71600002 4294373348
0.0059468043 0.0037432674 0.71399999 4294373096
0.0072894879 0.0037380543 0.713 4294373096
0.008616263 0.0037276056 0.71100003 4294373348
0.0099494737 0.003722406 0.70999998 4294373348
0.011262991 0.0037119703 0.708 4294373348
0.012586737 0.0037067849 0.70700002 4294570470
0.013906695 0.0037016049 0.70599997 4294439141
0.015201278 0.0036911895 0.704 4294439141
0.016535265 0.0036912668 0.704 4294439141
0.017843874 0.0036861077 0.70300001 4294439141
0.019121425 0.0036757111 0.70099998 4294570218
0.020420585 0.0036705649 0.69999999 4294636267
0.021684892 0.0036601815 0.69800001 4294373348
0.023007559 0.0036602919 0.69800001 4294570470
0.024295382 0.0036551657 0.69700003 4294570470
0.025616178 0.0036552891 0.69700003 4294702312
0.026898351 0.0036501754 0.69599998 4294439656
0.028136197 0.0036398231 0.69400001 4294505449
0.029408926 0.0036347227 0.69300002 4294505197
0.030633541 0.0036243822 0.69099998 4294439404
0.031943057 0.0036245387 0.69099998 4294242793
0.033252586 0.0036247021 0.69099998 4294308586
0.034512125 0.0036196262 0.69 4294505449
0.035819799 0.0036198022 0.69 4294571242
0.037019886 0.0036094924 0.68800002 4294636265
0.03832382 0.0036096817 0.68800002 4294702058
0.039570179 0.0036046307 0.68699998 4294702058
0.040872272 0.0036048326 0.68699998 4294702058
0.042174384 0.0036050419 0.68699998 4294571244
0.043476529 0.003605257 0.68699998 4294637038
0.044713523 0.0036002316 0.68599999 4294571244
0.046013821 0.0036004598 0.68599999 4294571244
0.047314152 0.0036006945 0.68599999 4294636784
0.048472784 0.0035904376 0.68400002 4294570990
0.049769398 0.0035906855 0.68400002 4294505195
0.051066026 0.0035909403 0.68400002 4294505195
0.052286144 0.0035859505 0.68300003 4294505449
0.053580947 0.0035862173 0.68300003 4294571242
0.054956127 0.0035917412 0.68400002 4294571242
0.05641738 0.0036025248 0.68599999 4294637036
0.057717983 0.0036028125 0.68599999 4294571242
0.058846556 0.0035926022 0.68400002 4294505449
0.060143445 0.0035929021 0.68400002 4294570218
0.06144036 0.003593209 0.68400002 4294570218
0.062737331 0.0035935224 0.68400002 4294438889
0.064034328 0.003593842 0.68400002 4294702060
0.06533137 0.0035941682 0.68400002 4294767854
0.066628449 0.0035945007 0.68400002 4294636267
0.06792558 0.0035948399 0.68400002 4294505197
0.069222748 0.0035951852 0.68400002 4294505197
0.070519961 0.0035955382 0.68400002 4294505197
0.071817219 0.0035958968 0.68400002 4294439404
0.073114522 0.0035962618 0.68400002 4294438889
0.074411876 0.0035966341 0.68400002 4294636267
0.075709268 0.003597012 0.68400002 4294439402
0.077006713 0.0035973967 0.68400002 4294439402
0.078304194 0.0035977876 0.68400002 4294439656
0.079601742 0.003598186 0.68400002 4294439656
0.081135876 0.0036091115 0.68599999 4294307816
0.082437314 0.0036095234 0.68599999 4294373609
0.083494656 0.0035994169 0.68400002 4294439402
0.084792398 0.0035998404 0.68400002 4294439402
0.086341903 0.0036107972 0.68599999 4294307816
0.087643549 0.0036112342 0.68599999 4294373609
0.08894524 0.0036116787 0.68599999 4294439404
0.09037853 0.0036173938 0.68699998 4294307818
0.091682248 0.003617852 0.68699998 4294045157
0.09298598 0.0036183151 0.68699998 4293979364
0.094427042 0.0036240534 0.68800002 4294044898
0.095732801 0.003624531 0.68800002 4294110691
0.097038604 0.0036250141 0.68800002 4294176487
0.098630361 0.0036360431 0.69 4294176487
0.099940076 0.0036365411 0.69 4294110439
0.1013966 0.0036423164 0.69099998 4294176233
0.10270832 0.0036428277 0.69099998 4294176487
0.10402012 0.0036433456 0.69099998 4294307816
0.10563684 0.0036544164 0.69300002 4294044646
0.10710687 0.0036602223 0.69400001 4294110439
0.108737 0.0036713118 0.69599998 4294176233
0.11005851 0.0036718578 0.69599998 4294176233
0.11138011 0.0036724117 0.69599998 4294045159
0.11302559 0.0036835258 0.69800001 4294110953
0.11435109 0.0036840935 0.69800001 4293979366
0.11617383 0.0037005048 0.70099998 4293979366
0.11750514 0.0037010871 0.70099998 4293913060
0.11917557 0.0037122378 0.70300001 4293913060
0.12102509 0.0037286794 0.70599997 4293912806
0.1225394 0.0037345684 0.70700002 4293978599
0.12388238 0.0037351814 0.70700002 4293978599
0.12540253 0.0037410858 0.708 4293978599
0.12710553 0.0037522817 0.70999998 4293913060
0.12845439 0.0037529175 0.70999998 4293847267
0.12998614 0.0037588465 0.71100003 4293715682
-0.0049721943 0.0051957108 0.72799999 4293057222
-0.0035877863 0.0051885447 0.727 4294044117
-0.0021980545 0.0051599746 0.72299999 4293912545
-0.00082807016 0.0051599606 0.72299999 4294241509
0.00054190884 0.0051599536 0.72299999 4294175712
0.0019039504 0.0051385439 0.72000003 4294307555
0.003263698 0.0051314142 0.71899998 4294438371
0.0046132193 0.0051171561 0.71700001 4294438371
0.0059468304 0.0050957683 0.71399999 4294307301
0.0072895209 0.0050886599 0.713 4294439143
0.0086163031 0.0050744233 0.71100003 4294373348
0.0099495221 0.0050673303 0.70999998 4294241761
0.011263045 0.0050531072 0.708 4294439141
0.012586798 0.0050460291 0.70700002 4294439141
0.013906762 0.0050389571 0.70599997 4294307301
0.015201353 0.0050247554 0.704 4294241507
0.016535345 0.0050248345 0.704 4294307301
0.017843965 0.005017784 0.70300001 4294373350
0.019121522 0.0050036018 0.70099998 4294373350
0.020420685 0.0049965652 0.69999999 4294636265
0.021747136 0.0049966727 0.69999999 4294373096
0.023007678 0.004982512 0.69800001 4294570218
0.024330361 0.004982634 0.69800001 4294636265
0.025616309 0.0049756239 0.69700003 4294899694
0.026898487 0.0049686213 0.69599998 4294570218
0.028136341 0.0049544862 0.69400001 4294570218
0.02945151 0.0049546356 0.69400001 4294505458
0.030722361 0.004947653 0.69300002 4294308336
0.031943217 0.004933537 0.69099998 4294439656
0.033252757 0.0049337065 0.69099998 4294373607
0.0345123 0.0049267435 0.69 4294439656
0.035819985 0.0049269269 0.69 4294439656
0.037020076 0.0049128369 0.68800002 4294570472
0.038324017 0.0049130339 0.68800002 4294702058
0.039512787 0.0048989556 0.68599999 4294702058
0.040812984 0.0048991661 0.68599999 4294636265
0.042113215 0.0048993835 0.68599999 4294571244
0.043413468 0.004899608 0.68599999 4294571244
0.044713747 0.0048998394 0.68599999 4294570990
0.046014056 0.0049000774 0.68599999 4294570990
0.047314398 0.0049003228 0.68599999 4294570990
0.048614766 0.0049005751 0.68599999 4294505197
0.049769647 0.0048865462 0.68400002 4294505195
0.051066287 0.0048868116 0.68400002 4294505195
0.052286409 0.0048799389 0.68300003 4294505449
0.053581223 0.0048802174 0.68300003 4294439656
0.0551171 0.0049019391 0.68599999 4294702312
0.05641767 0.0049022329 0.68599999 4294768106
0.057718273 0.0049025333 0.68599999 4294702058
0.059018925 0.0049028406 0.68599999 4294636265
0.060143754 0.0048888605 0.68400002 4294438891
0.061440676 0.00488918 0.68400002 4294438891
0.062921092 0.0049038045 0.68599999 4294438891
0.064221889 0.0049041379 0.68599999 4294438891
0.065331697 0.0048901816 0.68400002 4294373611
0.066628791 0.0048905285 0.68400002 4294505197
0.067925937 0.0048908829 0.68400002 4294439402
0.069223113 0.0048912438 0.68400002 4294505195
0.070520334 0.0048916121 0.68400002 4294439402
0.071817584 0.004891986 0.68400002 4294373609
0.073114902 0.0048923674 0.68400002 4294439404
0.074412256 0.0048927553 0.68400002 4294439404
0.075709656 0.0048931502 0.68400002 4294307818
0.077007115 0.004893552 0.68400002 4294307818
0.078304604 0.00489396 0.68400002 4294373609
0.079602145 0.0048943749 0.68400002 4294373609
0.081136294 0.0049091084 0.68599999 4294373096
0.082437731 0.0049095377 0.68599999 4294438889
0.083739214 0.0049099741 0.68599999 4294373609
0.08504077 0.0049104178 0.68599999 4294373609
0.086342342 0.0049108667 0.68599999 4294176233
0.087643996 0.0049113231 0.68599999 4294110439
0.088945702 0.0049117869 0.68599999 4294176233
0.090378992 0.0049194167 0.68699998 4294176233
0.091816165 0.0049270559 0.68800002 4294110439
0.093121797 0.0049275397 0.68800002 4294110439
0.094427533 0.0049280315 0.68800002 4294044898
0.096011586 0.0049428553 0.69 4294110691
0.097321197 0.004943361 0.69 4294110693
0.098630875 0.0049438737 0.69 4294110693
0.099940576 0.0049443915 0.69 4294044646
0.1013971 0.0049520838 0.69099998 4294044646
0.10270885 0.004952617 0.69099998 4294111207
0.10432172 0.0049674925 0.69300002 4294505708
0.10563738 0.0049680406 0.69300002 4294044646
0.10710741 0.0049757641 0.69400001 4293978853
0.10873756 0.0049906666 0.69599998 4293979366
0.11005906 0.0049912357 0.69599998 4293979366
0.11138065 0.0049918126 0.69599998 4294044646
0.11302616 0.0050067408 0.69800001 4294044646
0.11435167 0.0050073317 0.69800001 4294044646
0.11617441 0.0050294534 0.70099998 4293978853
0.11784101 0.0050444114 0.70300001 4293847013
0.1193457 0.0050522028 0.704 4293847013
0.12102569 0.0050671794 0.70599997 4293913060
0.12254004 0.0050749891 0.70700002 4293913060
0.12388299 0.005075627 0.70700002 4293913060
0.12522602 0.0050762715 0.70700002 4293978853
0.12656912 0.0050769225 0.70700002 4293913058
0.12845503 0.0050991257 0.70999998 4293913058
0.12998678 0.0051069753 0.71100003 4293649888
0.1317071 0.0051220176 0.713 4293386716
-0.0049722288 0.0065747648 0.72799999 4292858821
-0.0035878131 0.0065657012 0.727 4294043352
-0.002210235 0.0065656775 0.727 4293977822
-0.00083037239 0.0065475986 0.72500002 4294043615
0.00054190488 0.0065295273 0.72299999 4294043613
0.0019092426 0.0065204953 0.722 4294175199
0.0032637087 0.0064934082 0.71899998 4294175199
0.0046132375 0.0064753611 0.71700001 4294175199
0.0059468569 0.0064482894 0.71399999 4294109408
0.0072997771 0.0064483192 0.71399999 4294306787
0.0086163441 0.0064212629 0.71100003 4294241255
0.0099495696 0.0064122761 0.70999998 4294241255
0.0112631 0.0063942671 0.708 4294373350
0.01258686 0.0063852947 0.70700002 4294439143
0.013906832 0.0063763307 0.70599997 4294176739
0.015201431 0.0063583418 0.704 4294176739
0.016511943 0.0063493932 0.70300001 4294109921
0.017844055 0.0063494821 0.70300001 4294307301
0.019121623 0.0063315146 0.70099998 4294373350
0.020449962 0.0063316189 0.70099998 4294373350
0.021747252 0.0063226991 0.69999999 4294307301
0.023007801 0.0063047539 0.69800001 4294570472
0.024330491 0.0063048797 0.69800001 4294570472
0.025616445 0.0062959804 0.69700003 4294636265
0.026937276 0.006296122 0.69700003 4294570472
0.028217575 0.0062872362 0.69599998 4294570472
0.029451665 0.0062693255 0.69400001 4294505197
0.030722525 0.0062604542 0.69300002 4294505197
0.031943388 0.006242556 0.69099998 4294439656
0.033252936 0.0062427334 0.69099998 4294439656
0.034512483 0.0062338817 0.69 4294373607
0.035716355 0.0062160036 0.68800002 4294439656
0.037020274 0.0062162019 0.68800002 4294570724
0.038324222 0.0062164068 0.68800002 4294636517
0.039513003 0.0061985482 0.68599999 4294505449
0.040813204 0.0061987676 0.68599999 4294505449
0.04199066 0.0061809211 0.68400002 4294505195
0.043287128 0.0061811535 0.68400002 4294571244
0.04458363 0.0061813942 0.68400002 4294768369
0.04588015 0.0061816415 0.68400002 4294570990
0.047176704 0.0061818967 0.68400002 4294505197
0.048473302 0.0061821588 0.68400002 4294505197
0.049769904 0.0061824275 0.68400002 4294373609
0.051066563 0.0061827032 0.68400002 4294373609
0.052286685 0.0061739474 0.68300003 4294373607
0.053581506 0.0061742389 0.68300003 4294176485
0.055117402 0.0062016556 0.68599999 4294307301
0.056417979 0.0062019625 0.68599999 4294570472
0.057718594 0.0062022754 0.68599999 4294373348
0.058847174 0.0061845123 0.68400002 4294439141
0.060144067 0.0061848387 0.68400002 4294439143
0.061441012 0.0061851717 0.68400002 4294439143
0.062737986 0.0061855135 0.68400002 4294570218
0.064222239 0.006203949 0.68599999 4294570218
0.065332055 0.0061862166 0.68400002 4294570218
0.066629156 0.0061865775 0.68400002 4294438889
0.067926288 0.0061869458 0.68400002 4294439402
0.069223478 0.006187323 0.68400002 4294439402
0.070520706 0.0061877067 0.68400002 4294110439
0.071817979 0.0061880965 0.68400002 4294307818
0.073115297 0.0061884937 0.68400002 4294570218
0.074412651 0.0061888983 0.68400002 4294570218
0.075710066 0.0061893091 0.68400002 4294176487
0.077007517 0.0061897277 0.68400002 4294176487
0.078305021 0.0061901533 0.68400002 4294176487
0.079602569 0.006190584 0.68400002 4294110693
0.080900177 0.0061910241 0.68400002 4294175716
0.082438171 0.0062095737 0.68599999 4294241509
0.083495542 0.0061919242 0.68400002 4294373096
0.084793285 0.0061923834 0.68400002 4294307303
0.086342812 0.0062109581 0.68599999 4294110439
0.087644458 0.0062114326 0.68599999 4294110439
0.088946171 0.0062119151 0.68599999 4294176487
0.090247937 0.0062124049 0.68599999 4294176487
0.091816656 0.0062310142 0.68800002 4294110693
0.093122311 0.006231518 0.68800002 4293913058
0.094428018 0.0062320288 0.68800002 4293912797
0.096012086 0.0062506641 0.69 4293978590
0.097321711 0.0062511913 0.69 4294044646
0.098631375 0.006251723 0.69 4294044646
0.099941112 0.0062522641 0.69 4293913060
0.10139764 0.0062618717 0.69099998 4294110439
0.10300667 0.0062805531 0.69300002 4294045159
0.10432228 0.0062811156 0.69300002 4294110953
0.10563794 0.0062816842 0.69300002 4293979366
0.10710799 0.0062913261 0.69400001 4293848037
0.10873811 0.0063100425 0.69599998 4293978853
0.11005967 0.0063106357 0.69599998 4293978853
0.11154129 0.0063203014 0.69700003 4293978853
0.11302676 0.006329977 0.69800001 4293978853
0.11435228 0.0063305916 0.69800001 4293978853
0.11617503 0.0063584233 0.70099998 4293978853
0.11784162 0.0063771978 0.70300001 4293847267
0.11934634 0.0063869082 0.704 4293847267
0.12102634 0.0064057009 0.70599997 4293913060
0.12236733 0.0064063561 0.70599997 4293649888
0.12370843 0.0064070183 0.70599997 4293649118
0.12522669 0.0064167632 0.70700002 4293846754
0.12656978 0.0064174389 0.70700002 4293649888
0.12809387 0.0064272 0.708 4293649888
0.12980464 0.0064460477 0.70999998 4293518302
0.13170779 0.0064739869 0.713 4293386716
0.13380904 0.0065110191 0.71700001 4293189339
0.13611409 0.0065571479 0.722 4293386462
-0.004972266 0.0079538412 0.72799999 4292399553
-0.0035878429 0.0079428824 0.727 4293781206
-0.0022102562 0.0079428554 0.727 4293977820
-0.00083038589 0.007920986 0.72500002 4293977820
0.00054189935 0.0078991232 0.72299999 4293912797
0.0019092448 0.007888196 0.722 4293978590
0.0032637187 0.0078554256 0.71899998 4294175201
0.0046132561 0.0078335898 0.71700001 4294240994
0.0059635402 0.0078226859 0.71600002 4294175716
0.007299812 0.0078008645 0.71399999 4294373096
0.008616386 0.0077681257 0.71100003 4294373098
0.009949618 0.0077572456 0.70999998 4294307305
0.011263156 0.0077354475 0.708 4294373346
0.012586923 0.0077245831 0.70700002 4294439139
0.013906904 0.0077137258 0.70599997 4294307301
0.015201511 0.0076919524 0.704 4294307301
0.016512031 0.0076811109 0.70300001 4294307301
0.017793383 0.0076593496 0.70099998 4294307301
0.019121723 0.0076594492 0.70099998 4294307301
0.020420903 0.0076486319 0.69999999 4294307301
0.021747367 0.0076487474 0.69999999 4294307303
0.023007922 0.0076270169 0.69800001 4294373096
0.024330623 0.0076271477 0.69800001 4294439141
0.025616584 0.0076163597 0.69700003 4294570470
0.026898775 0.0076055783 0.69599998 4294570472
0.028217729 0.007605731 0.69599998 4294570472
0.029409394 0.0075731101 0.69300002 4294570472
0.030722694 0.0075732786 0.69300002 4294570472
0.031943563 0.0075515974 0.69099998 4294373607
0.033253118 0.0075517809 0.69099998 4294176485
0.034512673 0.0075410423 0.69 4294307814
0.035716549 0.0075193834 0.68800002 4294505449
0.037020486 0.0075195888 0.68800002 4294570722
0.038324438 0.007519803 0.68800002 4294570722
0.039570816 0.0075090919 0.68699998 4294505447
0.040872924 0.0075093205 0.68699998 4294505447
0.041990891 0.0074767643 0.68400002 4294439656
0.043287374 0.0074770073 0.68400002 4294439656
0.044583872 0.007477256 0.68400002 4294439402
0.045880407 0.007477514 0.68400002 4294176487
0.047176976 0.0074777789 0.68400002 4294110953
0.048473559 0.0074780509 0.68400002 4294242795
0.049770191 0.0074783312 0.68400002 4294307816
0.051066842 0.0074786181 0.68400002 4294307816
0.052286975 0.0074679786 0.68300003 4294176233
0.053581815 0.0074682822 0.68300003 4294110439
0.055117704 0.0075013954 0.68599999 4294373350
0.056418285 0.007501713 0.68599999 4294570472
0.057718907 0.0075020385 0.68599999 4294373350
0.058847506 0.0074804998 0.68400002 4294373350
0.060144413 0.0074808397 0.68400002 4294373350
0.061441354 0.0074811871 0.68400002 4294570472
0.062738337 0.0074815424 0.68400002 4294570472
0.064035356 0.0074819024 0.68400002 4294636265
0.065332413 0.0074822716 0.68400002 4294439656
0.066629529 0.0074826488 0.68400002 4294307814
0.067926683 0.007483033 0.68400002 4294373611
0.069223866 0.0074834242 0.68400002 4294505197
0.070521101 0.0074838228 0.68400002 4294176233
0.071818374 0.0074842284 0.68400002 4294176233
0.073115699 0.0074846414 0.68400002 4294373609
0.074413076 0.0074850628 0.68400002 4294373609
0.07571049 0.0074854903 0.68400002 4294307816
0.077233121 0.0075078141 0.68599999 4294176487
0.078305461 0.0074863671 0.68400002 4294176487
0.079603016 0.007486817 0.68400002 4294110693
0.080900632 0.0074872738 0.68400002 4294175462
0.082198299 0.007487738 0.68400002 4294241255
0.083495997 0.0074882084 0.68400002 4294176487
0.084793769 0.007488688 0.68400002 4294176487
0.086091571 0.0074891723 0.68400002 4294110439
0.087644957 0.0075115645 0.68599999 4294110439
0.088946663 0.007512066 0.68599999 4294307816
0.090248421 0.0075125732 0.68599999 4294373609
0.091817163 0.0075349938 0.68800002 4294044898
0.093122832 0.0075355181 0.68800002 4293913056
0.094428562 0.0075360499 0.68800002 4293847517
0.096012622 0.0075584957 0.69 4293913310
0.097322255 0.0075590429 0.69 4293978853
0.098631933 0.0075595961 0.69 4293978853
0.099941678 0.0075601572 0.69 4293978853
0.10139821 0.0075716833 0.69099998 4294044646
0.10300725 0.0075941752 0.69300002 4294045159
0.10432286 0.0075947605 0.69300002 4293979366
0.10579096 0.0076063122 0.69400001 4293978853
0.10741725 0.0076288325 0.69599998 4294044646
0.10873874 0.0076294402 0.69599998 4293978851
0.11006027 0.0076300548 0.69599998 4293847265
0.1115419 0.0076416414 0.69700003 4293913060
0.11302739 0.0076532355 0.69800001 4294044646
0.11468057 0.0076758042 0.69999999 4293978853
0.11617568 0.0076874164 0.70099998 4293913060
0.117507 0.0076880693 0.70099998 4293847267
0.11917747 0.0077106683 0.70300001 4293913060
0.12102702 0.0077442452 0.70599997 4293715682
0.12236802 0.0077449242 0.70599997 4293518302
0.1237091 0.007745611 0.70599997 4293518304
0.12522736 0.0077572758 0.70700002 4293715684
0.12657048 0.0077579776 0.70700002 4293650142
0.12809455 0.0077696587 0.708 4293584093
0.12980534 0.0077923243 0.70999998 4293518302
0.13170852 0.0078259772 0.713 4293189337
0.13380978 0.007870621 0.71700001 4293189337
0.13611481 0.0079262564 0.722 4293386716
-0.00082696503 0.0092559373 0.722 4293977820
0.00054114294 0.0092559271 0.722 4293978590
0.0019092461 0.0092559233 0.722 4294109919
0.0032682677 0.0092302887 0.72000003 4294109921
0.0046132733 0.0091918418 0.71700001 4294175714
0.0059635672 0.0091790445 0.71600002 4294241507
0.007299846 0.0091534341 0.71399999 4294307301
0.0086043077 0.0091021918 0.70999998 4294241509
0.0099496683 0.0091022383 0.70999998 4294241509
0.011263216 0.009076654 0.708 4294241761
0.012586989 0.0090638977 0.70700002 4294307555
0.013906979 0.0090511478 0.70599997 4294307555
0.015201592 0.0090255849 0.704 4294307555
0.01651212 0.0090128519 0.70300001 4294307555
0.017793478 0.0089873048 0.70099998 4294307555
0.019121831 0.0089874091 0.70099998 4294241507
0.020421013 0.0089747002 0.69999999 4294241507
0.021747492 0.0089748194 0.69999999 4294307301
0.023008054 0.0089493059 0.69800001 4294373350
0.024330759 0.0089494409 0.69800001 4294373348
0.025579978 0.0089239404 0.69599998 4294439141
0.026898928 0.0089240912 0.69599998 4294176739
0.028136805 0.0088986065 0.69400001 4294439654
0.029409556 0.0088859508 0.69300002 4294439656
0.030634206 0.00886048 0.69099998 4294439656
0.031943742 0.0088606616 0.69099998 4294307301
0.033205185 0.0088480301 0.69 4294241507
0.034512874 0.0088482285 0.69 4294307555
0.035716757 0.0088227876 0.68800002 4294373348
0.037020698 0.0088230008 0.68800002 4294307555
0.038324658 0.0088232206 0.68800002 4294570470
0.039571047 0.0088106254 0.68699998 4294439656
0.040873166 0.008810862 0.68699998 4294439656
0.042113919 0.0087982817 0.68599999 4294439656
0.043414194 0.0087985322 0.68599999 4294439656
0.044714496 0.008798793 0.68599999 4294505449
0.04601483 0.0087990612 0.68599999 4294373607
0.04717724 0.0087736836 0.68400002 4294307816
0.048473846 0.0087739676 0.68400002 4294373609
0.049770478 0.0087742573 0.68400002 4294373609
0.051067136 0.0087745562 0.68400002 4294307816
0.052363835 0.0087748617 0.68400002 4294176487
0.053660572 0.0087751755 0.68400002 4294307816
0.055118036 0.0088011576 0.68599999 4294373350
0.056254137 0.0087758284 0.68400002 4294307301
0.057550978 0.0087761655 0.68400002 4294241507
0.05884786 0.008776512 0.68400002 4294307301
0.060144763 0.008776864 0.68400002 4294307555
0.061351884 0.0087643918 0.68300003 4294373348
0.062646978 0.0087647596 0.68300003 4294373350
0.063942112 0.008765135 0.68300003 4294373350
0.0653328 0.0087783514 0.68400002 4294044644
0.066629902 0.0087787425 0.68400002 4294307816
0.06792707 0.0087791411 0.68400002 4294307818
0.069224276 0.008779549 0.68400002 4294373611
0.070521511 0.0087799607 0.68400002 4294176746
0.071818799 0.0087803844 0.68400002 4294110953
0.073116131 0.0087808128 0.68400002 4294110439
0.074413508 0.0087812506 0.68400002 4294176233
0.07571093 0.0087816948 0.68400002 4294307818
0.077008396 0.0087821456 0.68400002 4294176233
0.078305922 0.0087826056 0.68400002 4294176233
0.079603486 0.0087830713 0.68400002 4294110439
0.080901094 0.0087835453 0.68400002 4294110439
0.082198769 0.0087840278 0.68400002 4294110439
0.083496489 0.0087845167 0.68400002 4294241509
0.084794246 0.0087850131 0.68400002 4294241509
0.08609207 0.0087855179 0.68400002 4294241507
0.087645471 0.0088117197 0.68599999 4294307301
0.088947184 0.0088122385 0.68599999 4294176487
0.09024895 0.0088127675 0.68599999 4294176487
0.091817684 0.0088389963 0.68800002 4293979364
0.093123369 0.0088395402 0.68800002 4293848035
0.094429091 0.0088400906 0.68800002 4293978851
0.096013173 0.0088663492 0.69 4293913058
0.097322814 0.0088669173 0.69 4293847267
0.098632485 0.008867491 0.69 4293978853
0.099942252 0.008868074 0.69 4293978853
0.1013988 0.0088815149 0.69099998 4293978853
0.10300784 0.008907821 0.69300002 4293978853
0.10447399 0.0089212824 0.69400001 4293913060
0.10579156 0.0089218961 0.69400001 4293518302
0.10741786 0.0089482311 0.69599998 4293847267
0.10873935 0.0089488607 0.69599998 4293847267
0.11021904 0.0089623574 0.69700003 4293847267
0.11154255 0.0089630028 0.69700003 4293715682
0.11302803 0.0089765172 0.69800001 4293715682
0.11468121 0.0090028988 0.69999999 4293715682
0.11617633 0.0090164309 0.70099998 4293715682
0.11750767 0.0090171089 0.70099998 4293584095
0.11917814 0.0090435222 0.70300001 4293584095
0.12102768 0.00908281 0.70599997 4293584095
0.12236872 0.009083515 0.70599997 4293584095
0.12370981 0.0090842256 0.70599997 4293518302
0.12522808 0.0090978118 0.70700002 4293584095
0.12657121 0.0090985382 0.70700002 4293518302
0.12809531 0.009112142 0.708 4293518302
0.12998891 0.009151496 0.71100003 4293584095
0.1313398 0.0091522476 0.71100003 4293189337
0.13493027 0.0093074841 0.72299999 4293189337
0.13630411 0.0093082637 0.72299999 4293386716
-0.00082812738 0.010638407 0.72299999 4293846488
0.00054113445 0.010623679 0.722 4294043865
0.0019092467 0.010623675 0.722 4294175451
0.0032682768 0.010594251 0.72000003 4294109919
0.0046132905 0.01055012 0.71700001 4294175712
0.0059635933 0.010535427 0.71600002 4294175712
0.0072998805 0.010506027 0.71399999 4294175712
0.0086043514 0.01044721 0.70999998 4294241248
0.0099497205 0.010447257 0.70999998 4294241248
0.011263276 0.010417885 0.708 4294175199
0.01258706 0.010403235 0.70700002 4294109406
0.013867659 0.010359162 0.704 4294241759
0.015201677 0.010359243 0.704 4294307553
0.016512211 0.010344618 0.70300001 4294307553
0.017793581 0.010315286 0.70099998 4294307553
0.019094663 0.010300678 0.69999999 4294175201
0.020421134 0.010300793 0.69999999 4294109408
0.021685483 0.010271486 0.69800001 4294241507
0.022975219 0.0102569 0.69700003 4294307301
0.024296042 0.01025704 0.69700003 4294307555
0.025506619 0.010213042 0.69400001 4294373348
0.026821788 0.010213195 0.69400001 4294373348
0.02809643 0.010198644 0.69300002 4294373348
0.029324854 0.010169382 0.69099998 4294570470
0.03059005 0.010154846 0.69 4294636263
0.031897709 0.010155033 0.69 4294307301
0.033109136 0.010125796 0.68800002 4294241507
0.03441304 0.010126 0.68800002 4294307301
0.035716966 0.010126213 0.68800002 4294307301
0.037020914 0.010126433 0.68800002 4294307303
0.038324885 0.010126663 0.68800002 4294438889
0.039571282 0.010112181 0.68699998 4294439143
0.040873405 0.010112426 0.68699998 4294439143
0.042175557 0.01011268 0.68699998 4294373861
0.04347774 0.010112942 0.68699998 4294505447
0.044714764 0.010098492 0.68599999 4294571242
0.046015106 0.010098769 0.68599999 4294571242
0.047177531 0.010069613 0.68400002 4294307816
0.048474137 0.010069906 0.68400002 4294373609
0.049770784 0.010070208 0.68400002 4294373607
0.051067453 0.010070517 0.68400002 4294176485
0.052364156 0.010070835 0.68400002 4294307301
0.053660899 0.010071162 0.68400002 4294439143
0.054957666 0.010071494 0.68400002 4294307555
0.05625448 0.010071837 0.68400002 4294175712
0.057551321 0.010072188 0.68400002 4294175714
0.058848199 0.010072544 0.68400002 4294241507
0.060145121 0.010072909 0.68400002 4294241507
0.061352257 0.010058558 0.68300003 4294241507
0.06264735 0.010058939 0.68300003 4294241509
0.063942507 0.010059329 0.68300003 4294241509
0.065333195 0.010074455 0.68400002 4294176487
0.066630311 0.010074859 0.68400002 4294373609
0.06792748 0.010075274 0.68400002 4294242795
0.069224693 0.010075696 0.68400002 4294242795
0.070521928 0.010076124 0.68400002 4294110953
0.071819238 0.010076562 0.68400002 4294045159
0.073116571 0.010077007 0.68400002 4294110439
0.074413955 0.010077462 0.68400002 4294110439
0.075711384 0.010077921 0.68400002 4294176233
0.077008858 0.01007839 0.68400002 4294110439
0.078306392 0.010078867 0.68400002 4294044646
0.079603955 0.010079349 0.68400002 4294044646
0.080901593 0.010079841 0.68400002 4294044646
0.082199261 0.01008034 0.68400002 4294044646
0.083496988 0.01008085 0.68400002 4293978853
0.08479476 0.010081364 0.68400002 4293978853
0.086344317 0.010111366 0.68599999 4294109921
0.087645978 0.010111895 0.68599999 4294241507
0.089077368 0.010127177 0.68699998 4294044646
0.090381064 0.010127724 0.68699998 4294044646
0.091818236 0.010143022 0.68800002 4294044644
0.09312392 0.010143587 0.68800002 4293978851
0.094429657 0.010144158 0.68800002 4293978853
0.09601374 0.010174227 0.69 4293913060
0.097323373 0.010174815 0.69 4293913060
0.098633096 0.010175411 0.69 4293913060
0.099942848 0.010176013 0.69 4293913060
0.1013994 0.010191372 0.69099998 4293913060
0.10300846 0.010221491 0.69300002 4293847267
0.10447461 0.010236869 0.69400001 4293847267
0.1057922 0.010237505 0.69400001 4293715684
0.10741849 0.010267652 0.69599998 4293715684
0.10873999 0.010268305 0.69599998 4293715682
0.11006156 0.010268966 0.69599998 4293978853
0.11154319 0.010284388 0.69700003 4293715682
0.1130287 0.01029982 0.69800001 4293715682
0.11468191 0.01033002 0.69999999 4293649888
0.11601129 0.010330711 0.69999999 4293649888
0.11750837 0.010346171 0.70099998 4293518302
0.11917885 0.0103764 0.70300001 4293518302
0.12068555 0.010391879 0.704 4293649118
0.12236944 0.010422129 0.70599997 4293780704
0.12371053 0.010422865 0.70599997 4293518302
0.12522882 0.010438372 0.70700002 4293518302
0.12675096 0.010453888 0.708 4293386716
0.12809604 0.010454647 0.708 4293386716
0.1294412 0.010455413 0.708 4293452509
-0.0022042533 0.012041324 0.72500002 4293517267
-0.00082814647 0.01200808 0.72299999 4293517267
0.00054112455 0.011991459 0.722 4293517267
0.0019092455 0.011991452 0.722 4293846488
0.003268285 0.011958239 0.72000003 4293847004
0.0046133073 0.011908423 0.71700001 4293978590
0.0059636184 0.011891837 0.71600002 4294109919
0.0072692428 0.011808823 0.71100003 4294109919
0.0086043943 0.011792252 0.70999998 4294175199
0.0099497708 0.011792301 0.70999998 4294175199
0.011263337 0.011759141 0.708 4293978590
0.012587128 0.011742597 0.70700002 4294109919
0.013867737 0.011692845 0.704 4294241244
0.015201763 0.011692929 0.704 4294307293
0.016512306 0.011676411 0.70300001 4294175453
0.017793685 0.011643291 0.70099998 4294175453
0.019094774 0.011626793 0.69999999 4293977820
0.020421255 0.01162691 0.69999999 4294175199
0.021685613 0.01159382 0.69800001 4294175712
0.022975361 0.011577344 0.69700003 4294175712
0.024296187 0.011577487 0.69700003 4294175199
0.025506778 0.011527811 0.69400001 4294438371
0.02682195 0.011527971 0.69400001 4294373348
0.028096603 0.01151153 0.69300002 4294307555
0.029325031 0.011478483 0.69099998 4294439141
0.030590238 0.011462058 0.69 4294439141
0.031897902 0.011462254 0.69 4294241759
0.033109345 0.011429235 0.68800002 4294241759
0.034413252 0.011429445 0.68800002 4294373348
0.035717189 0.011429665 0.68800002 4294307555
0.037021141 0.011429894 0.68800002 4294241509
0.038325127 0.011430131 0.68800002 4294307303
0.039571527 0.011413762 0.68699998 4294438889
0.040873665 0.011414017 0.68699998 4294307303
0.042175822 0.011414278 0.68699998 4294241761
0.043478012 0.011414552 0.68699998 4294373348
0.044780232 0.011414831 0.68699998 4294439143
0.046082474 0.011415118 0.68699998 4294439143
0.047315765 0.0113988 0.68599999 4294110693
0.048616182 0.011399105 0.68599999 4294176487
0.049916614 0.011399416 0.68599999 4294307301
0.05106777 0.011366503 0.68400002 4294241507
0.05236448 0.011366832 0.68400002 4293716188
0.053661231 0.01136717 0.68400002 4293979103
0.054958012 0.011367515 0.68400002 4294109919
0.05625483 0.01136787 0.68400002 4294109919
0.057551682 0.011368231 0.68400002 4294175714
0.058848567 0.011368603 0.68400002 4294175714
0.060145494 0.011368982 0.68400002 4294241507
0.061352637 0.011352749 0.68300003 4294241507
0.062647752 0.011353143 0.68300003 4294109921
0.063942902 0.011353548 0.68300003 4294307301
0.065238088 0.011353958 0.68300003 4294307816
0.066630729 0.011371001 0.68400002 4294307816
0.067927904 0.01137143 0.68400002 4294307818
0.069225125 0.011371869 0.68400002 4294307818
0.070522375 0.011372312 0.68400002 4294176233
0.071819678 0.011372765 0.68400002 4294176233
0.073117025 0.011373227 0.68400002 4294110953
0.074414417 0.011373696 0.68400002 4294110953
0.075711861 0.011374172 0.68400002 4294111207
0.077009343 0.011374659 0.68400002 4294045157
0.078306869 0.011375151 0.68400002 4294044646
0.079837218 0.011408916 0.68599999 4294044646
0.081138641 0.011409425 0.68599999 4294044646
0.082440123 0.011409943 0.68599999 4293978853
0.08374165 0.01141047 0.68599999 4293978853
0.085043222 0.011411005 0.68599999 4294044646
0.086344846 0.011411549 0.68599999 4293913056
0.087774299 0.011428734 0.68699998 4294044898
0.089077927 0.011429292 0.68699998 4294044646
0.090381637 0.011429861 0.68699998 4294044646
0.091685347 0.011430435 0.68699998 4293978853
0.093124509 0.011447657 0.68800002 4293978853
0.094430245 0.011448247 0.68800002 4293913060
0.095736042 0.011448848 0.68800002 4293913060
0.097323984 0.011482737 0.69 4293913060
0.098633692 0.011483353 0.69 4293913060
0.099943459 0.011483978 0.69 4293847267
0.10140001 0.011501252 0.69099998 4293715682
0.10300909 0.011535184 0.69300002 4293715682
0.10447525 0.011552479 0.69400001 4293715682
0.10579283 0.011553136 0.69400001 4293847267
0.10741916 0.011587097 0.69599998 4293847267
0.10874067 0.011587773 0.69599998 4293715682
0.11006223 0.011588457 0.69599998 4293715682
0.11154387 0.011605798 0.69700003 4293649888
0.1130294 0.011623148 0.69800001 4293715682
0.1146826 0.011657161 0.69999999 4293518302
0.116012 0.011657878 0.69999999 4293584095
0.11750909 0.011675256 0.70099998 4293518302
0.11884051 0.01167599 0.70099998 4293452509
0.12068629 0.011726703 0.704 4293714398
0.12202351 0.01172745 0.704 4293780191
0.12371128 0.011761529 0.70599997 4293649116
0.12522958 0.011778957 0.70700002 4293517787
0.12710978 0.011829715 0.70999998 4293255644
0.12845868 0.011830503 0.70999998 4293255644
0.13035612 0.011881287 0.713 4293452509
-0.0022042838 0.013414818 0.72500002 4293517005
-0.00082816725 0.013377783 0.72299999 4293517005
0.00054111314 0.013359264 0.722 4293517269
0.0019092434 0.013359257 0.722 4293977820
0.0032682922 0.013322253 0.72000003 4293977818
0.0046261922 0.01330376 0.71899998 4294043611
0.0059636445 0.013248273 0.71600002 4293978588
0.0072692786 0.013155788 0.71100003 4293978588
0.008604438 0.013137322 0.70999998 4294109660
0.0099498248 0.013137371 0.70999998 4294043611
0.011263398 0.013100423 0.708 4293978590
0.012587198 0.013081988 0.70700002 4294109919
0.013907213 0.013063561 0.70599997 4294109656
0.01520185 0.013026637 0.704 4294175705
0.016512403 0.013008229 0.70300001 4294175199
0.01779379 0.012971324 0.70099998 4294109406
0.01909489 0.012952934 0.69999999 4293977820
0.020421376 0.012953055 0.69999999 4294043613
0.02168574 0.012916178 0.69800001 4293978592
0.022975503 0.012897814 0.69700003 4293978592
0.024296343 0.012897963 0.69700003 4294109921
0.025506932 0.012842603 0.69400001 4294373350
0.02682212 0.01284277 0.69400001 4294307555
0.028137319 0.012842944 0.69400001 4294175712
0.029325217 0.012787611 0.69099998 4294307555
0.030590434 0.012769298 0.69 4294307555
0.0318981 0.012769499 0.69 4294175451
0.033205803 0.01276971 0.69 4294241244
0.034413476 0.012732916 0.68800002 4294307555
0.03571742 0.012733143 0.68800002 4294307555
0.037021387 0.012733379 0.68800002 4294241507
0.038325373 0.012733625 0.68800002 4294307301
0.039571784 0.012715369 0.68699998 4294307818
0.040873922 0.012715632 0.68699998 4294176233
0.042176098 0.012715904 0.68699998 4294241509
0.043478288 0.012716184 0.68699998 4294241509
0.044780515 0.012716472 0.68699998 4294439141
0.046082765 0.012716772 0.68699998 4294439141
0.047385048 0.012717078 0.68699998 4294241509
0.048616491 0.012698884 0.68599999 4294241509
0.049916934 0.012699204 0.68599999 4294241761
0.051217422 0.012699541 0.68599999 4294241761
0.052364811 0.012662854 0.68400002 4294044898
0.05366157 0.012663204 0.68400002 4294110691
0.05495837 0.012663562 0.68400002 4294109919
0.056255195 0.012663929 0.68400002 4294109919
0.057552058 0.012664306 0.68400002 4293978592
0.058762919 0.012646173 0.68300003 4293978592
0.060057953 0.012646563 0.68300003 4294109921
0.061353035 0.012646963 0.68300003 4294241507
0.062648155 0.012647372 0.68300003 4294044644
0.063943312 0.01264779 0.68300003 4294176487
0.065238506 0.012648215 0.68300003 4294176487
0.066631161 0.012667169 0.68400002 4294176487
0.067928344 0.012667612 0.68400002 4294176487
0.069427975 0.012705105 0.68599999 4294176487
0.070729032 0.012705566 0.68599999 4294176233
0.07182014 0.012668992 0.68400002 4294307818
0.073117502 0.01266947 0.68400002 4294176487
0.074632481 0.012707002 0.68599999 4294176487
0.075933725 0.012707497 0.68599999 4294110691
0.077235006 0.012708001 0.68599999 4294110691
0.078536347 0.012708513 0.68599999 4294044644
0.079837739 0.012709033 0.68599999 4293978851
0.08113917 0.01270956 0.68599999 4294044646
0.082440652 0.012710097 0.68599999 4293913060
0.083498038 0.012673584 0.68400002 4293913060
0.084795825 0.012674135 0.68400002 4294110439
0.086345404 0.012711756 0.68599999 4294044898
0.08777488 0.012730856 0.68699998 4294110691
0.088948853 0.012712902 0.68599999 4294044898
0.090250626 0.012713487 0.68599999 4293979105
0.091552466 0.012714081 0.68599999 4293978853
0.093125105 0.012751751 0.68800002 4293913060
0.094430834 0.012752363 0.68800002 4293847267
0.095736653 0.012752984 0.68800002 4293847267
0.097324617 0.012790684 0.69 4293913058
0.098634325 0.012791319 0.69 4293913058
0.099944092 0.012791964 0.69 4293715682
0.10140067 0.012811157 0.69099998 4293715682
0.10300974 0.012848901 0.69300002 4293715682
0.10447591 0.012868114 0.69400001 4293715682
0.10579351 0.012868794 0.69400001 4293715682
0.10741985 0.01290657 0.69599998 4293847267
0.10874135 0.012907267 0.69599998 4293584095
0.11006292 0.012907972 0.69599998 4293452509
0.11154459 0.012927232 0.69700003 4293649888
0.11303011 0.0129465 0.69800001 4293847267
0.11468332 0.012984332 0.69999999 4293518302
0.11601274 0.012985069 0.69999999 4293518302
0.11750984 0.013004367 0.70099998 4293518302
0.11884126 0.013005125 0.70099998 4293386716
0.1205156 0.013042995 0.70300001 4293517787
0.12202431 0.013062324 0.704 4293517787
0.12336159 0.013063105 0.704 4293452246
0.12523036 0.013119564 0.70700002 4293452246
0.12711057 0.013176039 0.70999998 4293386966
0.12864043 0.013195409 0.71100003 4293189587
0.13035692 0.013233348 0.713 4293189591
-0.00083048095 0.014788313 0.72500002 4293450960
0.00054184959 0.014747497 0.72299999 4293254610
0.0019092403 0.014727091 0.722 4293781210
0.0032773775 0.014727094 0.722 4293716184
0.0046326434 0.014686309 0.72000003 4293650390
0.0059719989 0.014625137 0.71700001 4293846742
0.0072693131 0.01450278 0.71100003 4294043865
0.0086044827 0.014482421 0.70999998 4294110173
0.0099498807 0.014482471 0.70999998 4293978588
0.011263461 0.014441735 0.708 4293912795
0.012587272 0.014421406 0.70700002 4293978588
0.013907294 0.014401085 0.70599997 4293780693
0.015201943 0.014360378 0.704 4294109658
0.016512506 0.014340076 0.70300001 4294175453
