# .PCD v0.7 - Point Cloud Data file format
VERSION 0.7
FIELDS x y z rgba
SIZE 4 4 4 4
TYPE F F F U
COUNT 1 1 1 1
WIDTH 1068
HEIGHT 1
VIEWPOINT 0 0 0 1 0 0 0
POINTS 1068
DATA ascii
-0.18031064 -0.16682267 0.67500001 4294308595
-0.17902657 -0.16682193 0.67500001 4293979887
-0.17774251 -0.16682114 0.67500001 4294242802
-0.1764584 -0.16682032 0.67500001 4293979635
-0.17517439 -0.16681948 0.67500001 4294176757
-0.17389029 -0.16681859 0.67500001 4294045682
-0.17260623 -0.16681771 0.67500001 4294374390
-0.1723374 -0.1678053 0.67900002 4294177009
-0.17129765 -0.16805148 0.68000001 4294440438
-0.17000407 -0.1680505 0.68000001 4294176757
-0.16945484 -0.16879088 0.68300003 4294242806
-0.16840179 -0.16903695 0.68400002 4293979635
-0.16710065 -0.16903588 0.68400002 4294045428
-0.16579954 -0.16903481 0.68400002 4294110703
-0.1644984 -0.16903369 0.68400002 4294308338
-0.16367449 -0.16952677 0.68599999 4293913839
-0.16260627 -0.16977271 0.68699998 4294308597
-0.16153429 -0.17001866 0.68800002 4294242802
-0.16069137 -0.17051166 0.69 4294440438
-0.15937895 -0.17051044 0.69 4294044658
-0.15829557 -0.17075628 0.69099998 4293847535
-0.15743564 -0.17124926 0.69300002 4293978864
-0.15634282 -0.17149507 0.69400001 4293847535
-0.15546958 -0.17198795 0.69599998 4293716206
-0.15414581 -0.17198661 0.69599998 4293979635
-0.15304166 -0.17223237 0.69700003 4293913839
-0.15171604 -0.172231 0.69700003 4293913839
-0.15060624 -0.17247674 0.69800001 4293979635
-0.14927877 -0.17247532 0.69800001 4294045428
-0.14837524 -0.1729681 0.69999999 4293978862
-0.14725411 -0.17321377 0.70099998 4294110705
-0.14696184 -0.17444779 0.70599997 4293847787
-0.14582552 -0.17469341 0.70700002 4293847787
-0.14468543 -0.17493901 0.708 4293716458
-0.14374404 -0.1754317 0.70999998 4293716458
-0.1431962 -0.17641853 0.71399999 4293519336
-0.14183854 -0.17641699 0.71399999 4293585129
-0.14087442 -0.17690963 0.71600002 4293585127
-0.13970786 -0.17715517 0.71700001 4293585127
-0.13873051 -0.17764775 0.71899998 4293453542
-0.13793662 -0.17838742 0.722 4293782251
-0.27980158 -0.17307246 0.70599997 4290822345
-0.27767518 -0.17258577 0.704 4290822088
-0.27398601 -0.17111835 0.69800001 4292993001
-0.27227259 -0.17087655 0.69700003 4292927208
-0.27095151 -0.17087981 0.69700003 4293190636
-0.26924339 -0.1706378 0.69599998 4293125093
-0.26792389 -0.17064089 0.69599998 4293256679
-0.26583809 -0.1701535 0.69400001 4293190632
-0.2641409 -0.16991122 0.69300002 4293585390
-0.2616888 -0.16917843 0.69 4293256681
-0.25887057 -0.16820036 0.68599999 4293585390
-0.25756925 -0.16820294 0.68599999 4293453804
-0.25552067 -0.16771506 0.68400002 4293651183
-0.25422281 -0.16771744 0.68400002 4293322221
-0.2525551 -0.16747457 0.68300003 4293651185
-0.25125888 -0.16747679 0.68300003 4293519082
-0.24886467 -0.16674331 0.68000001 4293848046
-0.2472098 -0.16650015 0.67900002 4293584877
-0.24555862 -0.1662569 0.67799997 4293716206
-0.24427146 -0.16625881 0.67799997 4293716206
-0.24226736 -0.16577019 0.676 4293979635
-0.24062726 -0.16552669 0.67500001 4293585390
-0.23899086 -0.16528314 0.67400002 4293914355
-0.2377108 -0.16528472 0.67400002 4293914355
-0.23643067 -0.16528626 0.67400002 4294111734
-0.23515041 -0.16528767 0.67400002 4293783026
-0.23387006 -0.16528906 0.67400002 4293914355
-0.23258963 -0.16529036 0.67400002 4293716206
-0.23130916 -0.16529162 0.67400002 4293979635
-0.22934593 -0.1648023 0.67199999 4293848048
-0.22806907 -0.16480339 0.67199999 4293913842
-0.22679205 -0.16480443 0.67199999 4293519082
-0.22551504 -0.1648054 0.67199999 4293979633
-0.22423786 -0.16480629 0.67199999 4293913842
-0.2229607 -0.16480714 0.67199999 4293979635
-0.22135352 -0.16456269 0.671 4293848048
-0.22007811 -0.16456342 0.671 4293782255
-0.21880257 -0.16456406 0.671 4293715693
-0.21752705 -0.1645647 0.671 4294176244
-0.21657367 -0.16481046 0.67199999 4293848048
-0.2152961 -0.16481097 0.67199999 4293913842
-0.21401843 -0.1648114 0.67199999 4293978864
-0.21274073 -0.16481178 0.67199999 4294373879
-0.21146297 -0.16481212 0.67199999 4293979635
-0.21018519 -0.1648124 0.67199999 4294176757
-0.20890735 -0.16481261 0.67199999 4294045941
-0.20762944 -0.16481279 0.67199999 4294177783
-0.2063515 -0.16481291 0.67199999 4293914607
-0.20507352 -0.16481295 0.67199999 4294111986
-0.20349224 -0.16456775 0.671 4293717232
-0.20221609 -0.16456772 0.671 4293980148
-0.20093992 -0.16456766 0.671 4293848046
-0.19996126 -0.16481279 0.67199999 4293979633
-0.19868311 -0.16481261 0.67199999 4293715947
-0.19740492 -0.16481242 0.67199999 4294044655
-0.19612673 -0.16481216 0.67199999 4293978864
-0.19484851 -0.16481189 0.67199999 4294176244
-0.19357026 -0.16481155 0.67199999 4294045428
-0.19286431 -0.1653017 0.67400002 4294176757
-0.19158222 -0.16530129 0.67400002 4293783026
-0.19030009 -0.16530083 0.67400002 4294045941
-0.18901798 -0.16530034 0.67400002 4293716206
-0.1877358 -0.1652998 0.67400002 4293979635
-0.18645369 -0.16529924 0.67400002 4293848048
-0.1851715 -0.16529866 0.67400002 4294045428
-0.18388934 -0.165298 0.67400002 4293978862
-0.18260716 -0.16529734 0.67400002 4294176498
-0.181863 -0.16578713 0.676 4293978862
-0.18030991 -0.16554114 0.67500001 4294110705
-0.17902577 -0.16554037 0.67500001 4293848046
-0.17774169 -0.16553955 0.67500001 4294045682
-0.17645757 -0.16553871 0.67500001 4293913842
-0.17517349 -0.16553786 0.67500001 4294176757
-0.1738894 -0.16553697 0.67500001 4293913839
-0.17260531 -0.16553605 0.67500001 4294045682
-0.17208263 -0.16627082 0.67799997 4293978862
-0.17104477 -0.16651507 0.67900002 4294242291
-0.17000306 -0.1667593 0.68000001 4293782255
-0.16920568 -0.16724871 0.68199998 4293848048
-0.16840073 -0.16773814 0.68400002 4293716206
-0.16709957 -0.16773704 0.68400002 4293913842
-0.16579841 -0.16773592 0.68400002 4293848046
-0.16449724 -0.16773479 0.68400002 4293848046
-0.16367331 -0.16822407 0.68599999 4293519084
-0.16260506 -0.16846809 0.68699998 4293848048
-0.16153307 -0.16871212 0.68800002 4293978862
-0.16069016 -0.16920134 0.69 4294242291
-0.15937769 -0.16920011 0.69 4293781742
-0.15829434 -0.16944404 0.69099998 4293978864
-0.15743436 -0.16993317 0.69300002 4293978862
-0.15611623 -0.16993184 0.69300002 4293978862
-0.1550215 -0.17017573 0.69400001 4293978864
-0.15414447 -0.17066482 0.69599998 4293781742
-0.15304032 -0.17090867 0.69700003 4293584877
-0.15171467 -0.17090727 0.69700003 4293716206
-0.15060483 -0.17115109 0.69800001 4293716206
-0.14927736 -0.17114966 0.69800001 4293979635
-0.14858578 -0.17188381 0.70099998 4293781738
-0.14725265 -0.17188238 0.70099998 4293979116
-0.14633588 -0.17237131 0.70300001 4293716458
-0.14603028 -0.17359579 0.708 4293716458
-0.14509267 -0.17408469 0.70999998 4293387749
-0.14394498 -0.17432837 0.71100003 4293453542
-0.14319466 -0.1750624 0.71399999 4293387236
-0.14183699 -0.17506085 0.71399999 4293584358
-0.14087287 -0.17554969 0.71600002 4293519334
-0.13970631 -0.17579331 0.71700001 4293585127
-0.13872895 -0.17628209 0.71899998 4293321187
-0.13755296 -0.17652571 0.72000003 4293387236
-0.27980521 -0.17173494 0.70599997 4291150547
-0.27846751 -0.17173846 0.70599997 4291150799
-0.27477446 -0.17028236 0.69999999 4293124589
-0.27266648 -0.16979916 0.69800001 4293124587
-0.27095473 -0.16955911 0.69700003 4293585138
-0.26924649 -0.16931893 0.69599998 4293256681
-0.26792687 -0.16932191 0.69599998 4293453804
-0.26584101 -0.16883831 0.69400001 4293322475
-0.26414371 -0.16859782 0.69300002 4293783026
-0.26169151 -0.16787069 0.69 4293453804
-0.25887316 -0.16690013 0.68599999 4293585390
-0.25682083 -0.16641605 0.68400002 4293716206
-0.25552303 -0.16641848 0.68400002 4293913842
-0.25422516 -0.16642083 0.68400002 4293584879
-0.25255734 -0.16617979 0.68300003 4294045430
-0.25126109 -0.16618197 0.68300003 4293322475
-0.24886672 -0.16545412 0.68000001 4293651183
-0.24721181 -0.1652128 0.67900002 4293717230
-0.24592277 -0.16521475 0.67900002 4294046195
-0.24427325 -0.16497323 0.67799997 4293913842
-0.24298589 -0.16497502 0.67799997 4294176757
-0.24098539 -0.16449004 0.676 4293979633
-0.23934703 -0.16424835 0.67500001 4294308597
-0.23806502 -0.1642499 0.67500001 4294046195
-0.23678289 -0.16425134 0.67500001 4294111988
-0.23515181 -0.16400942 0.67400002 4293979635
-0.23387142 -0.16401075 0.67400002 4294176757
-0.23259088 -0.16401203 0.67400002 4293913842
-0.23131029 -0.16401321 0.67400002 4294176757
-0.23002963 -0.16401434 0.67400002 4293979633
-0.22874889 -0.1640154 0.67400002 4294045682
-0.22746803 -0.16401637 0.67400002 4293584877
-0.22551595 -0.1635306 0.67199999 4294176757
-0.22423875 -0.16353148 0.67199999 4294177011
-0.22296147 -0.16353229 0.67199999 4294308597
-0.22135426 -0.16328968 0.671 4293979635
-0.22007877 -0.16329037 0.671 4294176757
-0.21880318 -0.16329098 0.671 4293913842
-0.21752757 -0.16329156 0.671 4294308599
-0.21657415 -0.16353542 0.67199999 4293979637
-0.21529654 -0.16353589 0.67199999 4294045430
-0.21401881 -0.16353628 0.67199999 4294110451
-0.21274109 -0.16353664 0.67199999 4294702844
-0.21146329 -0.16353692 0.67199999 4294176757
-0.21018541 -0.16353716 0.67199999 4294045428
-0.20890751 -0.16353735 0.67199999 4294045689
-0.2073206 -0.16329414 0.671 4294374654
-0.2060445 -0.16329423 0.671 4293980146
-0.20476839 -0.16329429 0.671 4294243574
-0.20349224 -0.16329427 0.671 4294045941
-0.20221601 -0.16329421 0.671 4294177783
-0.20093983 -0.16329414 0.671 4294045680
-0.1999611 -0.16353731 0.67199999 4294242802
-0.19868293 -0.16353716 0.67199999 4293913842
-0.19740471 -0.16353691 0.67199999 4294045428
-0.19612646 -0.16353664 0.67199999 4293913842
-0.19484819 -0.16353631 0.67199999 4294242806
-0.1935699 -0.16353597 0.67199999 4293980146
-0.1922916 -0.16353558 0.67199999 4294111988
-0.19101325 -0.16353512 0.67199999 4293783026
-0.18973489 -0.16353463 0.67199999 4294177783
-0.18901747 -0.16402085 0.67400002 4294178033
-0.18773526 -0.16402029 0.67400002 4294440949
-0.18645309 -0.1640197 0.67400002 4294046193
-0.18517086 -0.16401906 0.67400002 4294177779
-0.18416148 -0.16426176 0.67500001 4294045428
-0.18287736 -0.16426107 0.67500001 4294242806
-0.18186225 -0.16450369 0.676 4294045682
-0.1803091 -0.1642596 0.67500001 4294242804
-0.17902496 -0.16425879 0.67500001 4293913842
-0.17800421 -0.16450132 0.676 4294045428
-0.17671813 -0.16450047 0.676 4294177009
-0.17517263 -0.16425623 0.67500001 4294374644
-0.17388847 -0.16425534 0.67500001 4294110705
-0.17286007 -0.16449773 0.676 4294176498
-0.17208166 -0.16498344 0.67799997 4294044655
-0.17104372 -0.16522574 0.67900002 4294373877
-0.17050202 -0.16595474 0.68199998 4293848048
-0.16920464 -0.16595368 0.68199998 4293848048
-0.16839963 -0.16643929 0.68400002 4293781742
-0.16709846 -0.16643818 0.68400002 4294110451
-0.16579729 -0.16643706 0.68400002 4293978862
-0.1649771 -0.16692255 0.68599999 4293847533
-0.16367213 -0.16692138 0.68599999 4293715695
-0.16260387 -0.16716349 0.68699998 4293978866
-0.16153187 -0.16740562 0.68800002 4293847535
-0.16068889 -0.16789098 0.69 4294242293
-0.15937643 -0.16788973 0.69 4294110705
-0.15829301 -0.16813175 0.69099998 4294242291
-0.15743305 -0.1686171 0.69300002 4294044909
-0.15611489 -0.16861577 0.69300002 4294176496
-0.15502016 -0.16885774 0.69400001 4293847533
-0.15370017 -0.16885637 0.69400001 4293650154
-0.15303892 -0.16958492 0.69700003 4293584877
-0.15171328 -0.16958353 0.69700003 4293913842
-0.15060343 -0.16982543 0.69800001 4293847533
-0.14991751 -0.17055389 0.70099998 4294110705
-0.14858434 -0.17055245 0.70099998 4293978603
-0.1472512 -0.17055099 0.70099998 4293978603
-0.14633439 -0.17103612 0.70300001 4293847787
-0.1460288 -0.17225111 0.708 4293781738
-0.1452955 -0.17297946 0.71100003 4293387749
-0.14434837 -0.17346452 0.713 4293453542
-0.14319311 -0.17370628 0.71399999 4293321187
-0.14223276 -0.17419131 0.71600002 4293518565
-0.14087132 -0.17418976 0.71600002 4293650404
-0.13970475 -0.17443147 0.71700001 4293781990
-0.13872735 -0.17491642 0.71899998 4293387236
-0.13755137 -0.17515814 0.72000003 4293387236
-0.27980879 -0.17039737 0.70599997 4291150545
-0.27768213 -0.16991812 0.704 4291216592
-0.2747778 -0.16895603 0.69999999 4293124589
-0.27266976 -0.16847657 0.69800001 4293124841
-0.27134657 -0.16847967 0.69800001 4293322221
-0.26963639 -0.16824137 0.69700003 4292796130
-0.26831478 -0.1682443 0.69700003 4293059046
-0.26660997 -0.16800578 0.69599998 4293124328
-0.26452753 -0.16752574 0.69400001 4293584879
-0.2620734 -0.16680422 0.69099998 4293190634
-0.25887567 -0.16559979 0.68599999 4293322221
-0.25682327 -0.16511947 0.68400002 4293453291
-0.25552538 -0.16512185 0.68400002 4293716206
-0.25422746 -0.16512415 0.68400002 4293255657
-0.25255948 -0.16488492 0.68300003 4293519086
-0.25126317 -0.16488706 0.68300003 4292993253
-0.24886875 -0.16416486 0.68000001 4293519597
-0.24721374 -0.16392538 0.67900002 4293651183
-0.24592459 -0.16392726 0.67900002 4293717232
-0.24427506 -0.16368762 0.67799997 4293453804
-0.2429876 -0.16368935 0.67799997 4293783026
-0.24098705 -0.16320813 0.676 4293782253
-0.23970316 -0.16320971 0.676 4294177011
-0.23806654 -0.16296978 0.67500001 4293782255
-0.23678431 -0.16297118 0.67500001 4293848048
-0.23550205 -0.16297257 0.67500001 4293584877
-0.23387268 -0.16273241 0.67400002 4293979635
-0.23259209 -0.16273361 0.67400002 4293782255
-0.23131143 -0.16273475 0.67400002 4293979635
-0.23003072 -0.16273585 0.67400002 4293848046
-0.2287499 -0.16273686 0.67400002 4293913839
-0.22746897 -0.1627378 0.67400002 4293453291
-0.22618802 -0.16273873 0.67400002 4293782255
-0.22423954 -0.16225661 0.67199999 4293781742
-0.22296226 -0.1622574 0.67199999 4294044658
-0.22135498 -0.16201666 0.671 4293585131
-0.22007942 -0.1620173 0.671 4293979633
-0.21880376 -0.16201788 0.671 4293717232
-0.2175281 -0.16201843 0.671 4293980148
-0.21625237 -0.1620189 0.671 4293914101
-0.21497658 -0.16201933 0.671 4293980150
-0.21370071 -0.16201968 0.671 4293913842
-0.21274136 -0.16226144 0.67199999 4294308599
-0.21146348 -0.16226169 0.67199999 4293717232
-0.21018563 -0.16226192 0.67199999 4293717232
-0.20890768 -0.16226208 0.67199999 4293782001
-0.20732069 -0.16202071 0.671 4293979637
-0.20604457 -0.16202079 0.671 4293519082
-0.20476837 -0.1620208 0.671 4293848046
-0.20349218 -0.16202077 0.671 4293848048
-0.20221592 -0.16202068 0.671 4294045428
-0.20093967 -0.16202055 0.671 4293585644
-0.19996092 -0.16226184 0.67199999 4293717230
-0.1986827 -0.16226162 0.67199999 4293716206
-0.19740443 -0.16226138 0.67199999 4293848048
-0.19612616 -0.16226107 0.67199999 4293781742
-0.19484782 -0.16226071 0.67199999 4294044658
-0.19356954 -0.16226034 0.67199999 4293584877
-0.19229114 -0.16225991 0.67199999 4293716206
-0.1910128 -0.16225946 0.67199999 4293519597
-0.18973437 -0.16225895 0.67199999 4293980148
-0.188456 -0.16225842 0.67199999 4294046193
-0.18773469 -0.16274077 0.67400002 4293980400
-0.18645245 -0.16274014 0.67400002 4293717232
-0.18544495 -0.16298096 0.67500001 4294045941
-0.1841608 -0.16298027 0.67500001 4293651183
-0.18314756 -0.16322102 0.676 4293980148
-0.18186152 -0.16322027 0.676 4293979633
-0.18057546 -0.16321947 0.676 4293979633
-0.17928942 -0.16321866 0.676 4293584877
-0.17852996 -0.1637007 0.67799997 4293848048
-0.17671725 -0.16321695 0.676 4293847533
-0.17543121 -0.16321605 0.676 4294110705
-0.17414515 -0.16321512 0.676 4293519082
-0.17285912 -0.16321415 0.676 4293782253
-0.17233448 -0.16393748 0.67900002 4293781740
-0.17104274 -0.16393647 0.67900002 4294044655
-0.17075099 -0.16490117 0.68300003 4293716206
-0.16945167 -0.16490012 0.68300003 4293848048
-0.16839851 -0.16514042 0.68400002 4293781740
-0.16709733 -0.16513933 0.68400002 4293847533
-0.16579612 -0.16513817 0.68400002 4293649641
-0.1649759 -0.16561985 0.68599999 4293846763
-0.16367096 -0.16561869 0.68599999 4293912558
-0.16260266 -0.16585886 0.68699998 4294044144
-0.1615306 -0.16609907 0.68800002 4293715693
-0.16068766 -0.16658066 0.69 4293978864
-0.15937515 -0.1665794 0.69 4293847533
-0.15829173 -0.1668195 0.69099998 4293978862
-0.15743169 -0.16730101 0.69300002 4293387749
-0.15611356 -0.16729969 0.69300002 4293585129
-0.15479544 -0.16729833 0.69300002 4293781740
-0.15369879 -0.16753836 0.69400001 4293715947
-0.15281795 -0.16801979 0.69599998 4293649900
-0.15171187 -0.16825981 0.69700003 4293715693
-0.150602 -0.16849978 0.69800001 4293517798
-0.14970221 -0.16898115 0.69999999 4293715434
-0.14858288 -0.16922109 0.70099998 4293846761
-0.14724973 -0.16921963 0.70099998 4293978603
-0.14633293 -0.16970095 0.70300001 4293453542
-0.14520229 -0.16994084 0.704 4293387749
-0.14529398 -0.17162906 0.71100003 4293255394
-0.14434685 -0.17211033 0.713 4293255394
-0.14319158 -0.17235017 0.71399999 4293255394
-0.14223118 -0.17283139 0.71600002 4293255394
-0.14086977 -0.17282984 0.71600002 4293255394
-0.14009286 -0.17355239 0.71899998 4293518565
-0.13872577 -0.1735508 0.71899998 4293189603
-0.13754979 -0.1737906 0.72000003 4293255396
-0.13769399 -0.17571998 0.72799999 4293386210
-0.13687164 -0.17644249 0.73100001 4293452259
-0.28168723 -0.16857368 0.704 4291742934
-0.28035355 -0.1685773 0.704 4291348439
-0.27981231 -0.16905971 0.70599997 4291414489
-0.27768549 -0.16858417 0.704 4291545303
-0.27478108 -0.16762958 0.69999999 4293190384
-0.27267289 -0.16715384 0.69800001 4293190632
-0.27134964 -0.1671569 0.69800001 4293585390
-0.26963934 -0.16692041 0.69700003 4293190886
-0.26831767 -0.16692331 0.69700003 4293453802
-0.26661268 -0.16668661 0.69599998 4293256681
-0.26453027 -0.16621031 0.69400001 4293651183
-0.26207596 -0.16549441 0.69099998 4293387245
-0.25887817 -0.16429941 0.68599999 4293518832
-0.25682569 -0.16382283 0.68400002 4293584877
-0.2555277 -0.16382512 0.68400002 4293913842
-0.25422966 -0.16382739 0.68400002 4293585392
-0.25293142 -0.16382954 0.68400002 4293716978
-0.25126523 -0.16359207 0.68300003 4293256175
-0.24887072 -0.16287553 0.68000001 4293585140
-0.24721564 -0.16263789 0.67900002 4293585390
-0.2459264 -0.16263972 0.67900002 4293651183
-0.24463712 -0.16264148 0.67900002 4293716206
-0.24298926 -0.16240361 0.67799997 4294176757
-0.24170162 -0.16240521 0.67799997 4293979633
-0.2397047 -0.16192767 0.676 4294308597
-0.23842065 -0.16192913 0.676 4294044655
-0.2371365 -0.1619305 0.676 4294044655
-0.23550336 -0.16169228 0.67500001 4293782001
-0.23422091 -0.16169353 0.67500001 4294176759
-0.23259327 -0.16145514 0.67400002 4293913839
-0.23131254 -0.16145624 0.67400002 4293979633
-0.23037304 -0.16169685 0.67500001 4293848046
-0.22875087 -0.16145828 0.67400002 4294045682
-0.22746988 -0.16145919 0.67400002 4293716206
-0.22618885 -0.16146004 0.67400002 4293913842
-0.22424033 -0.16098171 0.67199999 4293847794
-0.22296298 -0.16098247 0.67199999 4294242552
-0.22135562 -0.16074355 0.671 4293913839
-0.22008 -0.16074416 0.671 4294374390
-0.21880431 -0.16074471 0.671 4294046193
-0.21752858 -0.16074523 0.671 4294111986
-0.21625279 -0.16074567 0.671 4294111736
-0.21497697 -0.16074608 0.671 4294243323
-0.21370101 -0.16074638 0.671 4294046195
-0.21274163 -0.16098623 0.67199999 4294374904
-0.21146372 -0.16098645 0.67199999 4294046195
-0.21018577 -0.16098663 0.67199999 4294111988
-0.2089078 -0.16098677 0.67199999 4294045682
-0.20732078 -0.16074727 0.671 4294308597
-0.20604458 -0.16074732 0.671 4293913842
-0.20476839 -0.16074729 0.671 4294176757
-0.20349212 -0.16074723 0.671 4293980400
-0.20221581 -0.16074711 0.671 4294243572
-0.20093949 -0.16074695 0.671 4293914091
-0.19966315 -0.16074677 0.671 4293979885
-0.19838679 -0.16074653 0.671 4293782001
-0.19740413 -0.1609858 0.67199999 4293979637
-0.19583395 -0.16074592 0.671 4293979633
-0.19455752 -0.16074553 0.671 4294242804
-0.19356911 -0.16098469 0.67199999 4293783026
-0.19229068 -0.16098425 0.67199999 4293980148
-0.19101229 -0.16098376 0.67199999 4293651185
-0.18973385 -0.16098322 0.67199999 4293980150
-0.18845543 -0.16098267 0.67199999 4293980400
-0.18773407 -0.1614612 0.67400002 4293914607
-0.18645184 -0.16146056 0.67400002 4293979633
-0.18544428 -0.16169946 0.67500001 4294440184
-0.18416011 -0.16169876 0.67500001 4294045680
-0.1831468 -0.16193756 0.676 4294242802
-0.18186073 -0.1619368 0.676 4293979887
-0.18057466 -0.16193597 0.676 4293979887
-0.17981899 -0.16241424 0.67799997 4293848048
-0.17852907 -0.16241339 0.67799997 4294176757
-0.17723916 -0.16241248 0.67799997 4293913839
-0.17594934 -0.16241159 0.67799997 4294045682
-0.1746594 -0.1624106 0.67799997 4293848046
-0.17336954 -0.16240963 0.67799997 4293979633
-0.17233345 -0.16264819 0.67900002 4293716206
-0.1710417 -0.16264714 0.67900002 4293913842
-0.16999993 -0.16288562 0.68000001 4293848046
-0.16945058 -0.16360317 0.68300003 4294045682
-0.16839741 -0.16384158 0.68400002 4294110703
-0.16709617 -0.16384044 0.68400002 4294176496
-0.16579494 -0.16383927 0.68400002 4293847533
-0.16449372 -0.16383809 0.68400002 4293978862
-0.16366972 -0.16431595 0.68599999 4294044909
-0.16283813 -0.16479379 0.68800002 4294374131
-0.16199891 -0.16527158 0.69 4293979116
-0.16068636 -0.1652703 0.69 4293847787
-0.15937386 -0.16526902 0.69 4293848044
-0.1582904 -0.16550721 0.69099998 4293979887
-0.15697601 -0.16550587 0.69099998 4293519084
-0.15611222 -0.16598359 0.69300002 4293716206
-0.15479407 -0.16598222 0.69300002 4293847787
-0.15347594 -0.16598085 0.69300002 4293979116
-0.15281655 -0.16669795 0.69599998 4293715434
-0.15149277 -0.16669653 0.69599998 4293846763
-0.15060055 -0.16717413 0.69800001 4293583593
-0.14970078 -0.1676517 0.69999999 4293649387
-0.14858143 -0.16788973 0.70099998 4293715432
-0.14766838 -0.16836727 0.70300001 4294044396
-0.14633146 -0.16836578 0.70300001 4293584358
-0.14520079 -0.16860375 0.704 4293518565
-0.14590549 -0.17099716 0.71399999 4293255142
-0.14454775 -0.17099562 0.71399999 4293255142
-0.14359111 -0.17147303 0.71600002 4293386210
-0.14242826 -0.17171097 0.71700001 4293452259
-0.14106493 -0.1717094 0.71700001 4293255907
-0.14009127 -0.17218676 0.71899998 4293453542
-0.13872418 -0.17218517 0.71899998 4293189601
-0.13754816 -0.17242305 0.72000003 4293189601
-0.13750325 -0.17409778 0.727 4293123556
-0.13668276 -0.17481457 0.73000002 4293123556
-0.13585091 -0.17553131 0.73299998 4292992740
-0.28169087 -0.16723987 0.704 4291545555
-0.280357 -0.16724338 0.704 4291020244
-0.27902302 -0.1672468 0.704 4291151830
-0.2776888 -0.16725013 0.704 4291545303
-0.27478427 -0.16630308 0.69999999 4293124591
-0.27267596 -0.16583103 0.69800001 4293059046
-0.27135265 -0.16583405 0.69800001 4293190632
-0.26964226 -0.16559941 0.69700003 4293059046
-0.26832047 -0.16560222 0.69700003 4293190632
-0.26661542 -0.16536735 0.69599998 4293059046
-0.26453286 -0.1648948 0.69400001 4293322475
-0.26283705 -0.16465975 0.69300002 4293124326
-0.25888062 -0.16299897 0.68599999 4293387497
-0.25757894 -0.16300133 0.68599999 4293386984
-0.25627708 -0.16300358 0.68599999 4293847535
-0.25423181 -0.16253054 0.68400002 4293453804
-0.25293353 -0.16253267 0.68400002 4293585390
-0.25126725 -0.16229707 0.68300003 4293256681
-0.24997061 -0.16229901 0.68300003 4293453804
-0.24721748 -0.16135034 0.67900002 4293124580
-0.24592815 -0.16135211 0.67900002 4293519082
-0.24463877 -0.16135383 0.67900002 4293519084
-0.24299085 -0.16111782 0.67799997 4293782255
-0.24170317 -0.16111936 0.67799997 4293584879
-0.24041532 -0.16112085 0.67799997 4294045430
-0.23842205 -0.16064699 0.676 4293585390
-0.23713778 -0.1606483 0.676 4293585390
-0.2355046 -0.16041194 0.67500001 4293649900
-0.23422208 -0.16041315 0.67500001 4293978864
-0.23259437 -0.16017663 0.67400002 4293782255
-0.23131359 -0.16017769 0.67400002 4293848048
-0.23037404 -0.16041635 0.67500001 4293519082
-0.22875175 -0.16017963 0.67400002 4293848046
-0.22747076 -0.16018051 0.67400002 4293584877
-0.22618966 -0.16018133 0.67400002 4293519084
-0.22424105 -0.15970676 0.67199999 4293518315
-0.22296366 -0.15970746 0.67199999 4293649902
-0.22135621 -0.15947041 0.671 4293453291
-0.22008058 -0.15947102 0.671 4294045428
-0.21880482 -0.15947154 0.671 4293717230
-0.21752903 -0.15947197 0.671 4293783023
-0.21625319 -0.15947239 0.671 4293651185
-0.21497728 -0.15947275 0.671 4293980150
-0.21370131 -0.15947306 0.671 4293651183
-0.21274188 -0.15971096 0.67199999 4293980148
-0.21146394 -0.15971117 0.67199999 4293651183
-0.21018592 -0.1597113 0.67199999 4293914355
-0.20890787 -0.15971141 0.67199999 4293913842
-0.20732081 -0.15947379 0.671 4294176757
-0.20604458 -0.15947379 0.671 4293847535
-0.20476831 -0.15947375 0.671 4294176244
-0.20349205 -0.15947366 0.671 4293848048
-0.20221567 -0.15947352 0.671 4293848048
-0.20093936 -0.15947334 0.671 4293585131
-0.19966292 -0.15947311 0.671 4293848046
-0.19838652 -0.15947285 0.671 4293519084
-0.19740379 -0.1597102 0.67199999 4293979635
-0.19583361 -0.15947218 0.671 4293914355
-0.1945571 -0.15947179 0.671 4293914355
-0.19356863 -0.15970901 0.67199999 4293717232
-0.19229022 -0.15970856 0.67199999 4293980148
-0.19101179 -0.15970804 0.67199999 4293585390
-0.18973331 -0.15970749 0.67199999 4293783026
-0.18845485 -0.15970692 0.67199999 4293585644
-0.18773347 -0.16018163 0.67400002 4293914353
-0.18645117 -0.16018097 0.67400002 4294045682
-0.18544355 -0.16041791 0.67500001 4294177011
-0.18443218 -0.16065486 0.676 4293914093
-0.18314607 -0.1606541 0.676 4294177009
-0.18239799 -0.16112863 0.67799997 4293847533
-0.18110804 -0.16112781 0.67799997 4293847533
-0.17981814 -0.16112696 0.67799997 4293848046
-0.17852822 -0.16112608 0.67799997 4293979633
-0.17723826 -0.16112515 0.67799997 4293584877
-0.17620787 -0.16136186 0.67900002 4293782255
-0.17491604 -0.16136089 0.67900002 4293716460
-0.17362426 -0.16135992 0.67900002 4293782253
-0.17258623 -0.16159651 0.68000001 4293453289
-0.17129254 -0.16159546 0.68000001 4293782253
-0.16999884 -0.16159439 0.68000001 4293519082
-0.16944945 -0.1623062 0.68300003 4293585131
-0.16815008 -0.16230507 0.68300003 4293585129
-0.16685075 -0.16230395 0.68300003 4293848044
-0.16555141 -0.16230276 0.68300003 4293453289
-0.16449256 -0.1625392 0.68400002 4293585131
-0.16366851 -0.16301323 0.68599999 4293650154
-0.16283688 -0.16348726 0.68800002 4293978862
-0.16199766 -0.16396125 0.69 4293585131
-0.16091797 -0.16419758 0.69099998 4293716460
-0.15960352 -0.16419627 0.69099998 4293782251
-0.15828907 -0.16419494 0.69099998 4293848044
-0.15697469 -0.1641936 0.69099998 4293453289
-0.15566032 -0.16419226 0.69099998 4293585131
-0.15434594 -0.16419087 0.69099998 4293781738
-0.15347455 -0.16466472 0.69300002 4293847787
-0.15237601 -0.16490093 0.69400001 4293583591
-0.15149136 -0.16537471 0.69599998 4293715434
-0.15038335 -0.16561089 0.69700003 4293649641
-0.14969932 -0.16632225 0.69999999 4293649641
-0.14857994 -0.16655837 0.70099998 4293518052
-0.14766689 -0.16703209 0.70300001 4293715432
-0.14632994 -0.1670306 0.70300001 4293321189
-0.14499302 -0.16702908 0.70300001 4293255396
-0.14590394 -0.16964106 0.71399999 4293123296
-0.1445462 -0.16963953 0.71399999 4293189090
-0.1437901 -0.17035075 0.71700001 4293123294
-0.14242671 -0.17034918 0.71700001 4293386210
-0.14106335 -0.1703476 0.71700001 4293255396
-0.14008968 -0.17082115 0.71899998 4293255396
-0.13872258 -0.17081954 0.71899998 4293058785
-0.13754657 -0.17105551 0.72000003 4293058785
-0.13712332 -0.17224178 0.72500002 4292861153
-0.13630664 -0.17295286 0.72799999 4292861153
-0.13584925 -0.1741391 0.73299998 4292861151
-0.28249466 -0.16637728 0.70599997 4292006106
-0.28036046 -0.16590941 0.704 4291413722
-0.27902636 -0.16591278 0.704 4291216342
-0.27769208 -0.16591604 0.704 4291347926
-0.27478737 -0.16497648 0.69999999 4293124337
-0.272679 -0.16450816 0.69800001 4293059046
-0.27135557 -0.16451113 0.69800001 4293124839
-0.26964509 -0.1642783 0.69700003 4293125093
-0.26832324 -0.16428109 0.69700003 4293322473
-0.26661807 -0.16404806 0.69599998 4293256679
-0.26529783 -0.16405065 0.69599998 4293585644
-0.26283953 -0.16334602 0.69300002 4293519336
-0.26039252 -0.1626413 0.69 4293848044
-0.25758123 -0.16170074 0.68599999 4293519084
-0.25627935 -0.16170298 0.68599999 4293716206
-0.2542339 -0.16123365 0.68400002 4293519084
-0.25293556 -0.16123572 0.68400002 4293782255
-0.25126919 -0.16100197 0.68300003 4293584877
-0.24997248 -0.16100386 0.68300003 4293913842
-0.24758334 -0.16029847 0.68000001 4293585129
-0.24629208 -0.16030021 0.68000001 4293979887
-0.24464042 -0.16006613 0.67900002 4293782255
-0.24335082 -0.16006769 0.67900002 4293913842
-0.24206114 -0.16006921 0.67900002 4293913588
-0.24041678 -0.15983492 0.67799997 4294308345
-0.23912878 -0.15983628 0.67799997 4293848048
-0.23784068 -0.15983759 0.67799997 4293979635
-0.2358547 -0.15936731 0.676 4293782255
-0.23422322 -0.1591327 0.67500001 4293979635
-0.23294057 -0.15913381 0.67500001 4293913842
-0.23165783 -0.15913485 0.67500001 4294176757
-0.23037496 -0.15913582 0.67500001 4293782255
-0.22875269 -0.15890098 0.67400002 4293979635
-0.22747158 -0.15890181 0.67400002 4293848046
-0.22619042 -0.15890259 0.67400002 4293848046
-0.22424178 -0.15843177 0.67199999 4293453293
-0.22296427 -0.15843242 0.67199999 4293584879
-0.22135682 -0.15819727 0.671 4293716208
-0.22008111 -0.15819781 0.671 4294242552
-0.2188053 -0.15819827 0.671 4293914607
-0.21752945 -0.1581987 0.671 4293980400
-0.21625353 -0.15819909 0.671 4293783026
-0.21497758 -0.1581994 0.671 4294243576
-0.21370158 -0.1581997 0.671 4293980146
-0.21242554 -0.15819991 0.671 4294046195
-0.21114941 -0.15820009 0.671 4293783026
-0.20987327 -0.1582002 0.671 4294045941
-0.20890793 -0.15843603 0.67199999 4293913842
-0.20732084 -0.15820028 0.671 4294176757
-0.20604452 -0.15820025 0.671 4294044658
-0.20476823 -0.15820017 0.671 4294373879
-0.20349188 -0.15820006 0.671 4293782001
-0.20221549 -0.15819988 0.671 4293716208
-0.2009391 -0.15819967 0.671 4293715695
-0.19966267 -0.15819943 0.671 4294176246
-0.19838619 -0.15819912 0.671 4293782255
-0.19740346 -0.15843455 0.67199999 4293979635
-0.19612506 -0.15843418 0.67199999 4293979633
-0.19484664 -0.15843378 0.67199999 4293979633
-0.1935682 -0.15843332 0.67199999 4293913588
-0.19228972 -0.15843283 0.67199999 4294308345
-0.19101125 -0.1584323 0.67199999 4293979633
-0.18973273 -0.15843174 0.67199999 4294177011
-0.18845426 -0.15843114 0.67199999 4293848046
-0.1877328 -0.15890203 0.67400002 4293848046
-0.18672714 -0.15913711 0.67500001 4293914093
-0.18544286 -0.1591364 0.67500001 4294045680
-0.18443148 -0.15937142 0.676 4294044909
-0.18314528 -0.15937065 0.676 4294308338
-0.18239719 -0.15984133 0.67799997 4293847533
-0.18110721 -0.15984048 0.67799997 4293847533
-0.17981724 -0.15983962 0.67799997 4293782253
-0.1785273 -0.15983874 0.67799997 4294045682
-0.17723735 -0.15983778 0.67799997 4293584877
-0.17620692 -0.16007259 0.67900002 4293584877
-0.17491509 -0.1600716 0.67900002 4293716460
-0.17387894 -0.16030632 0.68000001 4293913839
-0.1725852 -0.16030531 0.68000001 4293716460
-0.17129149 -0.16030423 0.68000001 4294045682
-0.17049775 -0.16077462 0.68199998 4293585131
-0.16944833 -0.16100925 0.68300003 4293519082
-0.16814893 -0.16100809 0.68300003 4293715947
-0.16684957 -0.16100694 0.68300003 4294110705
-0.1655502 -0.16100577 0.68300003 4293650152
-0.16449134 -0.16124028 0.68400002 4293781738
-0.16366728 -0.1617105 0.68599999 4293716458
-0.16330898 -0.16265216 0.69 4293848044
-0.16199636 -0.16265088 0.69 4293519084
-0.16091666 -0.16288531 0.69099998 4293584877
-0.1596022 -0.16288398 0.69099998 4293585129
-0.15828775 -0.16288269 0.69099998 4293782251
-0.15697333 -0.16288131 0.69099998 4293519082
-0.15565896 -0.16287994 0.69099998 4293519082
-0.15434457 -0.16287857 0.69099998 4293650152
-0.15347317 -0.16334862 0.69300002 4293650152
-0.15237461 -0.16358289 0.69400001 4293583591
-0.15148991 -0.16405287 0.69599998 4293649641
-0.15038192 -0.16428715 0.69700003 4293584358
-0.14991169 -0.16522849 0.70099998 4293847787
-0.14857845 -0.16522701 0.70099998 4293650150
-0.14766537 -0.16569692 0.70300001 4293650150
-0.14632842 -0.16569543 0.70300001 4293321191
-0.1449915 -0.16569389 0.70300001 4293386984
-0.14651546 -0.16899209 0.71700001 4293255396
-0.14515196 -0.16899051 0.71700001 4293386982
-0.14378853 -0.16898894 0.71700001 4293386210
-0.14242512 -0.16898738 0.71700001 4293452259
-0.14106174 -0.16898575 0.71700001 4293255142
-0.14008808 -0.16945553 0.71899998 4293189349
-0.13872099 -0.16945392 0.71899998 4293189601
-0.13754496 -0.16968802 0.72000003 4293321187
-0.13712171 -0.17086476 0.72500002 4293057510
-0.136305 -0.17157014 0.72799999 4292860388
-0.13584758 -0.17274682 0.73299998 4292926685
-0.1346375 -0.17298087 0.73400003 4293650152
-0.28249809 -0.16503948 0.70599997 4291808983
-0.28116032 -0.16504291 0.70599997 4291545305
-0.27982235 -0.16504622 0.70599997 4291282133
-0.27769527 -0.16458184 0.704 4291282387
-0.27479044 -0.1636498 0.69999999 4292795626
-0.27268198 -0.16318524 0.69800001 4292664288
-0.27135849 -0.16318813 0.69800001 4293059046
-0.26964787 -0.16295713 0.69700003 4292927460
-0.26832592 -0.16295986 0.69700003 4293124839
-0.26662073 -0.16272868 0.69599998 4293125093
-0.2653003 -0.16273119 0.69599998 4293453802
-0.26284197 -0.16203222 0.69300002 4293190886
-0.26077217 -0.16156693 0.69099998 4293585644
-0.25908539 -0.16133538 0.69 4293124839
-0.25665504 -0.16063608 0.68699998 4293190632
-0.25423601 -0.15993671 0.68400002 4293321191
-0.25293753 -0.15993871 0.68400002 4293649900
-0.25127107 -0.1597068 0.68300003 4293255655
-0.24997431 -0.15970866 0.68300003 4293519084
-0.24831328 -0.15947658 0.68199998 4293387495
-0.24629372 -0.15901059 0.68000001 4293716460
-0.24500233 -0.15901221 0.68000001 4293519084
-0.24371077 -0.15901375 0.68000001 4293716206
-0.24206261 -0.15878138 0.67900002 4293584879
-0.24077272 -0.15878277 0.67900002 4293847794
-0.23913011 -0.15855025 0.67799997 4293256681
-0.23784193 -0.1585515 0.67799997 4293585390
-0.23585589 -0.15808499 0.676 4293584877
-0.23457132 -0.15808612 0.676 4293782255
-0.23294161 -0.15785331 0.67500001 4293584877
-0.23165877 -0.15785429 0.67500001 4293848048
-0.2303759 -0.15785524 0.67500001 4293519084
-0.22875354 -0.15762223 0.67400002 4293913842
-0.22747234 -0.15762302 0.67400002 4293519597
-0.22619115 -0.15762377 0.67400002 4293651183
-0.22424248 -0.15715674 0.67199999 4293519084
-0.22296494 -0.15715736 0.67199999 4293716206
-0.22168727 -0.1571579 0.67199999 4293716206
-0.22040959 -0.15715842 0.67199999 4293979635
-0.21880573 -0.15692501 0.671 4293585644
-0.21752982 -0.15692541 0.671 4293717230
-0.21625388 -0.15692575 0.671 4293585392
-0.21497788 -0.15692605 0.671 4293980150
-0.21370178 -0.15692627 0.671 4293914353
-0.21242568 -0.15692645 0.671 4293980146
-0.21114954 -0.15692662 0.671 4293585390
-0.20987336 -0.15692671 0.671 4293783026
-0.20859708 -0.15692674 0.671 4293584877
-0.20732081 -0.15692674 0.671 4293848048
-0.20604448 -0.15692668 0.671 4293847535
-0.20476809 -0.15692656 0.671 4294110451
-0.20349173 -0.15692642 0.671 4293782001
-0.20221531 -0.15692624 0.671 4293716208
-0.20093888 -0.15692601 0.671 4293649387
-0.19995993 -0.1571596 0.67199999 4294109938
-0.19868155 -0.15715928 0.67199999 4293585131
-0.19740312 -0.15715893 0.67199999 4293716460
-0.19612466 -0.15715851 0.67199999 4293715947
-0.19484617 -0.15715808 0.67199999 4293715947
-0.19356774 -0.15715761 0.67199999 4293715693
-0.19228917 -0.15715709 0.67199999 4294176244
-0.19101068 -0.15715654 0.67199999 4293716460
-0.18973215 -0.15715596 0.67199999 4293913839
-0.18901446 -0.15762304 0.67400002 4293585131
-0.18773216 -0.15762241 0.67400002 4293585131
-0.18644978 -0.15762171 0.67400002 4293715434
-0.1854421 -0.15785486 0.67500001 4293846763
-0.18443069 -0.15808792 0.676 4293650152
-0.18314448 -0.15808713 0.676 4293847787
-0.18239635 -0.15855402 0.67799997 4293453289
-0.18110636 -0.15855317 0.67799997 4293453289
-0.18008161 -0.15878615 0.67900002 4293519336
-0.17878969 -0.15878521 0.67900002 4293848044
-0.1774978 -0.15878427 0.67900002 4293322473
-0.17646545 -0.15901716 0.68000001 4293453802
-0.17517163 -0.15901613 0.68000001 4293519082
-0.17387789 -0.15901512 0.68000001 4293848046
-0.17258413 -0.15901406 0.68000001 4293322470
-0.1712904 -0.15901299 0.68000001 4293651435
-0.17049663 -0.15947956 0.68199998 4293453289
-0.16944721 -0.15971228 0.68300003 4293453289
-0.16814779 -0.15971114 0.68300003 4293583591
-0.16709268 -0.1599438 0.68400002 4293715434
-0.16579138 -0.15994257 0.68400002 4293387749
-0.16497107 -0.16040902 0.68599999 4293585129
-0.16366602 -0.16040778 0.68599999 4293782251
-0.1633077 -0.16134183 0.69 4293716458
-0.16199505 -0.16134053 0.69 4293387495
-0.16091533 -0.16157305 0.69099998 4293387495
-0.15960087 -0.16157174 0.69099998 4293255907
-0.15828641 -0.1615704 0.69099998 4293585129
-0.15697196 -0.16156903 0.69099998 4293453802
-0.15565756 -0.16156766 0.69099998 4293322473
-0.15434319 -0.16156626 0.69099998 4293123556
-0.15347174 -0.16203247 0.69300002 4293189349
-0.15237318 -0.16226488 0.69400001 4293254883
-0.15170613 -0.16296487 0.69700003 4293452005
-0.15038045 -0.16296341 0.69700003 4293189601
-0.14991021 -0.16389716 0.70099998 4293650152
-0.14857697 -0.16389567 0.70099998 4293387749
-0.14766388 -0.16436179 0.70300001 4293321700
-0.14632691 -0.16436027 0.70300001 4293189603
-0.14705241 -0.16669668 0.713 4293321189
-0.14569651 -0.16669513 0.713 4293189601
-0.14494795 -0.16739495 0.71600002 4293387236
-0.14378692 -0.16762716 0.71700001 4293189601
-0.14242351 -0.16762558 0.71700001 4293321187
-0.14106016 -0.16762398 0.71700001 4293255396
-0.14008649 -0.16808994 0.71899998 4293189603
-0.13871935 -0.16808832 0.71899998 4292926685
-0.13754334 -0.16832049 0.72000003 4293123808
-0.13712007 -0.16948776 0.72500002 4292926433
-0.13630335 -0.17018744 0.72799999 4292860640
-0.13547529 -0.1708871 0.73100001 4292926685
-0.13463585 -0.17158675 0.73400003 4293518565
-0.2776984 -0.1632476 0.704 4291413971
-0.27479348 -0.16232309 0.69999999 4292927210
-0.27268487 -0.16186222 0.69800001 4292927460
-0.27136126 -0.16186507 0.69800001 4293256681
-0.26965064 -0.16163594 0.69700003 4293059044
-0.26832861 -0.16163859 0.69700003 4293125093
-0.26700631 -0.16164114 0.69700003 4293255909
-0.26530281 -0.16141172 0.69599998 4293519082
-0.26322362 -0.16095029 0.69400001 4293519336
-0.26152924 -0.16072066 0.69300002 4293914093
-0.25908759 -0.1600271 0.69 4293585131
-0.25703076 -0.1595654 0.68800002 4293782253
-0.25423801 -0.15863971 0.68400002 4293716206
-0.25256968 -0.15840973 0.68300003 4294045428
-0.25127295 -0.15841159 0.68300003 4293585644
-0.24997607 -0.1584134 0.68300003 4293585644
-0.24831501 -0.15818317 0.68199998 4293519084
-0.24701978 -0.15818481 0.68199998 4293848048
-0.24572445 -0.15818641 0.68199998 4293782251
-0.24371226 -0.15772402 0.68000001 4293914093
-0.24242051 -0.15772544 0.68000001 4293716206
-0.24077411 -0.15749486 0.67900002 4293979635
-0.23948403 -0.15749612 0.67900002 4293519084
-0.2378431 -0.15726538 0.67799997 4293848048
-0.23655482 -0.15726653 0.67799997 4293782255
-0.23457237 -0.15680368 0.676 4293913842
-0.23328769 -0.15680471 0.676 4293782001
-0.23165973 -0.15657371 0.67500001 4293979637
-0.23037677 -0.15657461 0.67500001 4293848048
-0.22909373 -0.15657544 0.67500001 4294176757
-0.22747312 -0.15634423 0.67400002 4293848044
-0.22619183 -0.15634494 0.67400002 4293782251
-0.22424306 -0.15588164 0.67199999 4293585131
-0.22296548 -0.15588224 0.67199999 4293979633
-0.22168781 -0.15588278 0.67199999 4293848046
-0.22041005 -0.15588325 0.67199999 4293979633
-0.21913224 -0.15588367 0.67199999 4293717232
-0.21753021 -0.15565208 0.671 4293980148
-0.21625417 -0.15565239 0.671 4293782774
-0.2149781 -0.15565263 0.671 4294111738
-0.21370201 -0.15565287 0.671 4294111986
-0.21242586 -0.15565301 0.671 4294243572
-0.21114963 -0.15565312 0.671 4293979633
-0.20987338 -0.15565318 0.671 4294177011
-0.20859708 -0.15565319 0.671 4293913839
-0.20732079 -0.15565316 0.671 4294045682
-0.20604441 -0.15565307 0.671 4293913842
-0.20476799 -0.15565296 0.671 4294045428
-0.20349155 -0.15565278 0.671 4293913592
-0.20221509 -0.15565258 0.671 4294176507
-0.2009386 -0.15565231 0.671 4293979887
-0.19995964 -0.155884 0.67199999 4294308595
-0.19868119 -0.15588363 0.67199999 4293782251
-0.19740272 -0.15588325 0.67199999 4293914093
-0.19612424 -0.15588285 0.67199999 4293848046
-0.19484572 -0.15588236 0.67199999 4293913839
-0.19356719 -0.15588188 0.67199999 4293848048
-0.19228865 -0.15588133 0.67199999 4294242806
-0.19101012 -0.15588078 0.67199999 4294044909
-0.18973155 -0.15588017 0.67199999 4294176496
-0.18901385 -0.15634346 0.67400002 4293782251
-0.18773144 -0.15634279 0.67400002 4293848044
-0.18644905 -0.15634207 0.67400002 4293912558
-0.18544136 -0.15657328 0.67500001 4293978351
-0.18415709 -0.15657252 0.67500001 4293715945
-0.18287274 -0.15657169 0.67500001 4293979116
-0.18185744 -0.1568028 0.676 4293650154
-0.18110548 -0.15726584 0.67799997 4293650154
-0.18008064 -0.15749688 0.67900002 4293519336
-0.17878877 -0.15749596 0.67900002 4293848044
-0.17749682 -0.15749501 0.67900002 4293585129
-0.17646444 -0.15772595 0.68000001 4293782251
-0.17517062 -0.15772493 0.68000001 4293716458
-0.17387682 -0.1577239 0.68000001 4293979887
-0.17258307 -0.15772285 0.68000001 4293716458
-0.17128928 -0.15772174 0.68000001 4293914093
-0.16999552 -0.15772064 0.68000001 4293782505
-0.16919795 -0.15818337 0.68199998 4293782505
-0.16790043 -0.15818222 0.68199998 4293519082
-0.1668472 -0.15841295 0.68300003 4293519082
-0.16627494 -0.15910755 0.68599999 4293387497
-0.16521032 -0.15933825 0.68699998 4293584877
-0.16390333 -0.15933698 0.68699998 4293585129
-0.16283306 -0.15956767 0.68800002 4293716458
-0.16199377 -0.16003022 0.69 4293453291
-0.16068116 -0.16002889 0.69 4293716206
-0.15959953 -0.16025949 0.69099998 4293519082
-0.15828504 -0.16025813 0.69099998 4293848046
-0.15697059 -0.16025676 0.69099998 4293519082
-0.15610671 -0.16071923 0.69300002 4293519082
-0.15478851 -0.16071782 0.69300002 4293321191
-0.15369178 -0.16094831 0.69400001 4293386984
-0.15303041 -0.16164263 0.69700003 4293518311
-0.15235764 -0.1623369 0.69999999 4293715947
-0.15102623 -0.16233541 0.69999999 4293321191
-0.15033643 -0.16302967 0.70300001 4293715693
-0.14899936 -0.16302815 0.70300001 4293387236
-0.1478724 -0.16325852 0.704 4293387236
-0.14653352 -0.163257 0.704 4293321187
-0.14663838 -0.16487876 0.71100003 4293518565
-0.14569494 -0.16534099 0.713 4293387234
-0.14494638 -0.1660351 0.71600002 4293387234
-0.14378534 -0.1662654 0.71700001 4293254881
-0.14242193 -0.16626382 0.71700001 4293254881
-0.14105855 -0.16626221 0.71700001 4293254881
-0.14008486 -0.16672438 0.71899998 4293452259
-0.13871774 -0.16672274 0.71899998 4293057249
-0.13754173 -0.16695303 0.72000003 4293123042
-0.13711841 -0.16811076 0.72500002 4292991708
-0.1363017 -0.16880473 0.72799999 4293057501
-0.13528831 -0.16926686 0.73000002 4292926681
-0.27770144 -0.16191326 0.704 4291216592
-0.27518898 -0.16122624 0.70099998 4292729831
-0.27346906 -0.16099913 0.69999999 4292795878
-0.27136403 -0.16054194 0.69800001 4293190636
-0.26965329 -0.1603146 0.69700003 4292927460
-0.26833117 -0.16031723 0.69700003 4292796130
-0.26700884 -0.16031972 0.69700003 4292860640
-0.26530519 -0.16009213 0.69599998 4293255142
-0.26322594 -0.15963444 0.69400001 4293189349
-0.2615315 -0.15940668 0.69300002 4293584107
-0.25946525 -0.15894878 0.69099998 4293256681
-0.25703284 -0.15826079 0.68800002 4293453804
-0.25498334 -0.1578027 0.68599999 4293190632
-0.25257158 -0.15711452 0.68300003 4293585390
-0.25127476 -0.15711634 0.68300003 4293453804
-0.24997783 -0.1571181 0.68300003 4293519597
-0.24831665 -0.15688971 0.68199998 4293124839
-0.24702136 -0.15689132 0.68199998 4293453804
-0.245726 -0.15689285 0.68199998 4293519082
-0.24371368 -0.15643421 0.68000001 4293782253
-0.24242187 -0.15643556 0.68000001 4293386984
-0.24077542 -0.15620686 0.67900002 4293649900
-0.23948529 -0.15620808 0.67900002 4293386984
-0.23819512 -0.15620928 0.67900002 4293715693
-0.2365559 -0.1559803 0.67799997 4293519084
-0.23457341 -0.15552124 0.676 4293716206
-0.23328863 -0.15552221 0.676 4293519086
-0.23166065 -0.15529309 0.67500001 4293782001
-0.23037758 -0.15529393 0.67500001 4293519084
-0.22909449 -0.15529473 0.67500001 4293913842
-0.22747384 -0.1550654 0.67400002 4293453804
-0.22619253 -0.15506607 0.67400002 4293453804
-0.22491109 -0.15506668 0.67400002 4293387495
-0.22362962 -0.15506722 0.67400002 4293716460
-0.22234806 -0.15506774 0.67400002 4293519082
-0.2204105 -0.15460804 0.67199999 4293782253
-0.2191326 -0.15460841 0.67199999 4293519595
-0.21785472 -0.15460876 0.67199999 4293783023
-0.21625447 -0.15437898 0.671 4293585392
-0.21497834 -0.15437919 0.671 4293782772
-0.21370217 -0.15437938 0.671 4293848046
-0.21242598 -0.15437952 0.671 4293913839
-0.21114971 -0.15437959 0.671 4293519084
-0.20987344 -0.15437964 0.671 4293848048
-0.20859706 -0.15437961 0.671 4293782255
-0.20732068 -0.15437955 0.671 4293913842
-0.20604429 -0.15437944 0.671 4293716206
-0.20476784 -0.15437929 0.671 4293782255
-0.2037946 -0.15460916 0.67199999 4293322221
-0.20251621 -0.15460895 0.67199999 4293716978
-0.20123777 -0.15460865 0.67199999 4293783021
-0.19995929 -0.15460834 0.67199999 4293783021
-0.1986808 -0.15460797 0.67199999 4293322473
-0.19740231 -0.15460756 0.67199999 4293651437
-0.19612376 -0.15460712 0.67199999 4293782253
-0.19484524 -0.15460664 0.67199999 4293716460
-0.19356667 -0.15460613 0.67199999 4293519084
-0.1922881 -0.15460558 0.67199999 4293913842
-0.19100951 -0.15460499 0.67199999 4293453804
-0.18973088 -0.15460436 0.67199999 4293453804
-0.18845232 -0.15460368 0.67199999 4293584105
-0.18773073 -0.15506312 0.67400002 4293650154
-0.18644834 -0.15506241 0.67400002 4293649641
-0.18544061 -0.15529172 0.67500001 4293649641
-0.18415625 -0.1552909 0.67500001 4293583845
-0.18287194 -0.15529008 0.67500001 4293583845
-0.18185657 -0.15551926 0.676 4293321187
-0.18057035 -0.1555184 0.676 4293518565
-0.17981452 -0.15597758 0.67799997 4293321700
-0.1790511 -0.15643674 0.68000001 4293387749
-0.17775726 -0.15643576 0.68000001 4293387749
-0.17646343 -0.15643474 0.68000001 4293453542
-0.17568481 -0.15689383 0.68199998 4293189601
-0.17387578 -0.15643267 0.68000001 4293650152
-0.17258199 -0.1564316 0.68000001 4293387497
-0.17128821 -0.1564305 0.68000001 4293519084
-0.1699944 -0.15642937 0.68000001 4293519336
-0.16919681 -0.15688831 0.68199998 4293716458
-0.16789924 -0.15688711 0.68199998 4293190884
-0.16684599 -0.15711597 0.68300003 4293322470
-0.1662737 -0.15780485 0.68599999 4293387749
-0.16544956 -0.15826367 0.68800002 4293387749
-0.16414064 -0.1582624 0.68800002 4293321187
-0.16283177 -0.15826111 0.68800002 4293518565
-0.16199245 -0.15871987 0.69 4293321187
-0.16067983 -0.15871856 0.69 4293584358
-0.15959819 -0.15894721 0.69099998 4293518565
-0.15828368 -0.15894587 0.69099998 4293781738
-0.15696922 -0.15894447 0.69099998 4293518311
-0.15610531 -0.15940313 0.69300002 4293584105
-0.15478708 -0.15940171 0.69300002 4293321191
-0.15369035 -0.1596303 0.69400001 4293321191
-0.15280941 -0.1600889 0.69599998 4293321189
-0.15235618 -0.16100746 0.69999999 4293321189
-0.15102476 -0.161006 0.69999999 4292794843
-0.15097646 -0.16238454 0.70599997 4293189601
-0.14963369 -0.16238301 0.70599997 4293189088
-0.14850102 -0.16261153 0.70700002 4293254881
-0.14736457 -0.16283998 0.708 4293189601
-0.14643057 -0.16329841 0.70999998 4293321187
-0.1452847 -0.16352686 0.71100003 4293123808
-0.14514722 -0.16490524 0.71700001 4293189601
-0.14378376 -0.16490366 0.71700001 4293057501
-0.14242034 -0.16490205 0.71700001 4293057501
-0.14105694 -0.16490044 0.71700001 4292991708
-0.14008324 -0.1653588 0.71899998 4293123294
-0.13890906 -0.16558717 0.72000003 4292662743
-0.13754007 -0.16558555 0.72000003 4292991708
-0.13673852 -0.16627385 0.72299999 4292991708
-0.13630004 -0.16742206 0.72799999 4292991708
-0.13528666 -0.16788039 0.73000002 4292664025
-0.27770445 -0.16057886 0.704 4291282385
-0.2751919 -0.15989746 0.70099998 4292598245
-0.27347186 -0.15967219 0.69999999 4292730085
-0.27136672 -0.1592187 0.69800001 4293190636
-0.26965588 -0.15899324 0.69700003 4293124841
-0.26833367 -0.15899579 0.69700003 4293059048
-0.26701128 -0.15899824 0.69700003 4292795878
-0.26530758 -0.15877251 0.69599998 4293453552
-0.26322821 -0.15831855 0.69400001 4293124839
-0.26191109 -0.15832074 0.69400001 4293190632
-0.2594673 -0.15763846 0.69099998 4293256681
-0.25703484 -0.15695611 0.68800002 4293519597
-0.25498527 -0.15650177 0.68599999 4293190634
-0.25368279 -0.15650363 0.68599999 4293519599
-0.2516444 -0.15604915 0.68400002 4293585642
-0.24997947 -0.15582271 0.68300003 4293717228
-0.24831827 -0.15559618 0.68199998 4293256681
-0.24702288 -0.15559775 0.68199998 4293519597
