# .PCD v0.7 - Point Cloud Data file format
VERSION 0.7
FIELDS x y z rgba
SIZE 4 4 4 4
TYPE F F F U
COUNT 1 1 1 1
WIDTH 1053
HEIGHT 1
VIEWPOINT 0 0 0 1 0 0 0
POINTS 1053
DATA ascii
0.32281831 -0.014908615 0.70700002 4288781206
0.32461429 -0.014928028 0.708 4288715413
0.32595339 -0.01492634 0.708 4288715413
0.3272922 -0.014924631 0.708 4288518034
0.32863075 -0.01492291 0.708 4288386961
0.32996905 -0.01492117 0.708 4288452754
0.33130693 -0.01491941 0.708 4288321684
0.33358428 -0.014959778 0.70999998 4288321684
0.33492535 -0.014957978 0.70999998 4288321950
0.34194955 -0.015208946 0.722 4288058778
0.34236169 -0.015164958 0.72000003 4287926681
0.3432433 -0.015142023 0.71899998 4287926681
0.34460014 -0.015140131 0.71899998 4284251527
0.34643781 -0.015159277 0.72000003 4283001203
0.34779572 -0.015157345 0.72000003 4278207317
0.24072593 -0.014109626 0.73100001 4290886585
0.2421177 -0.014108771 0.73100001 4290885814
0.24350943 -0.014107904 0.73100001 4290885814
0.24490114 -0.014107028 0.73100001 4290951857
0.24595587 -0.014086844 0.73000002 4290951857
0.24734563 -0.014085949 0.73000002 4290886066
0.24873528 -0.014085044 0.73000002 4290951859
0.24841179 -0.013987664 0.72500002 4290951857
0.24979194 -0.013986746 0.72500002 4290754735
0.24840048 -0.01383149 0.71700001 4290754998
0.24976532 -0.013830563 0.71700001 4290688949
0.2511301 -0.013829625 0.71700001 4290820789
0.2531991 -0.013867248 0.71899998 4290886583
0.25350547 -0.013808433 0.71600002 4290821043
0.25486815 -0.013807461 0.71600002 4290754994
0.25623086 -0.013806486 0.71600002 4290689203
0.25759342 -0.013805493 0.71600002 4290623410
0.25895602 -0.013804493 0.71600002 4290425784
0.26140925 -0.01386132 0.71899998 4290359990
0.26314285 -0.01387957 0.72000003 4290623410
0.26451284 -0.013878534 0.72000003 4290754996
0.26145133 -0.01364619 0.708 4290557615
0.26279831 -0.013645148 0.708 4290426286
0.26414528 -0.013644095 0.708 4290426286
0.26549208 -0.01364303 0.708 4290360492
0.26683885 -0.013641954 0.708 4290360238
0.26894313 -0.013679399 0.70999998 4290294445
0.26953211 -0.013639769 0.708 4290163629
0.27011338 -0.013600127 0.70599997 4290163629
0.27068695 -0.013560487 0.704 4290163627
0.27202564 -0.013559359 0.704 4290163627
0.27336419 -0.013558218 0.704 4290097836
0.27470267 -0.013557069 0.704 4290031787
0.27564889 -0.01353665 0.70300001 4289965994
0.27698526 -0.013535476 0.70300001 4289965994
0.27832147 -0.013534292 0.70300001 4290162855
0.2796576 -0.013533095 0.70300001 4290228904
0.28139326 -0.013551132 0.704 4290228389
0.28273103 -0.01354991 0.704 4290031009
0.28406861 -0.013548673 0.704 4289899435
0.28500068 -0.013528181 0.70300001 4289899435
0.28633609 -0.01352692 0.70300001 4290096553
0.28685296 -0.013487166 0.70099998 4290228139
0.28818434 -0.013485886 0.70099998 4289900201
0.28910252 -0.013465355 0.69999999 4289834407
0.29043162 -0.013464049 0.69999999 4289833896
0.29092699 -0.013424266 0.69800001 4289833896
0.29225203 -0.013422937 0.69800001 4289834659
0.29357684 -0.013421595 0.69800001 4289900453
0.29574648 -0.013458695 0.69999999 4289899687
0.29707474 -0.013457321 0.69999999 4289768101
0.29882911 -0.013475156 0.70099998 4289767847
0.30015895 -0.013473758 0.70099998 4289767847
0.30148861 -0.013472342 0.70099998 4289637281
0.30411389 -0.01352856 0.704 4289571488
0.3054488 -0.013527113 0.704 4289571488
0.3067835 -0.013525651 0.704 4289505695
0.30768037 -0.013504962 0.70300001 4289439388
0.30769399 -0.013445846 0.69999999 4289439388
0.30902049 -0.013444347 0.69999999 4289242779
0.31034672 -0.013442835 0.69999999 4289110937
0.31167278 -0.013441307 0.69999999 4289045407
0.31299853 -0.013439766 0.69999999 4288848285
0.31477311 -0.013457406 0.70099998 4288848285
0.31610024 -0.013455831 0.70099998 4288848285
0.31833285 -0.013492629 0.70300001 4288650397
0.32102746 -0.013548591 0.70599997 4288387482
0.32281995 -0.013566149 0.70700002 4288518298
0.32461593 -0.013583686 0.708 4288518298
0.32595509 -0.013582021 0.708 4288452756
0.32729396 -0.013580338 0.708 4288386707
0.32956079 -0.013616995 0.70999998 4288256145
0.33090284 -0.013615276 0.70999998 4288256145
0.33224458 -0.01361354 0.70999998 4288190352
0.33358601 -0.013611788 0.70999998 4287992974
0.33492714 -0.01361002 0.70999998 4287860895
0.3419514 -0.013838235 0.722 4287795102
0.34236357 -0.013798077 0.72000003 4287533720
0.34324521 -0.01377707 0.71899998 4287533720
0.34460202 -0.013775214 0.71899998 4284182161
0.34643972 -0.013792496 0.72000003 4283655816
0.34779769 -0.013790601 0.72000003 4283394682
0.24138544 -0.012756562 0.73299998 4290689203
0.24211855 -0.012720877 0.73100001 4290754483
0.24351031 -0.012719993 0.73100001 4290754483
0.24557205 -0.012753894 0.73299998 4290819504
0.24629368 -0.01271819 0.73100001 4290687918
0.24768536 -0.012717275 0.73100001 4290687404
0.24873625 -0.012698955 0.73000002 4290818991
0.24841274 -0.012611049 0.72500002 4290688688
0.24979289 -0.012610115 0.72500002 4290688688
0.2484014 -0.012470032 0.71700001 4290492338
0.24976626 -0.012469088 0.71700001 4290492338
0.25183153 -0.01250291 0.71899998 4290623156
0.25355223 -0.012519332 0.72000003 4290557363
0.25386044 -0.012466192 0.71700001 4290360238
0.25486913 -0.012447825 0.71600002 4290426032
0.25623181 -0.012446831 0.71600002 4290557361
0.25759447 -0.012445828 0.71600002 4290426032
0.25895703 -0.012444813 0.71600002 4290426034
0.26141024 -0.012495928 0.71899998 4290294447
0.26314393 -0.012512269 0.72000003 4290425261
0.26451388 -0.01251122 0.72000003 4290425261
0.26145244 -0.012301655 0.708 4290360492
0.26242822 -0.012283227 0.70700002 4290360492
0.26377323 -0.012282165 0.70700002 4290425511
0.26549321 -0.012298462 0.708 4290557354
0.26683995 -0.012297373 0.708 4290294958
0.2689442 -0.012331014 0.70999998 4290031787
0.26953319 -0.01229517 0.708 4289965483
0.27011445 -0.012259322 0.70599997 4290096812
0.27068809 -0.012223471 0.704 4290228904
0.27202678 -0.012222338 0.704 4290228904
0.27297705 -0.012203833 0.70300001 4289900201
0.27431363 -0.012202676 0.70300001 4289834407
0.27565008 -0.012201512 0.70300001 4289965483
0.27698645 -0.012200334 0.70300001 4289767847
0.27832267 -0.012199142 0.70300001 4289899169
0.27965879 -0.012197942 0.70300001 4289964962
0.28219387 -0.01224878 0.70599997 4289703330
0.28353545 -0.012247552 0.70599997 4289703330
0.28406984 -0.012211618 0.704 4289899689
0.28540736 -0.012210367 0.704 4289833896
0.28633738 -0.012191763 0.70300001 4289768101
0.28685427 -0.01215581 0.70099998 4289768101
0.2881856 -0.012154529 0.70099998 4289964710
0.28951678 -0.012153236 0.70099998 4289898917
0.29084781 -0.01215193 0.70099998 4289637285
0.2917619 -0.012133281 0.69999999 4289637285
0.29225335 -0.012097292 0.69800001 4289768353
0.29357818 -0.012095954 0.69800001 4289702304
0.29574785 -0.01212926 0.69999999 4289636515
0.29707611 -0.012127893 0.69999999 4289439136
0.29840425 -0.012126515 0.69999999 4289373345
0.30444226 -0.012315662 0.71100003 4289636261
0.30450061 -0.012262277 0.708 4289571751
0.30584329 -0.012260841 0.708 4289374629
0.30631804 -0.012224765 0.70599997 4289176993
0.30765656 -0.012223307 0.70599997 4289111200
0.30811954 -0.012187215 0.704 4288978835
0.3090142 -0.012168427 0.70300001 4289176214
0.30946344 -0.012132319 0.70099998 4289044381
0.31079158 -0.012130818 0.70099998 4289044381
0.31211954 -0.012129306 0.70099998 4288913826
0.31344721 -0.012127778 0.70099998 4288782239
0.31567273 -0.012160833 0.70300001 4288782753
0.31700373 -0.012159272 0.70300001 4288585374
0.31878731 -0.012174992 0.704 4288190616
0.32102907 -0.012207983 0.70599997 4288190616
0.32327819 -0.012240952 0.708 4288452756
0.32461759 -0.012239323 0.708 4288452756
0.32595673 -0.012237677 0.708 4288255891
0.32729557 -0.012236019 0.708 4288190098
0.32956249 -0.012268905 0.70999998 4288124305
0.33090457 -0.012267212 0.70999998 4287992976
0.33224633 -0.012265505 0.70999998 4288123792
0.33405763 -0.012281053 0.71100003 4287926412
0.33540064 -0.012279311 0.71100003 4287137676
0.34195322 -0.012467502 0.722 4288387743
0.34236535 -0.012431172 0.72000003 4288849077
0.3437244 -0.012429358 0.72000003 4288520113
0.34508315 -0.012427532 0.72000003 4288453547
0.24311313 -0.011379482 0.73400003 4290623410
0.24451056 -0.01137857 0.73400003 4290623410
0.24590798 -0.011377651 0.73400003 4290557104
0.24696846 -0.011361223 0.73299998 4290557104
0.24836393 -0.011360287 0.73299998 4290491054
0.24907792 -0.011328346 0.73100001 4290491054
0.24944159 -0.011280906 0.72799999 4290426286
0.24979384 -0.011233468 0.72500002 4290426286
0.24944171 -0.011155039 0.72000003 4290426286
0.25081223 -0.011154072 0.72000003 4290557615
0.25218275 -0.011153096 0.72000003 4290426032
0.25355321 -0.011152113 0.72000003 4290426032
0.25492361 -0.011151118 0.72000003 4290360238
0.25487015 -0.01108817 0.71600002 4290360238
0.25623283 -0.011087161 0.71600002 4290360238
0.25759548 -0.011086145 0.71600002 4290426032
0.25895807 -0.011085118 0.71600002 4290360492
0.26177487 -0.011146003 0.72000003 4290228650
0.26314494 -0.011144952 0.72000003 4290228398
0.26341277 -0.011097454 0.71700001 4290228398
0.26145345 -0.010957101 0.708 4290294184
0.26242927 -0.010940562 0.70700002 4290228391
0.26377431 -0.010939489 0.70700002 4290294434
0.26549423 -0.010953876 0.708 4290557349
0.26759481 -0.010983721 0.70999998 4290360740
0.26894534 -0.010982611 0.70999998 4289900189
0.26953429 -0.010950559 0.708 4289899949
0.27049825 -0.010933967 0.70700002 4289899949
0.27145824 -0.010917368 0.70599997 4290032039
0.27202797 -0.010885301 0.704 4290032039
0.27297819 -0.010868689 0.70300001 4289899687
0.27431482 -0.010867528 0.70300001 4289833894
0.27565128 -0.010866356 0.70300001 4289964712
0.27698764 -0.010865174 0.70300001 4289898919
0.27832386 -0.01086398 0.70300001 4289899169
0.27966002 -0.010862777 0.70300001 4289899169
0.28219509 -0.010907912 0.70599997 4289899169
0.2835367 -0.010906681 0.70599997 4289899169
0.2848781 -0.010905437 0.70599997 4289768353
0.28540856 -0.010873294 0.704 4289702304
0.28674597 -0.010872034 0.704 4289636261
0.28685555 -0.010824435 0.70099998 4289636261
0.28818688 -0.010823157 0.70099998 4289767588
0.29034412 -0.010852742 0.70300001 4289701795
0.29167899 -0.010851436 0.70300001 4289636515
0.29301366 -0.010850118 0.70300001 4289636515
0.29351074 -0.010817924 0.70099998 4289505443
0.29484132 -0.010816587 0.70099998 4289505443
0.29617169 -0.010815237 0.70099998 4289636765
0.30132148 -0.010952713 0.70999998 4289439386
0.30266857 -0.010951322 0.70999998 4289241507
0.30444369 -0.010965344 0.71100003 4289241507
0.30579227 -0.010963925 0.71100003 4288914078
0.30584472 -0.010916239 0.708 4288782235
0.30718729 -0.010914803 0.708 4288913055
0.30809379 -0.010897937 0.70700002 4288913055
0.30899629 -0.010881064 0.70599997 4288913303
0.30901572 -0.010833363 0.70300001 4288913303
0.31034786 -0.010831885 0.70300001 4288583580
0.31167984 -0.010830397 0.70300001 4288517787
0.31212106 -0.010798085 0.70099998 4288387228
0.31344873 -0.010796573 0.70099998 4288255641
0.31567428 -0.010825847 0.70300001 4288124825
0.31745622 -0.010839701 0.704 4288059032
0.31969449 -0.010868932 0.70599997 4288189846
0.3214854 -0.01088275 0.70700002 4288255895
0.3232798 -0.010896549 0.708 4288255632
0.32553619 -0.010925716 0.70999998 4288189839
0.32687911 -0.010924089 0.70999998 4288189333
0.32822183 -0.010922452 0.70999998 4288057747
0.32956415 -0.010920797 0.70999998 4288123540
0.33090624 -0.010919128 0.70999998 4288189333
0.33271599 -0.010932825 0.71100003 4288320405
0.33405939 -0.010931126 0.71100003 4288714907
0.3354024 -0.010929411 0.71100003 4290031005
0.34195498 -0.011096749 0.722 4292991947
0.34331816 -0.011094979 0.722 4293321973
0.34468099 -0.011093195 0.722 4293979646
0.34604353 -0.011091396 0.722 4293783037
0.2444389 -0.010040281 0.73799998 4290163629
0.24517773 -0.010012139 0.736 4290426545
0.24657896 -0.010011196 0.736 4290293934
0.24798018 -0.010010246 0.736 4290491056
0.24870372 -0.0099820876 0.73400003 4290426032
0.24976031 -0.0099675236 0.73299998 4290360238
0.25047049 -0.0099393567 0.73100001 4290360492
0.25082844 -0.0098975915 0.72799999 4290360492
0.25221428 -0.0098966062 0.72799999 4290360492
0.2515099 -0.0098140566 0.722 4290360492
0.2528843 -0.0098130619 0.722 4290360492
0.25425848 -0.0098120589 0.722 4290360492
0.25492465 -0.0097838696 0.72000003 4290294695
0.25593904 -0.0097692618 0.71899998 4290360488
0.25730744 -0.0097682355 0.71899998 4290097066
0.25867578 -0.0097671989 0.71899998 4290228652
0.2600441 -0.0097661549 0.71899998 4290163629
0.26177594 -0.0097786821 0.72000003 4290097836
0.26314601 -0.0097776167 0.72000003 4290097066
0.26341388 -0.0097358068 0.71700001 4290097066
0.26477808 -0.0097347246 0.71700001 4290162342
0.26502866 -0.0096929092 0.71399999 4289964962
0.26489466 -0.0096375179 0.70999998 4289964447
0.26624531 -0.0096364198 0.70999998 4290096289
0.26872662 -0.0096760243 0.713 4289965733
0.26894644 -0.009634193 0.70999998 4289965733
0.26953548 -0.009605932 0.708 4289702826
0.27088192 -0.0096047958 0.708 4289702826
0.27184385 -0.0095900875 0.70700002 4289703078
0.27318832 -0.0095889363 0.70700002 4289834407
0.27414426 -0.0095742112 0.70599997 4289702308
0.27470621 -0.0095459213 0.704 4289636515
0.27604455 -0.0095447423 0.704 4289701541
0.27738282 -0.0095435539 0.704 4289701541
0.278721 -0.0095423553 0.704 4289636515
0.28005901 -0.0095411465 0.704 4289636515
0.28219631 -0.0095670288 0.70599997 4289505443
0.28353792 -0.0095657958 0.70599997 4289505443
0.28487933 -0.0095645525 0.70599997 4289505443
0.28540984 -0.0095362058 0.704 4289439650
0.28674722 -0.0095349438 0.704 4289504932
0.28767523 -0.0095201293 0.70300001 4289504932
0.28901044 -0.0095188487 0.70300001 4289439650
0.2907584 -0.0095310938 0.704 4289439650
0.29209518 -0.009529788 0.704 4289439902
0.29343176 -0.0095284721 0.704 4289242779
0.29476824 -0.0095271459 0.704 4289241753
0.29694566 -0.0095528672 0.70599997 4289439388
0.29997554 -0.0096056312 0.70999998 4289374627
0.30132282 -0.0096042585 0.70999998 4289243040
0.30266997 -0.0096028745 0.70999998 4289110687
0.30401686 -0.0096014785 0.70999998 4289044894
0.30536363 -0.0096000712 0.70999998 4288979101
0.30671009 -0.0095986519 0.70999998 4288847258
0.30718872 -0.0095701879 0.708 4288846745
0.30853102 -0.0095687481 0.708 4288846745
0.30899775 -0.009540271 0.70599997 4288912790
0.31033581 -0.0095388135 0.70599997 4288781204
0.31079081 -0.0095103253 0.704 4288452241
0.31212464 -0.0095088463 0.704 4288452241
0.31345829 -0.0095073562 0.704 4288386707
0.31479171 -0.0095058549 0.704 4288386707
0.31747201 -0.0095448419 0.70700002 4288255895
0.31881058 -0.0095433071 0.70700002 4288124053
0.32060173 -0.0095552569 0.708 4287992724
0.32194164 -0.0095536951 0.708 4287926931
0.32419458 -0.0095791062 0.70999998 4288057999
0.32599634 -0.0095910039 0.71100003 4288057999
0.32688072 -0.0095759109 0.70999998 4287861138
0.32822347 -0.0095742969 0.70999998 4287861138
0.32956576 -0.0095726661 0.70999998 4288189335
0.33137399 -0.0095845042 0.71100003 4288255128
0.33271766 -0.0095828464 0.71100003 4288254862
0.33500072 -0.0096081262 0.713 4288978585
0.33634758 -0.0096064368 0.713 4290753209
0.34243032 -0.0097394427 0.72299999 4293319392
0.34379542 -0.009737703 0.72299999 4293322995
0.34516019 -0.0097359484 0.72299999 4293389044
0.24477103 -0.0086507574 0.73900002 4289769383
0.2458449 -0.008638096 0.73799998 4289769383
0.24724998 -0.0086371321 0.73799998 4290162609
0.24865499 -0.0086361589 0.73799998 4290294195
0.24938236 -0.0086117778 0.736 4290294447
0.25010207 -0.0085873911 0.73400003 4290294447
0.25115675 -0.0085746991 0.73299998 4290294445
0.25255215 -0.0085736988 0.73299998 4290294445
0.25394747 -0.0085726902 0.73299998 4290228650
0.25360101 -0.0085132038 0.72799999 4290228650
0.25463656 -0.0085004922 0.727 4290294184
0.25531605 -0.0084760832 0.72500002 4290228391
0.25492567 -0.0084166033 0.72000003 4290294432
0.25594005 -0.0084038787 0.71899998 4290491810
0.25730848 -0.0084028384 0.71899998 4290032039
0.25867689 -0.0084017888 0.71899998 4289966246
0.26004514 -0.0084007289 0.71899998 4290162342
0.26177701 -0.0084113441 0.72000003 4290162342
0.26314709 -0.0084102675 0.72000003 4290096549
0.26341492 -0.0083741397 0.71700001 4289964962
0.26477918 -0.0083730482 0.71700001 4289898919
0.26577213 -0.0083602704 0.71600002 4289898919
0.26713431 -0.0083591612 0.71600002 4289767588
0.26849645 -0.0083580436 0.71600002 4289767588
0.26910463 -0.0083335731 0.71399999 4289898917
0.26932636 -0.0082974294 0.71100003 4290030503
0.27029797 -0.0082846228 0.70999998 4289768101
0.27088314 -0.0082601439 0.708 4289636515
0.27222952 -0.0082589909 0.708 4289768353
0.27357584 -0.0082578287 0.708 4289768353
0.27414539 -0.0082333339 0.70599997 4289767840
0.27548778 -0.0082321577 0.70599997 4289635998
0.27604577 -0.0082076546 0.704 4289635748
0.27738404 -0.0082064616 0.704 4289569954
0.2787222 -0.0082052583 0.704 4289439138
0.28006023 -0.0082040466 0.704 4289373345
0.28219754 -0.0082261264 0.70599997 4289439388
0.28353918 -0.0082248915 0.70599997 4289505182
0.28488061 -0.0082236454 0.70599997 4289242273
0.28622195 -0.0082223909 0.70599997 4289110687
0.2867485 -0.0081978366 0.704 4289176480
0.2880857 -0.0081965635 0.704 4289242273
0.28942278 -0.008195281 0.704 4289373343
0.29075974 -0.0081939893 0.704 4289373343
0.29209653 -0.0081926873 0.704 4289439386
0.2934331 -0.0081913741 0.704 4289373593
0.29560697 -0.008213318 0.70599997 4289175964
0.296947 -0.0082119796 0.70599997 4289175964
0.29997694 -0.0082571516 0.70999998 4289044892
0.30132422 -0.0082557853 0.70999998 4288979099
0.30267134 -0.0082544079 0.70999998 4288913303
0.30401826 -0.0082530202 0.70999998 4288847510
0.305365 -0.0082516205 0.70999998 4288846999
0.30671155 -0.0082502114 0.70999998 4288715413
0.30719009 -0.0082255546 0.708 4288715413
0.30853242 -0.008224126 0.708 4288715413
0.30943689 -0.0082110744 0.70700002 4288386707
0.31033731 -0.0081980145 0.70599997 4288255378
0.31079227 -0.0081733391 0.704 4288386448
0.3121261 -0.0081718732 0.704 4288452241
0.31345978 -0.008170398 0.704 4288255632
0.31479314 -0.0081689125 0.704 4288255632
0.31747347 -0.0082022185 0.70700002 4288124305
0.3188121 -0.0082007032 0.70700002 4287861133
0.32060325 -0.0082107726 0.708 4287860884
0.32285267 -0.0082324212 0.70999998 4287860884
0.32465282 -0.0082424581 0.71100003 4287926160
0.32599795 -0.008240886 0.71100003 4287926160
0.32688236 -0.0082277143 0.70999998 4287992205
0.32822505 -0.0082261208 0.70999998 4288386707
0.32956743 -0.0082245162 0.70999998 4288255895
0.33090955 -0.0082228994 0.70999998 4286742400
0.33365524 -0.0082560079 0.713 4284838003
0.33547223 -0.0082659367 0.71399999 4284508782
0.33682099 -0.0082642725 0.71399999 4284247172
0.34243205 -0.0083667478 0.72299999 4285168274
0.24576566 -0.007277037 0.74199998 4290164674
0.24684529 -0.00726625 0.741 4289704123
0.24825603 -0.0072652604 0.741 4289702574
0.24966681 -0.0072642653 0.741 4290031539
0.25039986 -0.0072436561 0.73900002 4290228652
0.25078452 -0.0072132442 0.736 4290294445
0.25218567 -0.0072122305 0.736 4290097836
0.25289774 -0.0071916129 0.73400003 4290097836
0.25394851 -0.0071807881 0.73299998 4290097832
0.25360209 -0.0071307779 0.72799999 4290097832
0.25498781 -0.0071297418 0.72799999 4290162855
0.25602135 -0.0071189059 0.727 4290097062
0.25740513 -0.0071178544 0.727 4290096803
0.25807694 -0.0070972173 0.72500002 4290162596
0.25838313 -0.0070667886 0.722 4290293932
0.2590377 -0.0070461477 0.72000003 4290096553
0.26040792 -0.007045073 0.72000003 4289898917
0.26177809 -0.0070439903 0.72000003 4290030503
0.26314816 -0.0070428983 0.72000003 4289899689
0.2641508 -0.0070320182 0.71899998 4289833896
0.26478028 -0.007011354 0.71700001 4289768101
0.26614442 -0.007010242 0.71700001 4289833894
0.26713544 -0.0069993446 0.71600002 4289767588
0.26849756 -0.0069982158 0.71600002 4289701795
0.26985955 -0.0069970787 0.71600002 4289701791
0.2700851 -0.0069666207 0.713 4289701791
0.27067983 -0.0069459314 0.71100003 4289504930
0.27203208 -0.0069447774 0.71100003 4289439136
0.27299967 -0.0069338456 0.70999998 4289636002
0.273577 -0.0069131455 0.708 4289569952
0.27453497 -0.0069022053 0.70700002 4289569952
0.27587914 -0.0069010206 0.70700002 4289569952
0.27683112 -0.0068900669 0.70599997 4289569954
0.27738521 -0.006869351 0.704 4289504161
0.27872342 -0.006868145 0.704 4289242527
0.28006145 -0.0068669282 0.704 4289176734
0.28219879 -0.0068852087 0.70599997 4289242527
0.28354043 -0.0068839719 0.70599997 4289110941
0.28488183 -0.0068827234 0.70599997 4289240990
0.28622317 -0.0068814675 0.70599997 4289307039
0.28674978 -0.0068607111 0.704 4289438368
0.28808698 -0.0068594394 0.704 4289240990
0.28942409 -0.0068581584 0.704 4289175449
0.29158702 -0.0068763467 0.70599997 4289307035
0.29375744 -0.0068945191 0.708 4289373343
0.29510164 -0.0068932027 0.708 4289241757
0.2964457 -0.006891876 0.708 4288781204
0.2986308 -0.0069100047 0.70999998 4288912790
0.29997826 -0.0069086538 0.70999998 4288978847
0.30174997 -0.0069170217 0.71100003 4288978847
0.30309904 -0.0069156503 0.71100003 4288650903
0.30401963 -0.0069045424 0.70999998 4288453525
0.3053664 -0.006903152 0.70999998 4288452243
0.30671296 -0.0069017522 0.70999998 4288518036
0.3080593 -0.0069003426 0.70999998 4288583830
0.30940542 -0.006898921 0.70999998 4288452243
0.30943835 -0.0068683466 0.70700002 4288057999
0.31077832 -0.0068669105 0.70700002 4288123792
0.31211808 -0.0068654646 0.70700002 4288320401
0.31877804 -0.0069805132 0.71899998 4288057485
0.3205854 -0.0069887284 0.72000003 4287992205
0.32194912 -0.0069872243 0.72000003 4288123792
0.32016927 -0.0069177928 0.713 4287861387
0.32061735 -0.0068968814 0.71100003 4287861387
0.32196331 -0.0068953647 0.71100003 4287861138
0.32330894 -0.0068938364 0.71100003 4287861138
0.32465437 -0.006892297 0.71100003 4287926410
0.3259995 -0.0068907477 0.71100003 4288057997
0.32688391 -0.0068794969 0.70999998 4288123792
0.32822666 -0.0068779285 0.70999998 4288123792
0.32956904 -0.0068763467 0.70999998 4287532175
0.33091116 -0.006874756 0.70999998 4285097578
0.24576662 -0.0058681802 0.74199998 4292664299
0.24717936 -0.0058671786 0.74199998 4291019731
0.24825704 -0.0058582621 0.741 4289638076
0.24966782 -0.0058572469 0.741 4289243318
0.25040087 -0.0058404161 0.73900002 4289637285
0.25146702 -0.0058314856 0.73799998 4290031787
0.25218672 -0.0058146492 0.736 4290162859
0.25289872 -0.0057978104 0.73400003 4290097066
0.25394958 -0.0057888678 0.73299998 4290162855
0.25464815 -0.0057720235 0.73100001 4290162855
0.25498885 -0.0057472829 0.72799999 4290162346
0.25602242 -0.0057383291 0.727 4290096553
0.2566981 -0.0057214797 0.72500002 4289965483
0.25736606 -0.0057046269 0.72299999 4289965483
0.25874209 -0.0057035494 0.72299999 4289900201
0.25975835 -0.0056945784 0.722 4289834407
0.26113239 -0.0056934878 0.722 4290030505
0.26250634 -0.005692387 0.722 4290030505
0.26314929 -0.0056755142 0.72000003 4289964712
0.2641519 -0.0056665209 0.71899998 4289898919
0.26551998 -0.0056654015 0.71899998 4289637285
0.26614556 -0.0056485184 0.71700001 4289571492
0.2675097 -0.0056473869 0.71700001 4289767840
0.26887369 -0.0056462456 0.71700001 4289701791
0.26986071 -0.0056372238 0.71600002 4289635998
0.27046502 -0.005620325 0.71399999 4289701791
0.27144238 -0.0056112944 0.713 4289569952
0.27203324 -0.0055943914 0.71100003 4289504159
0.27300087 -0.0055853524 0.70999998 4289569954
0.27435106 -0.0055841734 0.70999998 4289504161
0.27492443 -0.0055672592 0.708 4289438368
0.27588034 -0.0055582048 0.70700002 4289438368
0.27683234 -0.0055491468 0.70599997 4289438368
0.27817446 -0.0055479407 0.70599997 4289307039
0.27951643 -0.0055467263 0.70599997 4289110941
0.28085828 -0.005545503 0.70599997 4289110941
0.28220004 -0.0055442718 0.70599997 4289241505
0.28394327 -0.0055508837 0.70700002 4289241505
0.28569016 -0.0055574826 0.708 4289175710
0.28825155 -0.0055797654 0.71100003 4289175710
0.28919491 -0.0055706436 0.70999998 4289175710
0.29054359 -0.0055693621 0.70999998 4289175710
0.2923032 -0.0055759135 0.71100003 4288912540
0.29365346 -0.0055746124 0.71100003 4288912540
0.29500353 -0.0055733011 0.71100003 4288912792
0.29635346 -0.0055719824 0.71100003 4288912792
0.29728442 -0.0055628172 0.70999998 4288781206
0.29863214 -0.0055614822 0.70999998 4288781206
0.29997966 -0.0055601373 0.70999998 4288584091
0.30175138 -0.0055666119 0.71100003 4288518298
0.30310044 -0.0055652475 0.71100003 4288452756
0.30402103 -0.005556047 0.70999998 4288189585
0.3053678 -0.0055546653 0.70999998 4288320405
0.30671436 -0.0055532744 0.70999998 4288320405
0.30849466 -0.0055596936 0.71100003 4288254356
0.30984262 -0.0055582821 0.71100003 4288123027
0.31119043 -0.0055568605 0.71100003 4288057747
0.31473598 -0.0055944985 0.71600002 4287991954
0.31653428 -0.0056008589 0.71700001 4287794577
0.31877953 -0.0056150155 0.71899998 4287925906
0.32014158 -0.0056135384 0.71899998 4287926160
0.32195058 -0.0056198589 0.72000003 4287926160
0.32151788 -0.0055871485 0.71600002 4287795081
0.32197168 -0.0055700471 0.71399999 4287795081
0.32332325 -0.0055685407 0.71399999 4287794831
0.32467467 -0.0055670263 0.71399999 4287597196
0.32602575 -0.0055655022 0.71399999 4287334780
0.32737657 -0.0055639679 0.71399999 4287729538
0.32872707 -0.0055624223 0.71399999 4287664778
0.24784662 -0.0044703009 0.74400002 4292269280
0.24859311 -0.004457254 0.74199998 4290757073
0.25000578 -0.0044562165 0.74199998 4289638591
0.25107959 -0.0044491678 0.741 4289703087
0.25180882 -0.0044361106 0.73900002 4289834930
0.25287306 -0.0044290535 0.73799998 4289900453
0.25358889 -0.0044159926 0.736 4289966246
0.25429708 -0.0044029295 0.73400003 4289965994
0.25534594 -0.0043958612 0.73299998 4289965994
0.25569049 -0.0043767979 0.73000002 4289899687
0.25602353 -0.0043577356 0.727 4289899687
0.25669917 -0.0043446673 0.72500002 4289899435
0.2573671 -0.0043315976 0.72299999 4289767849
0.2587432 -0.0043305056 0.72299999 4289833896
0.25975946 -0.0043234187 0.722 4289833896
0.26113346 -0.0043223128 0.722 4289964712
0.26250744 -0.0043211998 0.722 4289898919
0.26315039 -0.0043081124 0.72000003 4289702054
0.26341826 -0.0042890417 0.71700001 4289702054
0.26478252 -0.0042879139 0.71700001 4289702054
0.26614669 -0.0042867777 0.71700001 4289702054
0.26751077 -0.0042856345 0.71700001 4289636511
0.26887485 -0.0042844843 0.71700001 4289439388
0.26986191 -0.0042773518 0.71600002 4289373856
0.27046621 -0.0042642411 0.71399999 4289242527
0.27182427 -0.0042630727 0.71399999 4289176734
0.27318224 -0.004261896 0.71399999 4289176734
0.27415559 -0.0042547435 0.713 4289373343
0.27473864 -0.0042416216 0.71100003 4289307550
0.27492559 -0.0042225332 0.708 4289307039
0.27588159 -0.0042153727 0.70700002 4289240990
0.2772257 -0.0042141685 0.70700002 4289175710
0.2785697 -0.0042129559 0.70700002 4289175710
0.27991357 -0.0042117364 0.70700002 4289044892
0.28125736 -0.0042105075 0.70700002 4289044892
0.28260103 -0.0042092721 0.70700002 4289175964
0.28514937 -0.0042258832 0.70999998 4289044379
0.28649843 -0.0042246259 0.70999998 4288978587
0.28825283 -0.0042293095 0.71100003 4288912794
0.28919619 -0.0042220871 0.70999998 4288978585
0.29054484 -0.0042208051 0.70999998 4288846999
0.29230452 -0.0042254589 0.71100003 4288977302
0.29365474 -0.0042241588 0.71100003 4288977302
0.29583466 -0.0042347289 0.713 4288977050
0.29635477 -0.0042215344 0.71100003 4288977050
0.29770452 -0.0042202096 0.71100003 4288846999
0.29905409 -0.0042188764 0.71100003 4288781206
0.30040351 -0.0042175348 0.71100003 4288452756
0.30175275 -0.0042161853 0.71100003 4288452756
0.30310178 -0.0042148265 0.71100003 4288452756
0.30445063 -0.0042134598 0.71100003 4288123792
0.30579928 -0.0042120852 0.71100003 4288254608
0.30714777 -0.0042107012 0.71100003 4288057485
0.30979764 -0.0042270687 0.71399999 4288057234
0.31202295 -0.0042374986 0.71600002 4288057234
0.31338027 -0.0042360793 0.71600002 4287926160
0.31517696 -0.0042405655 0.71700001 4287926160
0.31653574 -0.0042391261 0.71700001 4287926160
0.31878099 -0.0042494992 0.71899998 4287926160
0.32014307 -0.0042480384 0.71899998 4287795090
0.32195207 -0.0042524748 0.72000003 4287860884
0.32286653 -0.0042450898 0.71899998 4287794831
0.32332605 -0.0042317985 0.71700001 4287728782
0.32423043 -0.0042244056 0.71600002 4287531403
0.32558563 -0.0042229071 0.71600002 4287334280
0.32739714 -0.0042272941 0.71700001 4287203201
0.32875368 -0.0042257747 0.71700001 4288256145
0.24784771 -0.0030575918 0.74400002 4293980150
0.24926423 -0.0030565388 0.74400002 4293717232
0.25068069 -0.0030554784 0.74400002 4292598495
0.25141951 -0.0030462001 0.74199998 4291545807
0.25249133 -0.0030410243 0.741 4289835189
0.25390208 -0.0030399482 0.741 4289308834
0.25462362 -0.0030306617 0.73900002 4289505956
0.25499105 -0.0030172747 0.736 4289637031
0.25569537 -0.003007987 0.73400003 4289834409
0.25604182 -0.0029946025 0.73100001 4290030505
0.25637674 -0.0029812194 0.72799999 4290030505
0.25740838 -0.0029760259 0.727 4289899439
0.25808015 -0.0029667355 0.72500002 4289833390
0.25946006 -0.0029656261 0.72500002 4289702056
0.2601203 -0.002956331 0.72299999 4289767849
0.26149628 -0.0029552097 0.72299999 4289898917
0.26287213 -0.0029540812 0.72299999 4289898917
0.26388252 -0.0029488625 0.722 4289898917
0.26341936 -0.0029273077 0.71700001 4289701795
0.26478368 -0.002926168 0.71700001 4289635748
0.26614785 -0.0029250206 0.71700001 4289635748
0.26751196 -0.0029238658 0.71700001 4289439388
0.26887602 -0.0029227047 0.71700001 4289307802
0.27023995 -0.0029215356 0.71700001 4289176734
0.27122501 -0.0029162872 0.71600002 4289176734
0.27258688 -0.0029151058 0.71600002 4289307550
0.27318341 -0.0029057777 0.71399999 4289307550
0.27454126 -0.0029045846 0.71399999 4289307802
0.27551264 -0.0028993185 0.713 4289241753
0.27609181 -0.0028899841 0.71100003 4289044129
0.27627295 -0.0028765856 0.708 4288978335
0.27761897 -0.0028753742 0.708 4289044381
0.27896497 -0.0028741553 0.708 4289044381
0.28110257 -0.0028810448 0.70999998 4288913307
0.28165641 -0.0028716959 0.708 4288913307
0.28300199 -0.0028704549 0.708 4288978585
0.28916684 -0.0029178378 0.72000003 4288912792
0.29053494 -0.0029165612 0.72000003 4288846745
0.29068661 -0.0029031292 0.71700001 4288846745
0.29082674 -0.0028897012 0.71399999 4288715159
0.29177386 -0.0028843675 0.713 4288780952
0.29312801 -0.0028830729 0.713 4288911511
0.29489508 -0.0028858131 0.71399999 4288911511
0.29625091 -0.0028845018 0.71399999 4288583830
0.29635608 -0.0028710687 0.71100003 4288518036
0.29770583 -0.0028697478 0.71100003 4288584082
0.29905543 -0.0028684188 0.71100003 4288584082
0.30040485 -0.0028670831 0.71100003 4288452491
0.30175406 -0.0028657389 0.71100003 4288386698
0.30310315 -0.0028643881 0.71100003 4288189839
0.30445197 -0.0028630283 0.71100003 4287992203
0.30580068 -0.0028616616 0.71100003 4287728784
0.30714911 -0.002860287 0.71100003 4287728784
0.30979905 -0.0028709674 0.71399999 4287925393
0.31202438 -0.0028776096 0.71600002 4287991442
0.3133817 -0.0028762014 0.71600002 4287794831
0.31517842 -0.0028788012 0.71700001 4287728782
0.31653714 -0.0028773751 0.71700001 4287663504
0.31789571 -0.002875942 0.71700001 4287663504
0.31925401 -0.0028745001 0.71700001 4287728786
0.32061207 -0.0028730507 0.71700001 4287596944
0.3219699 -0.0028715935 0.71700001 4287202699
0.32332751 -0.002870128 0.71700001 4286610819
0.32468477 -0.002868654 0.71700001 4286544524
0.32604185 -0.0028671722 0.71700001 4288847279
0.32739866 -0.0028656824 0.71700001 4290953643
0.32875517 -0.0028641846 0.71700001 4292927433
0.24926528 -0.0016437912 0.74400002 4293913851
0.25068173 -0.001642711 0.74400002 4293124591
0.25209823 -0.0016416243 0.74400002 4292072930
0.25283319 -0.0016361205 0.74199998 4290757326
0.25390315 -0.0016328197 0.741 4289638326
0.25462469 -0.0016273133 0.73900002 4289177775
0.25603157 -0.0016262071 0.73900002 4289636263
0.2570937 -0.0016129867 0.73400003 4290030503
0.25813869 -0.0016096716 0.73299998 4290030503
0.25776356 -0.0015975754 0.72799999 4289899437
0.25879323 -0.0015942596 0.727 4289899437
0.26017693 -0.0015931317 0.727 4289898919
0.26084098 -0.0015876173 0.72500002 4289701541
0.2622208 -0.001586479 0.72500002 4289832613
0.2636005 -0.0015853341 0.72500002 4289898406
0.26388365 -0.0015776274 0.722 4289701541
0.2641553 -0.0015699234 0.71899998 4289701541
0.2655234 -0.0015687682 0.71899998 4289635748
0.26689139 -0.0015676061 0.71899998 4289635748
0.26825932 -0.0015664375 0.71899998 4289373856
0.26962718 -0.0015652622 0.71899998 4289242527
0.27099493 -0.0015640801 0.71899998 4289307550
0.27160501 -0.0015585442 0.71700001 4289241757
0.27296874 -0.001557352 0.71700001 4289110941
0.27394983 -0.0015539831 0.71600002 4289110941
0.27531147 -0.0015527791 0.71600002 4289241757
0.27590021 -0.0015472346 0.71399999 4289175964
0.27725792 -0.0015460209 0.71399999 4288978587
0.27861547 -0.0015448002 0.71399999 4288978587
0.27997291 -0.0015435732 0.71399999 4288978587
0.28251234 -0.0015488196 0.71700001 4288978587
0.28387526 -0.0015475736 0.71700001 4288847512
0.28523803 -0.0015463207 0.71700001 4288716183
0.28740013 -0.0015493711 0.71899998 4288846997
0.28876644 -0.0015481007 0.71899998 4288781204
0.29013264 -0.0015468241 0.71899998 4288715413
0.29068789 -0.0015412415 0.71700001 4288715413
0.29164267 -0.0015378069 0.71600002 4288715413
0.29218429 -0.0015322231 0.71399999 4288583828
0.29354045 -0.0015309281 0.71399999 4288583830
0.29572245 -0.0015339107 0.71600002 4288518036
0.29708204 -0.0015325982 0.71600002 4288452241
0.29635739 -0.0015205854 0.71100003 4288386448
0.29770717 -0.0015192681 0.71100003 4288386961
0.29905677 -0.0015179445 0.71100003 4288255632
0.30040619 -0.0015166135 0.71100003 4288058247
0.30175537 -0.0015152759 0.71100003 4288124296
0.30310446 -0.0015139311 0.71100003 4288057997
0.30445334 -0.0015125796 0.71100003 4287926410
0.30666223 -0.0015154721 0.713 4287925899
0.30801451 -0.0015141028 0.713 4287925899
0.31066826 -0.0015190915 0.71600002 4287925647
0.31246158 -0.0015198222 0.71700001 4287925647
0.31382084 -0.0015184239 0.71700001 4287663754
0.3151798 -0.0015170188 0.71700001 4287532425
0.31653857 -0.0015156065 0.71700001 4287663502
0.31789711 -0.0015141873 0.71700001 4287532173
0.31925547 -0.001512761 0.71700001 4287268737
0.32061353 -0.0015113273 0.71700001 4287268737
0.32197139 -0.0015098869 0.71700001 4286939782
0.32332894 -0.001508439 0.71700001 4287071624
0.25135675 -0.00023054355 0.74599999 4292992999
0.25277704 -0.00022943412 0.74599999 4292466407
0.25419727 -0.0002283183 0.74599999 4292663786
0.25561753 -0.0002271962 0.74599999 4292334553
0.26125172 -0.00021331488 0.73000002 4289767334
0.26264101 -0.00021216075 0.73000002 4289767334
0.26403034 -0.00021100043 0.73000002 4289767334
0.26469234 -0.00020925896 0.72799999 4289635748
0.26607773 -0.00020808936 0.72799999 4289438884
0.26709563 -0.00020662937 0.727 4289438884
0.26847893 -0.00020544893 0.727 4289569954
0.26986215 -0.00020426232 0.727 4289569954
0.27049908 -0.00020251075 0.72500002 4289373343
0.27112839 -0.00020075962 0.72299999 4289373343
0.27212685 -0.00019928494 0.722 4289176734
0.27350026 -0.00019808175 0.722 4289110941
0.27373135 -0.00019605433 0.71899998 4289175710
0.27395105 -0.00019403081 0.71600002 4289175710
0.27531275 -0.00019281924 0.71600002 4289175964
0.2759015 -0.00019106622 0.71399999 4289044379
0.27725914 -0.00018984576 0.71399999 4288846745
0.27861673 -0.00018861912 0.71399999 4288846745
0.27997413 -0.00018738637 0.71399999 4288846999
0.28251359 -0.00018692962 0.71700001 4288912792
0.28387648 -0.00018567937 0.71700001 4288716183
0.28523931 -0.00018442298 0.71700001 4288650390
0.28740138 -0.00018367128 0.71899998 4288584341
0.28876776 -0.00018239899 0.71899998 4288584341
0.29013395 -0.00018112053 0.71899998 4288584595
0.2906892 -0.00017933566 0.71700001 4288518802
0.29164398 -0.00017780004 0.71600002 4288255382
0.29300407 -0.00017650839 0.71600002 4288189333
0.29436401 -0.00017521057 0.71600002 4288386707
0.29572374 -0.00017390655 0.71600002 4288386707
0.29749829 -0.00017283746 0.71700001 4288255632
0.29844275 -0.00017128006 0.71600002 4288189839
0.29770851 -0.00016877074 0.71100003 4288123790
0.29905808 -0.0001674513 0.71100003 4288057997
0.3004075 -0.00016612574 0.71100003 4287992703
0.30175671 -0.00016479402 0.71100003 4288058753
0.30395842 -0.00016391597 0.713 4287992201
0.30531108 -0.00016256821 0.713 4287795079
0.3066636 -0.00016121424 0.713 4287729288
0.30844781 -0.00016007831 0.71399999 4287729288
0.31110352 -0.00015937698 0.71700001 4287729034
0.31246299 -0.00015799682 0.71700001 4287597448
0.31382218 -0.00015661042 0.71700001 4287465857
0.3151812 -0.00015521786 0.71700001 4287202942
0.31654 -0.00015381907 0.71700001 4287005829
0.31789851 -0.00015241402 0.71700001 4287005829
0.31925687 -0.00015100278 0.71700001 4286808699
0.32061496 -0.00014958532 0.71700001 4288453525
0.32197279 -0.00014816158 0.71700001 4290361253
0.26125285 0.0011730943 0.73000002 4289767851
0.26264223 0.0011742632 0.73000002 4289767851
0.2640315 0.0011754376 0.73000002 4289767847
0.26542076 0.001176618 0.73000002 4289702054
0.26680991 0.0011778041 0.73000002 4289373091
0.26746419 0.0011757658 0.72799999 4289438884
0.26884943 0.0011769601 0.72799999 4289373858
0.27023453 0.0011781601 0.72799999 4289242273
0.27124652 0.001177746 0.727 4289307296
0.27187961 0.0011757123 0.72500002 4289373345
0.27250496 0.0011736779 0.72299999 4289241503
0.27350146 0.0011732673 0.722 4289241503
0.2741133 0.0011712322 0.72000003 4289175710
0.27510008 0.0011708244 0.71899998 4289044381
0.27531391 0.0011671587 0.71600002 4288979101
0.27590266 0.00116512 0.71399999 4288979101
0.27726036 0.0011663472 0.71399999 4288846999
0.27939838 0.0011708504 0.71600002 4288781206
0.28075966 0.0011720922 0.71600002 4288846997
0.28251484 0.0011749783 0.71700001 4288846997
0.28387776 0.0011762328 0.71700001 4288650390
0.28603619 0.0011807773 0.71899998 4288584341
0.28740266 0.0011820465 0.71899998 4288518034
0.28917065 0.0011849669 0.72000003 4288583828
0.2901352 0.0011846013 0.71899998 4288452754
0.29069045 0.0011825884 0.71700001 4288386961
0.29205254 0.0011838761 0.71700001 4288255378
0.29341456 0.0011851692 0.71700001 4288255378
0.29477641 0.0011864679 0.71700001 4288255378
0.29613808 0.001187772 0.71700001 4288189585
0.2974996 0.0011890816 0.71700001 4288124303
0.29886091 0.0011903967 0.71700001 4288124303
0.3002221 0.0011917172 0.71700001 4287927181
0.29905942 0.0011830596 0.71100003 4287861387
0.30040884 0.0011843799 0.71100003 4287992201
0.30260688 0.0011890408 0.713 4287992201
0.30395979 0.0011903757 0.713 4287795081
0.30967566 0.0012047744 0.72000003 4287795081
0.30974522 0.001201113 0.71700001 4287729288
0.31110489 0.001202477 0.71700001 4287663239
0.31246436 0.0012038463 0.71700001 4287465859
0.31382361 0.0012052211 0.71700001 4287005558
0.31518257 0.001206601 0.71700001 4287137145
0.31654137 0.0012079864 0.71700001 4286940545
0.31789991 0.0012093772 0.71700001 4287203973
0.3192583 0.0012107734 0.71700001 4287664272
0.2598646 0.0025583438 0.73000002 4289701554
0.26125404 0.0025595219 0.73000002 4289767084
0.2626434 0.0025607056 0.73000002 4289898413
0.26403266 0.002561894 0.73000002 4289767847
0.26542193 0.0025630884 0.73000002 4289833896
0.2668111 0.0025642875 0.73000002 4289702054
0.26820016 0.0025654924 0.73000002 4289504932
0.26958922 0.0025667022 0.73000002 4289438886
0.27124774 0.0025585794 0.727 4289242273
0.27188084 0.0025527582 0.72500002 4289176480
0.27326003 0.0025539806 0.72500002 4289110687
0.27350268 0.0025446345 0.722 4289044894
0.27411452 0.0025388096 0.72000003 4288913053
0.27548394 0.0025400389 0.72000003 4288913053
0.27646872 0.0025377432 0.71899998 4288716442
0.27667677 0.0025283871 0.71600002 4288716442
0.27803826 0.0025296242 0.71600002 4288846999
0.27939963 0.0025308665 0.71600002 4288781206
0.28076088 0.0025321138 0.71600002 4288715411
0.28251609 0.0025369043 0.71700001 4288846997
0.28387904 0.0025381627 0.71700001 4288584343
0.28524181 0.0025394266 0.71700001 4288386707
0.28740397 0.0025477826 0.71899998 4288255378
0.28917193 0.002552605 0.72000003 4288386707
0.29054007 0.0025538888 0.72000003 4288255632
0.29150259 0.002551628 0.71899998 4288189839
0.29205388 0.0025458185 0.71700001 4288123792
0.2934159 0.0025471118 0.71700001 4288189585
0.29477772 0.0025484092 0.71700001 4287927183
0.29613936 0.0025497116 0.71700001 4287861133
0.29750091 0.0025510187 0.71700001 4287861133
0.29969588 0.0025594502 0.71899998 4287861133
0.30106086 0.0025607704 0.71899998 4287795340
0.30242565 0.0025620952 0.71899998 4287795340
0.30515468 0.0025647597 0.71899998 4287663502
0.30694532 0.0025696682 0.72000003 4287466632
0.30831128 0.0025710138 0.72000003 4287334789
0.30967703 0.0025723639 0.72000003 4287071874
0.31104261 0.002573719 0.72000003 4286808445
0.31197402 0.0025715018 0.71899998 4286807680
0.31333727 0.0025728638 0.71899998 4287334280
0.31382495 0.0025670703 0.71700001 4287991954
0.31518397 0.002568438 0.71700001 4289702828
0.31654277 0.0025698098 0.71700001 4291546797
0.28630713 0.0043243496 0.80000001 4289636013
0.2878297 0.0043256627 0.80000001 4289701806
0.26403388 0.00394837 0.73000002 4289636779
0.26542309 0.0039495775 0.73000002 4289636779
0.26681232 0.00395079 0.73000002 4289571238
0.26820144 0.0039520077 0.73000002 4289439652
0.26959047 0.0039532301 0.73000002 4289373858
0.27097934 0.0039544567 0.73000002 4289242273
0.27050275 0.0039285948 0.72500002 4289242277
0.27188209 0.0039298232 0.72500002 4289242277
0.27326122 0.0039310548 0.72500002 4289110687
0.27350387 0.00391602 0.722 4289110687
0.27487719 0.0039172568 0.722 4288848285
0.27548516 0.0039076433 0.72000003 4288848285
0.27646995 0.0039034563 0.71899998 4288716442
0.27783728 0.0039047007 0.71899998 4288584856
0.27920443 0.0039059496 0.71899998 4288715929
0.28057152 0.0039072032 0.71899998 4288584343
0.28193855 0.0039084619 0.71899998 4288715413
0.28330541 0.0039097238 0.71899998 4288583828
0.28388026 0.0039001114 0.71700001 4288517784
0.28524309 0.0039013787 0.71700001 4288517784
0.28780493 0.0039189793 0.72000003 4288255378
0.28997648 0.0039311503 0.722 4288255378
0.29054135 0.0039215465 0.72000003 4288255632
0.29150388 0.0039173877 0.71899998 4288189839
0.29205516 0.0039077792 0.71700001 4288123792
0.29341716 0.0039090719 0.71700001 4288123792
0.29477903 0.0039103683 0.71700001 4287861387
0.29614067 0.0039116689 0.71700001 4287795594
0.29750222 0.0039129741 0.71700001 4287861385
0.29969722 0.0039252015 0.71899998 4287861385
0.3010622 0.0039265179 0.71899998 4287532425
0.30242696 0.0039278381 0.71899998 4287532425
0.30843934 0.0039892755 0.73000002 4287466632
0.30831262 0.0039386298 0.72000003 4287268985
0.30967838 0.0039399713 0.72000003 4287005829
0.31104395 0.0039413171 0.72000003 4287005829
0.31240931 0.0039426666 0.72000003 4287334528
0.31333861 0.0039385413 0.71899998 4288650388
0.31470168 0.0039398968 0.71899998 4289505454
0.31606451 0.0039412556 0.71899998 4290229434
0.3174271 0.0039426177 0.71899998 4292267734
0.28783104 0.0058450927 0.80000001 4289373357
0.28935358 0.0058464268 0.80000001 4289504428
0.290876 0.0058477651 0.80000001 4289636013
0.29239839 0.005849109 0.80000001 4289569702
0.29392067 0.0058504567 0.80000001 4289569702
0.29544294 0.0058518099 0.80000001 4289569954
0.30533588 0.0058746715 0.80199999 4289175710
0.30954006 0.0058994368 0.80500001 4288715933
0.31107095 0.0059008393 0.80500001 4288649884
0.31260169 0.0059022456 0.80500001 4288715929
0.31370214 0.0058683925 0.80000001 4288583578
0.31601107 0.0058844774 0.80199999 4288517784
0.28586116 0.0052987728 0.722 4288517787
0.2872335 0.0053000525 0.722 4288517787
0.28860569 0.0053013368 0.722 4288451991
0.29037938 0.0053099673 0.72299999 4288320405
0.29134968 0.0053039137 0.722 4287991690
0.29191062 0.0052905129 0.72000003 4287925897
0.29287109 0.005284457 0.71899998 4287729034
0.29423696 0.0052857529 0.71899998 4287597448
0.29560256 0.0052870517 0.71899998 4287531652
0.29614201 0.0052736448 0.71700001 4287465859
0.29750353 0.0052749468 0.71700001 4287268735
0.30553412 0.0053939936 0.73299998 4287268735
0.30566949 0.0053732498 0.73000002 4287005829
0.30705518 0.0053745857 0.73000002 4287071622
0.30844072 0.0053759245 0.73000002 4287334028
0.31053993 0.0053223399 0.722 4291545782
0.31190929 0.0053236801 0.722 4291940540
0.31241068 0.0053102728 0.72000003 4292598232
0.31333995 0.0053042364 0.71899998 4293585127
0.31470302 0.0053055799 0.71899998 4293716980
0.31606585 0.0053069266 0.71899998 4293651187
0.2885519 0.0073829554 0.80199999 4289702838
0.28935489 0.0073658936 0.80000001 4289372841
0.29087734 0.0073672472 0.80000001 4289438634
0.29239973 0.0073686051 0.80000001 4289437605
0.29392204 0.0073699667 0.80000001 4289437605
0.30954146 0.0074285441 0.80500001 4288847512
0.31107232 0.0074299551 0.80500001 4288847512
0.31260309 0.0074313693 0.80500001 4288846745
0.3141337 0.0074327854 0.80500001 4288912794
0.31370351 0.0073880306 0.80000001 4288780952
0.31601244 0.007407919 0.80199999 4288518036
0.31753695 0.0074093421 0.80199999 4288714909
0.31906131 0.007410767 0.80199999 4288583580
0.28900671 0.0066820681 0.72299999 4288517784
0.29038069 0.0066833589 0.72299999 4288320405
0.29175448 0.0066846521 0.72299999 4287925895
0.29272276 0.0066767028 0.722 4287860102
0.29327974 0.0066595022 0.72000003 4287859854
0.29464743 0.0066607995 0.72000003 4287596683
0.29601499 0.0066620996 0.72000003 4287531137
0.29944751 0.0067096758 0.72500002 4287399551
0.30206904 0.00673876 0.72799999 4287202942
0.30345127 0.0067400816 0.72799999 4287334528
0.30483335 0.0067414073 0.72799999 4287531151
0.30621526 0.0067427345 0.72799999 4288057495
0.30759695 0.0067440649 0.72799999 4289108904
0.28738478 0.0089159664 0.80299997 4290097343
0.28855327 0.0089062266 0.80199999 4290097343
0.28935623 0.0088853827 0.80000001 4289898934
0.29087868 0.0088867499 0.80000001 4289635761
0.29240111 0.0088881236 0.80000001 4289437614
0.29392341 0.0088894991 0.80000001 4289306285
0.29470709 0.0088686505 0.79799998 4289372060
0.29548296 0.008847801 0.796 4288845716
0.29699746 0.0088491803 0.796 4288976537
0.30533865 0.0089214751 0.80199999 4288846749
0.30686402 0.0089228814 0.80199999 4288912542
0.30954289 0.0089576738 0.80500001 4288846997
0.31107378 0.0089590922 0.80500001 4288846997
0.31260452 0.0089605125 0.80500001 4288846745
0.31413513 0.0089619365 0.80500001 4288780952
0.31370494 0.0089076906 0.80000001 4288714907
0.31522587 0.0089091128 0.80000001 4288583578
0.31674656 0.0089105349 0.80000001 4288714907
0.31826714 0.0089119608 0.80000001 4288780956
0.28980747 0.0080777593 0.72500002 4288714911
0.29118526 0.0080790566 0.72500002 4288714911
0.2925629 0.0080803558 0.72500002 4288781706
0.29515669 0.0081150988 0.72799999 4289439892
0.29653972 0.0081164073 0.72799999 4290228652
0.29792261 0.0081177177 0.72799999 4290162859
0.29889423 0.0081078792 0.727 4290360238
0.30027491 0.0081091933 0.727 4291017912
0.30207035 0.0081216646 0.72799999 4292070843
0.30345258 0.0081229834 0.72799999 4292334014
0.30483469 0.0081243049 0.72799999 4292663775
0.30621657 0.0081256274 0.72799999 4293321704
0.28738612 0.010441142 0.80299997 4290163904
0.28855464 0.01042952 0.80199999 4290032319
0.2893576 0.010404892 0.80000001 4290097082
0.29088011 0.010406277 0.80000001 4289833654
0.29240251 0.010407663 0.80000001 4289569455
0.29319 0.010383029 0.79799998 4289503405
0.2947084 0.010384419 0.79799998 4289700257
0.29548433 0.010359781 0.796 4289239706
0.29699883 0.010361174 0.796 4289173150
0.2985132 0.010362568 0.796 4289238943
0.30153516 0.010416045 0.80000001 4289043360
0.30381456 0.010443496 0.80199999 4288977567
0.30534008 0.01044491 0.80199999 4288977052
0.30686545 0.010446324 0.80199999 4288977052
0.30877522 0.010460768 0.80299997 4288780952
0.31030235 0.010462193 0.80299997 4288715159
0.31182924 0.010463617 0.80299997 4288714909
0.31413653 0.010491109 0.80500001 4288780702
0.31370637 0.01042737 0.80000001 4288386198
0.31522724 0.010428797 0.80000001 4288517784
0.31674796 0.010430224 0.80000001 4288649886
0.3182686 0.010431655 0.80000001 4288649886
0.31978902 0.010433086 0.80000001 4288583839
0.29377475 0.0094967186 0.72799999 4288650401
0.29515794 0.0094980262 0.72799999 4290426556
0.29735571 0.0095254341 0.73000002 4290492874
0.29792392 0.0095006479 0.72799999 4290689996
0.29930669 0.0095019601 0.72799999 4291280838
0.30068922 0.0095032724 0.72799999 4292333527
0.30331644 0.0095437551 0.73100001 4292795104
0.3047044 0.0095450748 0.73100001 4293453291
