# .PCD v0.7 - Point Cloud Data file format
VERSION 0.7
FIELDS x y z rgba
SIZE 4 4 4 4
TYPE F F F U
COUNT 1 1 1 1
WIDTH 1054
HEIGHT 1
VIEWPOINT 0 0 0 1 0 0 0
POINTS 1054
DATA ascii
-0.098880179 0.043709822 0.74900001 4294967295
-0.097197652 0.043591939 0.74699998 4294967295
-0.095779195 0.043590777 0.74699998 4294967295
-0.05153795 0.033305038 0.57099998 4292529872
-0.050366305 0.03324607 0.56999999 4292529872
-0.049198497 0.033187114 0.56900001 4292399054
-0.04811909 0.033186492 0.56900001 4292399054
-0.046957046 0.033127565 0.56800002 4292464849
-0.045798831 0.033068646 0.56699997 4292333262
-0.044644453 0.033009745 0.56599998 4292399051
-0.0434939 0.03295086 0.565 4292399051
-0.042422257 0.032950308 0.565 4292268235
-0.041350655 0.032949764 0.565 4292005063
-0.040279083 0.032949232 0.565 4291543997
-0.039138146 0.032890402 0.56400001 4292070341
-0.038068537 0.032889895 0.56400001 4292332745
-0.036867756 0.032772779 0.56199998 4292266952
-0.035801999 0.032772295 0.56199998 4292200644
-0.034736272 0.032771833 0.56199998 4292200644
-0.033670574 0.032771379 0.56199998 4292397255
-0.0325469 0.032712635 0.56099999 4292463304
-0.031483155 0.032712206 0.56099999 4292397768
-0.030419437 0.032711793 0.56099999 4292463817
-0.029355746 0.032711387 0.56099999 4292266952
-0.028241651 0.032652691 0.56 4292201159
-0.02717991 0.032652315 0.56 4292070341
-0.026118191 0.032651957 0.56 4292070341
-0.025056494 0.032651603 0.56 4292332999
-0.02399482 0.032651268 0.56 4292267206
-0.017499315 0.032416303 0.55599999 4292266693
-0.016445359 0.032416053 0.55599999 4292069568
-0.015363738 0.032357521 0.55500001 4292069568
-0.014311711 0.032357302 0.55500001 4291872959
-0.013259699 0.032357093 0.55500001 4291807166
-0.012229694 0.0324152 0.55599999 4291807168
-0.011175812 0.032415014 0.55599999 4291807168
-0.010121942 0.032414846 0.55599999 4291937471
-0.0090680858 0.032414693 0.55599999 4291740093
-0.0080286516 0.032472849 0.55699998 4292200127
-0.0069729192 0.032472719 0.55699998 4292068542
-0.0059278198 0.032530904 0.55800003 4291936956
-0.0048876642 0.03264739 0.56 4291936956
-0.0038331028 0.032705594 0.56099999 4291674553
-0.0027698204 0.032705516 0.56099999 4292003262
-0.0017065442 0.032705456 0.56099999 4291872961
-0.00064441905 0.032763697 0.56199998 4291872961
0.00042074337 0.03276366 0.56199998 4291937987
0.0014859024 0.03276363 0.56199998 4291872194
0.0025510585 0.032763615 0.56199998 4291806142
0.0036162129 0.032763612 0.56199998 4291937471
0.0046896972 0.032821923 0.56300002 4292003516
0.005756746 0.03282195 0.56300002 4292003516
0.0068237935 0.032821991 0.56300002 4291675583
0.0079048593 0.032880332 0.56400001 4291609790
0.0089897187 0.0329387 0.565 4291544512
0.010060566 0.032938778 0.565 4291544512
0.011131415 0.032938868 0.565 4292005063
0.012202271 0.032938968 0.565 4291676098
0.01327313 0.032939088 0.565 4291610305
-0.16945589 0.043583155 0.722 4294967295
-0.16670641 0.043579739 0.722 4294967295
-0.1653318 0.043578044 0.722 4294967295
-0.1641843 0.043636709 0.72299999 4294965244
-0.16280787 0.043635018 0.72299999 4294306801
-0.16143155 0.043633342 0.72299999 4293385708
-0.15983388 0.043571323 0.722 4292267484
-0.15845957 0.043569665 0.722 4291546055
-0.15773803 0.043749038 0.72500002 4290427830
-0.15423414 0.043925107 0.72799999 4288458165
-0.14771259 0.044037666 0.73000002 4287139488
-0.14632374 0.044036064 0.73000002 4286219136
-0.14493498 0.044034481 0.73000002 4284048223
-0.14354627 0.044032898 0.73000002 4285885086
-0.14235239 0.044091646 0.73100001 4294967295
-0.14096193 0.044090085 0.73100001 4294967295
-0.13995337 0.044209149 0.73299998 4294967295
-0.13855928 0.044207606 0.73299998 4294967295
-0.13716522 0.044206068 0.73299998 4294967295
-0.13577124 0.044204544 0.73299998 4293651183
-0.13456069 0.044263337 0.73400003 4278979344
-0.1335278 0.044382427 0.736 4278190106
-0.10429209 0.045014992 0.74699998 4278190080
-0.1028733 0.045013748 0.74699998 4288254356
-0.10131876 0.044952255 0.74599999 4293449929
-0.099902019 0.044951033 0.74599999 4294967294
-0.098617345 0.045010075 0.74699998 4294967295
-0.097198822 0.045008883 0.74699998 4294967295
-0.095652148 0.044947449 0.74599999 4294967295
-0.094235681 0.044946283 0.74599999 4288716192
-0.05162888 0.03444805 0.57200003 4292529872
-0.050455313 0.034387164 0.57099998 4292595665
-0.049285591 0.034326293 0.56999999 4292464847
-0.048119705 0.034265444 0.56900001 4292464847
-0.047040321 0.034264825 0.56900001 4292529618
-0.045880206 0.034204002 0.56800002 4292266702
-0.044723906 0.034143183 0.56699997 4292266954
-0.043571446 0.03408239 0.56599998 4292595663
-0.042422809 0.034021609 0.565 4292530121
-0.041351199 0.034021057 0.565 4292135364
-0.040279608 0.034020517 0.565 4291938754
-0.039208055 0.034019988 0.565 4292070341
-0.038136534 0.034019474 0.565 4292398022
-0.036999445 0.033958763 0.56400001 4292463815
-0.035929888 0.033958271 0.56400001 4292397768
-0.034860354 0.033957794 0.56400001 4291805888
-0.033730943 0.033897121 0.56300002 4291937737
-0.03260535 0.033836465 0.56199998 4292266702
-0.031539693 0.033836029 0.56199998 4292397768
-0.030474072 0.033835609 0.56199998 4292661197
-0.029356144 0.033774991 0.56099999 4292398792
-0.028292472 0.033774592 0.56099999 4292267206
-0.027228815 0.033774208 0.56099999 4292136134
-0.026165191 0.033773839 0.56099999 4292136134
-0.025101585 0.033773482 0.56099999 4292332999
-0.024080852 0.033833336 0.56199998 4292332999
-0.017593991 0.033650942 0.55900002 4292397509
-0.016504759 0.033590496 0.55800003 4292200896
-0.015363968 0.033409663 0.55500001 4292135102
-0.014311926 0.033409435 0.55500001 4292003262
-0.013259901 0.033409223 0.55500001 4291937469
-0.012229886 0.033469222 0.55599999 4292003264
-0.011196091 0.033529229 0.55699998 4292398022
-0.010140314 0.033529062 0.55699998 4292068544
-0.009084546 0.033528898 0.55699998 4291805116
-0.0080287913 0.033528753 0.55699998 4292068544
-0.0069855643 0.033588819 0.55800003 4292265666
-0.0059491782 0.033709079 0.56 4292133821
-0.0048964927 0.033769172 0.56099999 4292331200
-0.0038331898 0.033769075 0.56099999 4291938239
-0.0027748318 0.033829182 0.56199998 4291872446
-0.0017096468 0.033829119 0.56199998 4291806914
-0.00064446678 0.033829059 0.56199998 4291806914
0.00042145749 0.033889215 0.56300002 4291938505
0.001488525 0.033889189 0.56300002 4292004298
0.0025555897 0.033889174 0.56300002 4291938241
0.0036290879 0.033949368 0.56400001 4291872448
0.0047063744 0.034009568 0.565 4292068542
0.0057567768 0.033889212 0.56300002 4292331714
0.0068238387 0.033889249 0.56300002 4291807168
0.0079049189 0.033949494 0.56400001 4291675583
0.0089897905 0.034009751 0.565 4291806664
0.01006065 0.034009825 0.565 4291675335
0.011131515 0.034009922 0.565 4292069568
0.01220238 0.034010023 0.565 4292069568
0.013273253 0.034010142 0.565 4291872959
0.058587529 0.048467878 0.80500001 4283393140
0.060113903 0.048468541 0.80500001 4286879912
0.061640322 0.048469227 0.80500001 4289962955
0.063166782 0.048469931 0.80500001 4294967295
0.064693302 0.048470661 0.80500001 4294967295
-0.16761725 0.044827916 0.72000003 4294967295
-0.16624634 0.044826187 0.72000003 4294967295
-0.16487551 0.04482447 0.72000003 4294967295
-0.16350473 0.044822752 0.72000003 4294967295
-0.16258436 0.044945542 0.722 4294967295
-0.16120994 0.044943843 0.722 4294967295
-0.1593928 0.044817653 0.72000003 4294967295
-0.15802228 0.044815969 0.72000003 4294967295
-0.15665185 0.044814289 0.72000003 4294967295
-0.15592845 0.044999331 0.72299999 4294967295
-0.15455246 0.044997666 0.72299999 4294967295
-0.1536002 0.045120474 0.72500002 4293783800
-0.14592445 0.045297317 0.72799999 4290426558
-0.14453948 0.045295704 0.72799999 4290229436
-0.14215921 0.045416947 0.73000002 4294967295
-0.14077066 0.045415357 0.73000002 4294967295
-0.1395731 0.04547599 0.73100001 4294967295
-0.13818276 0.045474414 0.73100001 4294967295
-0.1367925 0.045472853 0.73100001 4294967295
-0.10132 0.046367425 0.74599999 4291806142
-0.099903241 0.046366185 0.74599999 4294967295
-0.098486535 0.046364948 0.74599999 4294967295
-0.097069904 0.04636373 0.74599999 4294967295
-0.095653333 0.046362538 0.74599999 4294967295
-0.094236836 0.046361342 0.74599999 4289505706
-0.092820406 0.046360172 0.74599999 4280433747
-0.051719815 0.035594884 0.57300001 4292398542
-0.05054434 0.035532091 0.57200003 4292529872
-0.04937271 0.035469312 0.57099998 4292334031
-0.048204903 0.035406541 0.56999999 4292268238
-0.047040936 0.035343796 0.56900001 4292332747
-0.045961577 0.035343178 0.56900001 4292332747
-0.044803381 0.035280462 0.56800002 4292265666
-0.043649007 0.035217755 0.56699997 4292397509
-0.042498466 0.035155065 0.56599998 4292397768
-0.041424938 0.035154499 0.56599998 4292397768
-0.040351439 0.035153948 0.56599998 4292267206
-0.039208584 0.0350913 0.565 4292267206
-0.038137056 0.035090778 0.565 4292463815
-0.036999948 0.035028156 0.56400001 4292529608
-0.035930376 0.03502766 0.56400001 4292332745
-0.034860834 0.035027172 0.56400001 4291806401
-0.033731405 0.034964595 0.56300002 4291675583
-0.032605797 0.034902032 0.56199998 4292070341
-0.031540129 0.034901585 0.56199998 4292267206
-0.030474493 0.034901157 0.56199998 4292595915
-0.029356554 0.034838635 0.56099999 4292136649
-0.028292865 0.034838233 0.56099999 4292005063
-0.027229201 0.034837838 0.56099999 4292070343
-0.026165554 0.034837458 0.56099999 4292136136
-0.025146682 0.034899186 0.56199998 4292267206
-0.024124043 0.03496094 0.56300002 4292201157
-0.023097634 0.035022698 0.56400001 4291676098
-0.013284 0.034523487 0.55599999 4292002749
-0.01223008 0.034523286 0.55599999 4291806401
-0.011196272 0.034585189 0.55699998 4292135366
-0.010140482 0.03458501 0.55699998 4291806655
-0.0090847015 0.034584846 0.55699998 4291740606
-0.0080577619 0.03470888 0.55900002 4292199101
-0.0070107318 0.034770835 0.56 4292396223
-0.0059599183 0.034832798 0.56099999 4292067774
-0.004905323 0.034894779 0.56199998 4292199360
-0.0038469452 0.034956772 0.56300002 4291872961
-0.0027798456 0.03495669 0.56300002 4291807168
-0.0017127517 0.034956623 0.56300002 4291543745
-0.00064566289 0.034956567 0.56300002 4291675587
0.00042142178 0.034956519 0.56300002 4291675846
0.0014885028 0.034956489 0.56300002 4291675846
0.0025555813 0.034956478 0.56300002 4291806914
0.0036290921 0.03501856 0.56400001 4291806914
0.004706393 0.03508066 0.565 4291806140
0.0057670334 0.035018597 0.56400001 4291806140
0.0068360041 0.035018638 0.56400001 4291806655
0.0079049766 0.035018686 0.56400001 4291740606
0.0089898612 0.035080843 0.565 4291740095
0.010060735 0.035080917 0.565 4291740095
0.011131613 0.035081014 0.565 4291806142
0.012202493 0.035081122 0.565 4291937471
0.013273382 0.035081245 0.565 4291872959
0.056565631 0.049558755 0.79799998 4278190200
0.058078729 0.049559418 0.79799998 4278190080
0.05974121 0.049684301 0.80000001 4278190336
0.061258163 0.04968499 0.80000001 4288771376
0.062932104 0.049809922 0.80199999 4294965683
0.064131476 0.049562223 0.79799998 4294967295
0.065644763 0.049562965 0.79799998 4294967295
-0.17821027 0.045761921 0.713 4294967295
-0.1605418 0.04612229 0.71899998 4294967295
-0.15917309 0.046120565 0.71899998 4294967295
-0.15802397 0.046183001 0.72000003 4294967295
-0.15665352 0.046181295 0.72000003 4294967295
-0.15528315 0.0461796 0.72000003 4294967295
-0.15434036 0.046306174 0.722 4294967295
-0.15296631 0.046304487 0.722 4294967295
-0.15180226 0.046366934 0.72299999 4294967295
-0.094238043 0.047776457 0.74599999 4291018434
-0.092572741 0.047647174 0.74400002 4282793621
-0.090915099 0.047517914 0.74199998 4278190148
-0.089506358 0.047516756 0.74199998 4278190080
-0.051810753 0.036745548 0.574 4292595150
-0.050633378 0.036680844 0.57300001 4292463563
-0.049459834 0.03661615 0.57200003 4292332745
-0.048290122 0.036551479 0.57099998 4292332745
-0.047206923 0.036550839 0.57099998 4292398538
-0.046123758 0.036550201 0.57099998 4292530123
-0.044961747 0.036485571 0.56999999 4292332997
-0.043726582 0.036356945 0.56800002 4292135618
-0.042574123 0.036292348 0.56699997 4292070343
-0.041498691 0.036291771 0.56699997 4292530894
-0.040423281 0.036291201 0.56699997 4292332745
-0.039278518 0.036226653 0.56599998 4292201159
-0.038137574 0.036162116 0.565 4292529095
-0.037066061 0.036161594 0.565 4292660424
-0.035994574 0.036161076 0.565 4292463815
-0.034861315 0.036096588 0.56400001 4292200644
-0.033791788 0.0360961 0.56400001 4292135100
-0.032664273 0.036031634 0.56300002 4292398272
-0.031540573 0.035967175 0.56199998 4292463815
-0.030474924 0.035966739 0.56199998 4292661195
-0.029409299 0.035966307 0.56199998 4292529606
-0.0283437 0.035965893 0.56199998 4292200898
-0.027278127 0.035965495 0.56199998 4292135364
-0.026212571 0.035965111 0.56199998 4291872448
-0.025191793 0.036028735 0.56300002 4292003266
-0.024124393 0.036028374 0.56300002 4292003266
-0.023097966 0.036092013 0.56400001 4291937987
-0.012274272 0.035705365 0.55800003 4291872198
-0.01121656 0.035705168 0.55800003 4292266700
-0.010158859 0.035704985 0.55800003 4291938241
-0.009101171 0.035704818 0.55800003 4291806655
-0.0080723222 0.035832636 0.56 4292067776
-0.0070233825 0.035896488 0.56099999 4292330949
-0.0059812856 0.036024328 0.56300002 4292003264
-0.0049141576 0.036024217 0.56300002 4292003264
-0.0038538703 0.036088105 0.56400001 4292004548
-0.0027848615 0.036088023 0.56400001 4292004548
-0.0017158585 0.036087945 0.56400001 4291675587
-0.00064686034 0.036087889 0.56400001 4291675587
0.00042213328 0.036087845 0.56400001 4291609542
0.0014911233 0.036087818 0.56400001 4291543493
0.002560111 0.036087796 0.56400001 4291806655
0.0036290966 0.036087792 0.56400001 4291806655
0.0047064102 0.036151789 0.565 4291740608
0.0057670651 0.036087826 0.56400001 4291806401
0.0068360493 0.036087867 0.56400001 4291806401
0.0079190508 0.036151901 0.565 4291609022
0.0089899357 0.036151968 0.565 4291805369
0.010060822 0.036152054 0.565 4291871163
0.011131711 0.036152143 0.565 4291936958
0.012202608 0.036152251 0.565 4291936958
0.013273507 0.036152378 0.565 4291806655
0.054915234 0.050943147 0.796 4294967291
0.056424517 0.050943796 0.796 4288125075
0.058079395 0.051072463 0.79799998 4280898893
0.059741896 0.051201154 0.80000001 4278191360
0.061258879 0.051201861 0.80000001 4278190105
0.062775895 0.051202592 0.80000001 4292792828
0.064132206 0.051075317 0.79799998 4294967295
0.065645508 0.051076081 0.79799998 4294967295
-0.17831101 0.046787549 0.708 4294967295
-0.17696236 0.046785749 0.708 4294967295
-0.17635788 0.046982173 0.71100003 4292730333
-0.16146192 0.047357183 0.71700001 4292069570
-0.16009697 0.047355432 0.71700001 4292004296
-0.15873209 0.047353689 0.71700001 4292004296
-0.15643767 0.047482301 0.71899998 4293122252
-0.15506916 0.047480579 0.71899998 4293844701
-0.15391454 0.047544904 0.72000003 4294568423
-0.15254425 0.047543187 0.72000003 4294963447
-0.14118876 0.047858249 0.72500002 4294967295
-0.11114921 0.048549112 0.736 4291145909
-0.10975087 0.048547726 0.736 4290159014
-0.10458273 0.048740193 0.73900002 4288255128
-0.092573918 0.049058512 0.74400002 4290097847
-0.090916269 0.048925444 0.74199998 4285887095
-0.089507528 0.048924256 0.74199998 4282670697
-0.051901717 0.037900046 0.57499999 4292398540
-0.050810792 0.037899349 0.57499999 4292266954
-0.049546979 0.03776684 0.57300001 4292331462
-0.048375357 0.037700254 0.57200003 4292397255
-0.047290239 0.037699595 0.57200003 4292529870
-0.046205163 0.037698947 0.57200003 4292398540
-0.045041248 0.037632413 0.57099998 4292267465
-0.043804165 0.037499972 0.56900001 4291938501
-0.042649809 0.037433475 0.56800002 4292004550
-0.041572459 0.037432879 0.56800002 4292070343
-0.040495142 0.037432306 0.56800002 4292266952
-0.039348457 0.037365839 0.56699997 4292266952
-0.038205612 0.037299398 0.56599998 4292660165
-0.037132185 0.037298858 0.56599998 4292857545
-0.035995092 0.037232447 0.565 4292659911
-0.034923621 0.037231937 0.565 4292528325
-0.033852186 0.037231445 0.565 4292135618
-0.032664742 0.037099179 0.56300002 4292069568
-0.031541023 0.037032813 0.56199998 4292265666
-0.030475358 0.037032362 0.56199998 4292265666
-0.029409723 0.037031934 0.56199998 4292265669
-0.02834411 0.037031509 0.56199998 4292265669
-0.027278524 0.037031103 0.56199998 4292331202
-0.026212957 0.037030704 0.56199998 4292265153
-0.025192168 0.037096217 0.56300002 4292265155
-0.024124751 0.037095852 0.56300002 4292199362
-0.0081013003 0.037026111 0.56199998 4292001979
-0.0070360377 0.037025973 0.56199998 4292199614
-0.0059920317 0.03715761 0.56400001 4292003264
-0.004922993 0.037157491 0.56400001 4292069057
-0.0038539644 0.037157398 0.56400001 4292070343
-0.0027849416 0.037157301 0.56400001 4291938501
-0.0017189668 0.037223108 0.565 4291675583
-0.00064691255 0.03715717 0.56400001 4291675583
0.00042209518 0.037157129 0.56400001 4291543745
0.0014910991 0.037157089 0.56400001 4291543745
0.0025601008 0.037157077 0.56400001 4291806653
0.0068482156 0.037223026 0.565 4292069573
0.0079191122 0.037223078 0.565 4291937987
0.0089900084 0.037223142 0.565 4292331716
0.010078718 0.037289113 0.56599998 4291936958
0.011131815 0.03722332 0.565 4291936958
0.012202724 0.037223432 0.565 4292068544
0.013297132 0.037289441 0.56599998 4291740606
0.053138241 0.052188233 0.792 4294967295
0.054639921 0.05218887 0.792 4294967295
0.056425173 0.052453097 0.796 4293256677
0.057934515 0.052453782 0.796 4282549406
0.059593253 0.052586276 0.79799998 4278190104
0.060953304 0.052455202 0.796 4279173120
0.062305808 0.052324131 0.79400003 4290550424
0.063811503 0.05232488 0.79400003 4294239711
0.065317236 0.052325647 0.79400003 4294967295
-0.17806095 0.048064362 0.70700002 4294967295
-0.17671423 0.048062541 0.70700002 4294967295
-0.15851247 0.048647206 0.71600002 4279435264
-0.15714954 0.048645444 0.71600002 4279238656
-0.15600426 0.048711628 0.71700001 4279042048
-0.15463956 0.048709881 0.71700001 4281733120
-0.15327494 0.048708137 0.71700001 4279631872
-0.14706558 0.048903335 0.72000003 4283115567
-0.14569566 0.048901636 0.72000003 4283510325
-0.1419796 0.049032435 0.722 4288181658
-0.13942564 0.049097028 0.72299999 4294967295
-0.11084857 0.049809936 0.73400003 4289765287
-0.10945401 0.049808532 0.73400003 4288909721
-0.090917453 0.050333012 0.74199998 4290165437
-0.089508705 0.05033182 0.74199998 4289839553
-0.088100016 0.050330635 0.74199998 4290497482
-0.086691387 0.050329465 0.74199998 4289639611
-0.05336206 0.039262544 0.579 4293317846
-0.051902432 0.038990572 0.57499999 4292661197
-0.050811496 0.038989857 0.57499999 4292397768
-0.0497206 0.038989156 0.57499999 4292200907
-0.048629746 0.038988464 0.57499999 4292135114
-0.047621608 0.039055597 0.57599998 4292200907
-0.046448149 0.03898713 0.57499999 4292200907
-0.045278516 0.038918685 0.574 4292201159
-0.043881774 0.038646843 0.56999999 4292201159
-0.042725489 0.038578425 0.56900001 4292004550
-0.041646235 0.038577825 0.56900001 4292004550
-0.040567014 0.038577233 0.56900001 4292136134
-0.039418422 0.038508866 0.56800002 4292136134
-0.038341157 0.038508311 0.56800002 4292398274
-0.03726393 0.038507763 0.56800002 4292529860
-0.036123022 0.038439438 0.56699997 4292266693
-0.035047747 0.038438916 0.56699997 4292200644
-0.033972505 0.038438413 0.56699997 4292004548
-0.032839272 0.038370132 0.56599998 4291938754
-0.031709854 0.038301863 0.565 4291806149
-0.030584265 0.038233619 0.56400001 4291806149
-0.029514821 0.03823318 0.56400001 4292068807
-0.028445398 0.038232736 0.56400001 4292068807
-0.027376009 0.038232327 0.56400001 4292199875
-0.026306637 0.038231924 0.56400001 4292265669
-0.02523729 0.038231529 0.56400001 4292265153
-0.024167964 0.038231153 0.56400001 4292199360
-0.02313962 0.038298581 0.565 4292002751
-0.008130285 0.038227227 0.56400001 4292067772
-0.007061216 0.038227078 0.56400001 4292199614
-0.005992156 0.03822694 0.56400001 4292068544
-0.0049318331 0.038294598 0.565 4292068544
-0.0038608941 0.038294498 0.565 4291872711
-0.0027899619 0.038294405 0.565 4291543747
-0.0017190347 0.03829433 0.565 4291609017
-0.0006481132 0.038294274 0.565 4291806653
0.00042280412 0.038294218 0.565 4291740606
0.0014937179 0.038294189 0.565 4291740606
0.0090219062 0.038429916 0.56699997 4292068542
0.010096611 0.038429994 0.56699997 4291739576
0.053004678 0.053554405 0.79000002 4294967295
0.054502591 0.053555056 0.79000002 4294967295
0.056425851 0.053962465 0.796 4294967295
0.057935216 0.053963162 0.796 4291678678
0.059593949 0.054099444 0.79799998 4278190081
0.060954023 0.053964596 0.796 4278190080
0.062306561 0.053829752 0.79400003 4282928712
0.063812271 0.053830512 0.79400003 4290228137
0.065318018 0.05383129 0.79400003 4294967295
0.066823818 0.053832095 0.79400003 4294967295
-0.17781095 0.049337424 0.70599997 4294967295
-0.17646609 0.049335569 0.70599997 4294967295
-0.17512131 0.04933371 0.70599997 4292203989
-0.17402272 0.049401745 0.70700002 4289768881
-0.17169918 0.049120408 0.70300001 4279571222
-0.17036027 0.049118586 0.70300001 4278914821
-0.16902141 0.049116757 0.70300001 4280625438
-0.16792114 0.049184803 0.704 4285553752
-0.16658051 0.049182989 0.704 4292199101
-0.16594407 0.049390759 0.70700002 4291871955
-0.16459784 0.049388949 0.70700002 4291609040
-0.15920734 0.049799055 0.713 4279631872
-0.15671232 0.049865328 0.71399999 4286869652
-0.15535326 0.049863551 0.71399999 4285487999
-0.15399426 0.049861785 0.71399999 4283979655
-0.15263535 0.049860023 0.71399999 4281545314
-0.15170024 0.049997933 0.71600002 4278190151
-0.14158799 0.050263446 0.72000003 4286343701
-0.10791369 0.05113012 0.73299998 4290028459
-0.1052721 0.051197089 0.73400003 4289305503
-0.10387781 0.051195711 0.73400003 4289239454
-0.053362809 0.040360712 0.579 4293382085
-0.052083697 0.040220551 0.57700002 4292727244
-0.050900578 0.040150113 0.57599998 4292463815
-0.049807772 0.040149406 0.57599998 4292135884
-0.048799586 0.040218402 0.57700002 4292070091
-0.047704957 0.040217713 0.57700002 4292135114
-0.046529587 0.040147334 0.57599998 4292200907
-0.045436934 0.040146668 0.57599998 4292397518
-0.044344317 0.040146027 0.57599998 4292266189
-0.042801194 0.039727207 0.56999999 4291938501
-0.041720025 0.039726596 0.56999999 4292070343
-0.040638894 0.039726 0.56999999 4292136136
-0.03948839 0.039655719 0.56900001 4292070343
-0.038409218 0.039655153 0.56900001 4292004546
-0.03733008 0.039654598 0.56900001 4292136388
-0.036187261 0.039584365 0.56800002 4292004548
-0.035110079 0.039583836 0.56800002 4292004548
-0.034032926 0.039583322 0.56800002 4292004548
-0.032897778 0.039513126 0.56699997 4291938754
-0.031822577 0.039512645 0.56699997 4291675587
-0.030693173 0.039442487 0.56599998 4291675587
-0.029619925 0.039442033 0.56599998 4292002760
-0.028647572 0.039580967 0.56800002 4292002760
-0.0274735 0.039441168 0.56599998 4292133569
-0.02635368 0.039371077 0.565 4292330949
-0.025282422 0.039370671 0.565 4292265155
-0.024211189 0.039370287 0.565 4292199362
-0.023139976 0.039369922 0.565 4292068544
-0.022107843 0.039439246 0.56599998 4292068544
-0.021071941 0.039508585 0.56699997 4292003012
-0.0081448574 0.039366279 0.565 4292199612
-0.0070738778 0.039366126 0.565 4292265405
-0.0060029081 0.039365992 0.565 4292068542
-0.0049319463 0.039365862 0.565 4292068542
-0.0038609926 0.03936575 0.565 4291872196
-0.0027900459 0.039365672 0.565 4291740610
-0.0017191045 0.03936559 0.565 4291674553
-0.00064816832 0.039365526 0.565 4291806140
0.00042276355 0.039365478 0.565 4291805116
0.0090538077 0.039644312 0.56900001 4292069568
0.010132317 0.03964439 0.56900001 4291740860
0.045112841 0.05456166 0.78299999 4294967295
0.046597343 0.054562207 0.78299999 4294967295
0.048204694 0.054702152 0.78500003 4292535523
0.049693052 0.054702744 0.78500003 4292074972
0.051311824 0.054842733 0.787 4292729290
0.052938219 0.054982729 0.78899997 4294768617
0.054503255 0.055053085 0.79000002 4294967295
0.056142986 0.05519313 0.792 4294967295
0.05779035 0.055333216 0.79400003 4293126911
0.059445318 0.055473298 0.796 4279047215
0.060954772 0.055474043 0.796 4278190080
0.062307317 0.055335421 0.79400003 4278910976
0.063813053 0.055336203 0.79400003 4288906841
0.065318815 0.055336993 0.79400003 4294967259
0.06682463 0.055337805 0.79400003 4294967295
-0.17705724 0.050463151 0.70300001 4294967295
-0.17571811 0.050461281 0.70300001 4294967295
-0.17388292 0.050315853 0.70099998 4291611852
-0.1725477 0.050313994 0.70099998 4288715679
-0.17121254 0.050312139 0.70099998 4280557347
-0.1696351 0.050238527 0.69999999 4280820773
-0.16830195 0.050236676 0.69999999 4282465342
-0.16768444 0.050450139 0.70300001 4287391620
-0.16634572 0.050448302 0.70300001 4294961663
-0.16524173 0.050518222 0.704 4294964217
-0.16390122 0.050516397 0.704 4294964474
-0.16256073 0.050514564 0.704 4292726527
-0.16124259 0.050941426 0.70999998 4280361249
-0.15989091 0.050939605 0.70999998 4280229663
-0.15876254 0.051009536 0.71100003 4283637266
-0.15740909 0.051007736 0.71100003 4294955718
-0.15605566 0.05100593 0.71100003 4294106879
-0.15470231 0.051004138 0.71100003 4293054207
-0.15334901 0.05100235 0.71100003 4292794623
-0.15242335 0.051144034 0.713 4292334079
-0.048969433 0.041455965 0.579 4292397770
-0.047871005 0.041455265 0.579 4292266954
-0.046691824 0.041382968 0.57800001 4292135112
-0.045595374 0.041382305 0.57800001 4292265939
-0.044421948 0.041310046 0.57700002 4292002510
-0.043177281 0.041166216 0.57499999 4291806151
-0.041867025 0.040950797 0.57200003 4292135116
-0.040710788 0.040878601 0.57099998 4292004296
-0.039627772 0.040878002 0.57099998 4292004296
-0.038544793 0.04087742 0.57099998 4292004548
-0.037396237 0.040805265 0.56999999 4292267719
-0.036251511 0.040733125 0.56900001 4292201157
-0.035172418 0.040732589 0.56900001 4292069570
-0.034093358 0.040732063 0.56900001 4292069570
-0.03301432 0.040731557 0.56900001 4292201157
-0.031935308 0.040731061 0.56900001 4291741891
-0.030802103 0.040658999 0.56800002 4291610305
-0.029725047 0.040658534 0.56800002 4291806664
-0.028648011 0.040658087 0.56800002 4291675335
-0.027571006 0.040657643 0.56800002 4292002499
-0.026447374 0.040585637 0.56699997 4292199621
-0.025327561 0.040513653 0.56599998 4292199621
-0.024254421 0.040513266 0.56599998 4292068292
-0.023181299 0.040512893 0.56599998 4292003264
-0.022108195 0.040512525 0.56599998 4292003264
-0.021072278 0.040583756 0.56699997 4291937219
-0.0081450175 0.040437598 0.565 4292200127
-0.0070740231 0.040437445 0.565 4292265920
-0.006003039 0.040437303 0.565 4292069309
-0.0049320622 0.040437177 0.565 4292003516
-0.0038610937 0.040437065 0.565 4291675583
-0.0027901321 0.040436976 0.565 4291807168
-0.0017191756 0.04043689 0.565 4291806142
0.043628894 0.056045875 0.78299999 4294568673
0.045113392 0.056046415 0.78299999 4293978088
0.046597913 0.056046978 0.78299999 4290754231
0.048082463 0.056047566 0.78299999 4286018180
0.049693666 0.056191333 0.78500003 4278190080
0.051312458 0.056335121 0.787 4282994688
0.05280469 0.056335766 0.787 4288192317
0.054434925 0.056479592 0.78899997 4292994007
0.056001909 0.05655187 0.79000002 4294967295
0.057645489 0.056695744 0.792 4294967295
0.059296705 0.056839641 0.79400003 4286875526
0.060802378 0.056840397 0.79400003 4278190146
0.062151138 0.056697987 0.792 4278190141
0.063653097 0.056698773 0.792 4279107646
0.065155096 0.056699574 0.792 4294827775
0.066657126 0.056700394 0.792 4294967295
-0.1765554 0.051651202 0.70099998 4294967295
-0.17497011 0.051575623 0.69999999 4294967295
-0.17363675 0.05157375 0.69999999 4291151301
-0.17230342 0.051571861 0.69999999 4287991440
-0.17097017 0.051569983 0.69999999 4280753954
-0.16963695 0.051568113 0.69999999 4281277988
-0.16830382 0.051566251 0.69999999 4282265139
-0.16720924 0.051638041 0.70099998 4288176997
-0.16587429 0.051636182 0.70099998 4294756297
-0.16500887 0.051781651 0.70300001 4292794582
-0.16367024 0.051779788 0.70300001 4292465360
-0.16233167 0.051777944 0.70300001 4291609047
-0.16099314 0.0517761 0.70300001 4282398283
-0.15944232 0.052140657 0.708 4279836456
-0.15809447 0.05213882 0.708 4285472029
-0.15674672 0.052136995 0.708 4294950077
-0.15539899 0.052135181 0.708 4294243583
-0.15448651 0.052280631 0.70999998 4292664553
-0.15313512 0.052278824 0.70999998 4293980148
-0.15178378 0.052277021 0.70999998 4292006358
-0.15064441 0.05234886 0.71100003 4286749107
-0.049054738 0.042627666 0.57999998 4292593605
-0.047954392 0.042626943 0.57999998 4292398542
-0.046854079 0.042626239 0.57999998 4292200907
-0.045674928 0.042552058 0.579 4292200909
-0.044499598 0.042477895 0.57800001 4291937737
-0.043253008 0.042330258 0.57599998 4291872196
-0.041940853 0.042109147 0.57300001 4292069319
-0.040782697 0.04203504 0.57200003 4291938503
-0.039628368 0.04196094 0.57099998 4292004296
-0.038545378 0.041960344 0.57099998 4291938754
-0.037462413 0.041959774 0.57099998 4291807168
-0.036315769 0.041885719 0.56999999 4292068805
-0.035234768 0.041885175 0.56999999 4292003012
-0.034153797 0.041884642 0.56999999 4291937471
-0.033072844 0.041884121 0.56999999 4292003264
-0.031991925 0.041883614 0.56999999 4291807168
-0.030911036 0.041883126 0.56999999 4291675583
-0.029830173 0.041882649 0.56999999 4291609542
-0.028749332 0.041882187 0.56999999 4291609542
-0.027619978 0.04180827 0.56900001 4291807168
-0.026541084 0.041807838 0.56900001 4291807168
-0.025417466 0.04173395 0.56800002 4291872196
-0.024297656 0.041660067 0.56699997 4291872196
-0.023222627 0.041659683 0.56699997 4291872448
-0.022147615 0.041659314 0.56699997 4291872448
-0.021072621 0.041658964 0.56699997 4291806403
-0.02003292 0.041732099 0.56800002 4291872196
-0.0060031726 0.041508663 0.565 4291807168
-0.0049321805 0.041508533 0.565 4291609790
-0.0038611966 0.041508418 0.565 4291412158
-0.0027902198 0.041508324 0.565 4291477952
0.04362943 0.057530683 0.78299999 4291737274
0.045113947 0.05753123 0.78299999 4291542213
0.04659849 0.057531808 0.78299999 4290292147
0.048083059 0.057532396 0.78299999 4285825123
0.049567666 0.057533011 0.78299999 4285890916
0.051052295 0.05753364 0.78299999 4285494382
0.05253695 0.0575343 0.78299999 4288784288
0.054021649 0.057534959 0.78299999 4292335829
0.055506386 0.057535663 0.78299999 4294967295
0.057136711 0.05768333 0.78500003 4294967295
0.058924031 0.057977989 0.78899997 4290033597
0.060420245 0.057978749 0.78899997 4282733951
0.061916489 0.057979528 0.78899997 4278190105
0.063412786 0.057980321 0.78899997 4280025088
0.064991377 0.058054626 0.79000002 4294034625
0.066489637 0.058055453 0.79000002 4294967294
0.068160072 0.058203291 0.792 4294967295
-0.17447209 0.052754208 0.69800001 4294967295
-0.17314254 0.052752305 0.69800001 4290756543
-0.17181304 0.052750405 0.69800001 4285098626
-0.17048356 0.052748501 0.69800001 4279045670
-0.16963884 0.052897744 0.69999999 4279442212
-0.16830568 0.052895851 0.69999999 4279442212
-0.1672111 0.052969519 0.70099998 4284226842
-0.16587617 0.052967638 0.70099998 4283174153
-0.16454127 0.052965753 0.70099998 4282777606
-0.16320647 0.05296389 0.70099998 4281270272
-0.16187169 0.052962013 0.70099998 4278190088
-0.16053699 0.052960154 0.70099998 4278190082
-0.15965654 0.053109381 0.70300001 4278190080
-0.15518133 0.053404152 0.70700002 4282983718
-0.15383559 0.053402323 0.70700002 4281404429
-0.15270558 0.053476021 0.708 4281935182
-0.15135804 0.053474203 0.708 4289764549
-0.14021657 0.053835694 0.713 4287658351
-0.066890299 0.055868957 0.741 4290752164
-0.050415296 0.043954734 0.583 4290949550
-0.049309194 0.043953985 0.583 4292001981
-0.048203148 0.043953255 0.583 4292266952
-0.046854775 0.043726355 0.57999998 4292069573
-0.045754492 0.043725658 0.57999998 4292134601
-0.044577263 0.043649588 0.579 4292134601
-0.043403845 0.043573529 0.57800001 4291937987
-0.04216107 0.043422099 0.57599998 4291937987
-0.040783316 0.043119926 0.57200003 4292069573
-0.039698374 0.043119311 0.57200003 4292135366
-0.038545966 0.043043327 0.57099998 4291938241
-0.037462991 0.043042734 0.57099998 4291806655
-0.036380045 0.043042164 0.57099998 4292199625
-0.035297129 0.043041602 0.57099998 4292199625
-0.034214243 0.043041054 0.57099998 4292068544
-0.033189416 0.043115906 0.57200003 4292068544
-0.032048553 0.043040011 0.57099998 4291872446
-0.030965753 0.043039516 0.57099998 4292267204
-0.029882979 0.043039028 0.57099998 4291872959
-0.028800223 0.043038558 0.57099998 4291610044
-0.027668964 0.042962734 0.56999999 4291806655
-0.026588157 0.042962302 0.56999999 4292069570
-0.025462622 0.042886499 0.56900001 4291938239
-0.024340909 0.042810723 0.56800002 4291609017
-0.023263965 0.042810336 0.56800002 4291806142
-0.022187041 0.042809956 0.56800002 4292003264
-0.021110138 0.042809594 0.56800002 4292068546
-0.020033253 0.042809252 0.56800002 4292199875
0.041876346 0.058638167 0.778 4278386688
0.043351371 0.058638711 0.778 4278452224
0.04494166 0.058789998 0.77999997 4278190080
0.046420533 0.058790579 0.77999997 4278190080
0.047960848 0.05886656 0.78100002 4282588247
0.049441688 0.058867183 0.78100002 4294957311
0.050922535 0.058867812 0.78100002 4294504191
0.052336328 0.058793094 0.77999997 4294967295
0.053815354 0.058793779 0.77999997 4294967295
0.055294409 0.05879448 0.77999997 4294967295
0.056846302 0.05887058 0.78100002 4294967295
0.058626041 0.059172831 0.78500003 4294178033
0.060114689 0.059173591 0.78500003 4288779980
0.061760332 0.059325144 0.787 4278190115
0.063252859 0.059325945 0.787 4279173120
0.064909942 0.059477538 0.78899997 4289168771
0.066406332 0.059478384 0.78899997 4294106564
0.06798882 0.059554644 0.79000002 4294967287
-0.1755518 0.054004654 0.69700003 4294967295
-0.17422408 0.054002713 0.69700003 4294967295
-0.1728964 0.054000787 0.69700003 4289967027
-0.17156877 0.053998854 0.69700003 4285490800
-0.17024122 0.053996939 0.69700003 4280424739
-0.16891372 0.053995021 0.69700003 4280952602
-0.16782673 0.05407057 0.69800001 4282531891
-0.16697448 0.05422359 0.69999999 4286009458
-0.16564143 0.054221675 0.69999999 4288443542
-0.1645432 0.054297231 0.70099998 4288578701
-0.16320834 0.054295331 0.70099998 4286867826
-0.16187355 0.054293431 0.70099998 4284377455
-0.16053885 0.054291543 0.70099998 4283258717
-0.15920421 0.054289665 0.70099998 4280895583
-0.15832002 0.054442674 0.70300001 4279974481
-0.157205 0.054518241 0.704 4280031101
-0.15586479 0.054516371 0.704 4278583655
-0.14980049 0.054739404 0.70700002 4294171106
-0.14097908 0.054958995 0.70999998 4281341968
-0.13962835 0.054957226 0.70999998 4287528561
-0.13847244 0.055032857 0.71100003 4294967295
-0.049309947 0.045059875 0.583 4291937219
-0.048203882 0.045059122 0.583 4292201161
-0.047017071 0.044981103 0.58200002 4291937989
-0.045755193 0.044825818 0.57999998 4291938241
-0.044654936 0.044825122 0.57999998 4292135364
-0.043554701 0.044824429 0.57999998 4292200648
-0.042161722 0.044514637 0.57599998 4292134599
-0.040783953 0.044204861 0.57200003 4291872198
-0.039698996 0.044204243 0.57200003 4292135114
-0.038546566 0.044126343 0.57099998 4291872448
-0.037463572 0.044125739 0.57099998 4291938241
-0.036380611 0.044125158 0.57099998 4292331462
-0.035297684 0.044124588 0.57099998 4292463304
-0.03421478 0.044124037 0.57099998 4292660426
-0.033189941 0.044200778 0.57200003 4291936704
-0.032049064 0.044122979 0.57099998 4291674048
-0.03096625 0.044122476 0.57099998 4291805890
-0.029935794 0.044199251 0.57200003 4291872961
-0.028800694 0.0441215 0.57099998 4291675583
-0.027669409 0.044043768 0.56999999 4291346363
-0.026588589 0.044043321 0.56999999 4291806914
-0.025463047 0.043965627 0.56900001 4291872961
-0.024384167 0.043965217 0.56900001 4291478204
-0.023305314 0.043964818 0.56900001 4291542713
0.038576607 0.059571732 0.77100003 4278190084
0.04003834 0.059572238 0.77100003 4278190085
0.041607741 0.059727285 0.773 4278190100
0.043240476 0.059959631 0.77600002 4278190099
0.044826999 0.060114726 0.778 4278190099
0.046421129 0.060269848 0.77999997 4278190099
0.047900055 0.060270458 0.77999997 4281532435
0.049379006 0.060271088 0.77999997 4292322488
0.050857987 0.060271725 0.77999997 4292333529
0.052202806 0.060117863 0.778 4292596700
0.053678062 0.060118549 0.778 4293449947
0.055153348 0.06011926 0.778 4294239463
0.056774244 0.060274526 0.77999997 4294963444
0.058328073 0.060352556 0.78100002 4294633965
0.059962317 0.060507875 0.78299999 4290886346
0.061604187 0.060663234 0.78500003 4279240985
0.063092932 0.060664047 0.78500003 4278648832
0.064746246 0.060819443 0.787 4284039229
0.066238858 0.060820304 0.787 4292063890
0.067903638 0.060975742 0.78899997 4294967269
-0.17132455 0.055243552 0.69599998 4283386221
-0.1699989 0.055241607 0.69599998 4280425536
-0.16867331 0.055239666 0.69599998 4282655796
-0.1675882 0.0553171 0.69700003 4287129719
-0.16649933 0.055394534 0.69800001 4290480829
-0.16164455 0.055545539 0.69999999 4294967295
-0.16031173 0.055543628 0.69999999 4294967295
-0.15920609 0.055621076 0.70099998 4294967295
-0.15787148 0.055619169 0.70099998 4294967295
-0.15296891 0.055770297 0.70300001 4278190082
-0.15050657 0.055845883 0.704 4289241503
-0.1491667 0.055844031 0.704 4293843170
-0.14307548 0.056072809 0.70700002 4279701788
-0.14058377 0.056148499 0.708 4280751644
-0.13923682 0.056146707 0.708 4287789680
-0.049395286 0.046244979 0.58399999 4292266450
-0.048287306 0.046244219 0.58399999 4292070091
-0.047098581 0.046164293 0.583 4290556852
-0.045913689 0.046084374 0.58200002 4291279021
-0.044809613 0.04608367 0.58200002 4291937208
-0.043705579 0.046082973 0.58200002 4292463302
-0.041869592 0.045290504 0.57200003 4292463302
-0.040784594 0.045289848 0.57200003 4292463311
-0.039699625 0.045289207 0.57200003 4292529104
-0.038614687 0.045288578 0.57200003 4292069055
-0.037464172 0.045208797 0.57099998 4292003262
-0.036381193 0.045208197 0.57099998 4292002753
-0.035298251 0.045207623 0.57099998 4291936704
-0.034275256 0.045286238 0.57200003 4291936706
-0.031075217 0.045363806 0.57300001 4291805638
-0.029988619 0.0453633 0.57300001 4291543745
-0.028851608 0.045283645 0.57200003 4291806916
-0.027766954 0.04528318 0.57200003 4291675585
-0.026635677 0.045203552 0.57099998 4291675585
-0.025552973 0.04520312 0.57099998 4291807166
-0.024470288 0.045202699 0.57099998 4291675837
-0.023428582 0.045281451 0.57200003 4291806653
0.0251255 0.060317937 0.76200002 4294107622
0.026535153 0.060239095 0.76099998 4293976816
0.027977785 0.060239419 0.76099998 4294967295
0.029420441 0.06023977 0.76099998 4294967295
0.030863114 0.060240149 0.76099998 4294967295
0.032305799 0.060240541 0.76099998 4291811825
0.033881541 0.06047843 0.764 4288522175
0.035422444 0.060637195 0.76599997 4287538094
0.036874674 0.060637657 0.76599997 4287274922
0.038477022 0.060875624 0.76899999 4287070872
0.040038846 0.061034456 0.77100003 4286741650
0.041608274 0.061193306 0.773 4284636038
0.043129586 0.061273009 0.77399999 4284241280
0.044712346 0.061431929 0.77600002 4280822641
0.046302702 0.061590843 0.778 4279835745
0.047777854 0.06159145 0.778 4279304234
0.049253032 0.061592087 0.778 4278517790
0.05072825 0.06159275 0.778 4278190084
0.052069291 0.061435085 0.77600002 4278190080
0.05354077 0.061435785 0.77600002 4278190080
0.055012297 0.061436508 0.77600002 4278190080
0.056629404 0.061595578 0.778 4279042048
0.058104783 0.061596345 0.778 4279435264
0.059733357 0.061755467 0.77999997 4280025088
0.061291076 0.061835442 0.78100002 4278779904
0.062933005 0.061994623 0.78299999 4278190080
0.064418018 0.061995469 0.78299999 4278190080
0.065903068 0.061996337 0.78299999 4280419401
0.067560278 0.062155575 0.78500003 4294960127
-0.1708342 0.056403216 0.69400001 4282533976
-0.16951235 0.056401256 0.69400001 4280099635
-0.16819055 0.056399304 0.69400001 4282980143
-0.1525356 0.056942958 0.70099998 4278190106
-0.15120131 0.056941073 0.70099998 4278190080
-0.1496533 0.05685797 0.69999999 4288652448
-0.14832103 0.056856096 0.69999999 4293253597
-0.14628094 0.057096027 0.70300001 4294967295
-0.14494316 0.057094168 0.70300001 4293783021
-0.14380972 0.057173539 0.704 4291085004
-0.14247018 0.057171699 0.704 4280031780
-0.1411307 0.05716987 0.704 4280816908
-0.055865828 0.052380908 0.64600003 4292266963
-0.054640163 0.05238004 0.64600003 4292069841
-0.048288066 0.047352079 0.58399999 4291939014
-0.047180109 0.047351323 0.58399999 4290097066
-0.046072192 0.047350578 0.58399999 4290686371
-0.04496431 0.047349852 0.58399999 4291081129
-0.048512463 0.052375939 0.64600003 4291474858
-0.047287036 0.052375171 0.64600003 4292395960
-0.04549123 0.05172582 0.63800001 4292528325
-0.031075733 0.046450648 0.57300001 4291806916
-0.029989118 0.046450134 0.57300001 4291609020
-0.028902529 0.046449639 0.57300001 4291740606
-0.027767425 0.0463681 0.57200003 4291675583
-0.026682775 0.046367638 0.57200003 4291807168
-0.025598157 0.046367191 0.57200003 4291807168
-0.024513563 0.046366766 0.57200003 4291609790
-0.023428984 0.046366345 0.57200003 4291740606
0.022236761 0.061762545 0.76200002 4290754233
0.023681277 0.06176281 0.76200002 4292000952
0.025125802 0.0617631 0.76200002 4294040279
0.026535474 0.061682366 0.76099998 4293516769
0.027978128 0.061682701 0.76099998 4294964729
0.029420808 0.061683051 0.76099998 4294704375
0.030863494 0.061683431 0.76099998 4294967292
0.032306202 0.06168383 0.76099998 4294901759
0.033793282 0.061765309 0.76200002 4293256941
0.035330411 0.061927866 0.764 4291351260
0.036875151 0.062090445 0.76599997 4291022039
0.038477521 0.062334109 0.76899999 4290887631
0.039935503 0.062334623 0.76899999 4290624203
0.041501164 0.062497273 0.77100003 4289703101
0.042962976 0.062497832 0.77100003 4289242550
0.044540066 0.062660523 0.773 4289177277
0.04753283 0.062742807 0.77399999 4287401631
0.048937153 0.062662393 0.773 4286151565
0.050402902 0.062663056 0.773 4284837737
0.051935777 0.062744804 0.77399999 4283127119
0.053403482 0.062745504 0.77399999 4280431165
0.054871231 0.062746227 0.77399999 4278588961
0.056484587 0.062909111 0.77600002 4278190127
0.058105566 0.063072026 0.778 4278190119
0.059580993 0.063072808 0.778 4278190105
0.061291903 0.063316837 0.78100002 4278190632
0.062773101 0.063317679 0.78100002 4278190116
0.064254336 0.063318528 0.78100002 4278190102
0.065735616 0.063319415 0.78100002 4278190080
0.067216925 0.063320301 0.78100002 4292340184
0.068698287 0.063321218 0.78100002 4294901502
-0.17273012 0.057476126 0.69099998 4294967295
-0.17141388 0.057474144 0.69099998 4287466126
-0.17009769 0.057472154 0.69099998 4281678406
-0.16878153 0.057470169 0.69099998 4280625718
-0.16663033 0.057632562 0.69300002 4282786112
-0.15321338 0.058026869 0.69800001 4292527308
-0.15188472 0.058024947 0.69800001 4292000964
-0.14901382 0.057938021 0.69700003 4294963675
-0.14768724 0.057936125 0.69700003 4294967295
-0.14586665 0.058264833 0.70099998 4294967295
-0.14453267 0.058262963 0.70099998 4293980400
-0.14093208 0.058423605 0.70300001 4280553486
-0.055866707 0.053606454 0.64600003 4292266700
-0.054641031 0.053605568 0.64600003 4291872198
-0.053415384 0.053604703 0.64600003 4291412406
-0.052189793 0.053603858 0.64600003 4289043858
-0.05096424 0.053603023 0.64600003 4289239695
-0.049738724 0.053602215 0.64600003 4288647558
-0.048513237 0.05360141 0.64600003 4289631625
0.020792497 0.063207507 0.76200002 4290424761
0.022237021 0.06320776 0.76200002 4289569453
0.023681561 0.063208036 0.76200002 4290488476
0.025126107 0.063208334 0.76200002 4290554269
0.02657067 0.063208647 0.76200002 4290882469
0.028015245 0.063208982 0.76200002 4291014055
0.029421175 0.063126385 0.76099998 4291871161
0.030863889 0.06312678 0.76099998 4294964203
0.032349072 0.063210145 0.76200002 4294967295
0.033793721 0.063210569 0.76200002 4294967295
0.035238381 0.063211016 0.76200002 4294967295
0.036683068 0.063211486 0.76200002 4294967295
0.038327914 0.063543789 0.76599997 4294967295
0.039832164 0.063627273 0.76700002 4294967295
0.041394047 0.063793719 0.76899999 4294967295
0.0428521 0.063794285 0.76899999 4294967295
0.044310179 0.063794866 0.76899999 4294967295
0.046006344 0.064127304 0.773 4294967295
0.047349233 0.063962013 0.77100003 4294967295
0.04881119 0.063962661 0.77100003 4294967295
0.050273165 0.063963339 0.77100003 4294967295
0.051735178 0.063964024 0.77100003 4294967295
0.053335208 0.064130664 0.773 4294967295
0.05480108 0.064131394 0.773 4294967295
0.056339774 0.064215116 0.77399999 4294967295
0.057956979 0.064381823 0.77600002 4294967295
0.059581794 0.064548552 0.778 4294966527
0.064008385 0.064551093 0.778 4293582562
0.065483995 0.064551972 0.778 4293649118
0.066959642 0.064552881 0.778 4294307305
0.068435326 0.064553805 0.778 4294967295
0.069911048 0.064554751 0.778 4294967295
-0.16853927 0.058697883 0.69 4281675324
-0.16722508 0.058695883 0.69 4282725188
-0.1661514 0.058778957 0.69099998 4282132795
-0.15277627 0.059182547 0.69599998 4294967295
-0.15145142 0.059180602 0.69599998 4294967295
-0.15034235 0.05926371 0.69700003 4294967284
-0.14901572 0.059261791 0.69700003 4294967285
-0.14768913 0.059259877 0.69700003 4294967295
-0.055867609 0.054832064 0.64600003 4292069839
-0.054641914 0.054831166 0.64600003 4291872459
-0.053416256 0.054830283 0.64600003 4290623156
-0.052029055 0.054659668 0.64399999 4289175710
-0.050807279 0.05465883 0.64399999 4289174415
-0.049585532 0.054657999 0.64399999 4288648071
-0.048363835 0.054657198 0.64399999 4289105025
-0.046849374 0.05431693 0.63999999 4289499782
-0.045492724 0.05414642 0.63800001 4290747539
-0.044213112 0.054060813 0.63700002 4291142297
0.020710878 0.064398237 0.759 4291082942
0.02214974 0.064398505 0.759 4290688440
0.023650767 0.064568467 0.76099998 4290097066
0.025126414 0.06465362 0.76200002 4289768101
0.026536128 0.064569086 0.76099998 4289832611
0.027978828 0.064569429 0.76099998 4290885299
0.029421553 0.064569801 0.76099998 4291541930
0.030864285 0.064570196 0.76099998 4294963936
0.032307032 0.064570606 0.76099998 4294967295
0.033794157 0.064655893 0.76200002 4294967039
0.035238843 0.064656347 0.76200002 4294044898
0.036683552 0.064656816 0.76200002 4294439656
0.038228355 0.064827025 0.764 4294767865
0.039780755 0.064997241 0.76599997 4294967295
0.041286949 0.065082654 0.76700002 4294967295
0.042741224 0.065083221 0.76700002 4294967295
0.044195533 0.065083802 0.76700002 4294967295
0.04564986 0.065084413 0.76700002 4294967295
0.047227044 0.065254755 0.76899999 4294967295
0.048685227 0.065255411 0.76899999 4294967295
0.050143428 0.065256096 0.76899999 4294967295
0.051601674 0.065256789 0.76899999 4294967295
0.05319795 0.065427236 0.77100003 4294967295
0.054660037 0.065427966 0.77100003 4294967295
0.056267757 0.065598458 0.773 4294967295
0.057733711 0.065599255 0.773 4294967295
0.05927629 0.065684922 0.77399999 4294967295
0.062372934 0.065856338 0.77600002 4294967295
0.063844725 0.065857202 0.77600002 4294967295
0.065148205 0.065688364 0.77399999 4294967295
0.066616297 0.065689281 0.77399999 4294967295
0.068084411 0.065690212 0.77399999 4294967295
0.069552571 0.065691166 0.77399999 4294967295
-0.16805276 0.05983486 0.68800002 4278190096
-0.14969717 0.060326789 0.69400001 4294038986
-0.14837626 0.060324848 0.69400001 4294104779
-0.14126152 0.060661014 0.69800001 4281872898
-0.13993344 0.060659133 0.69800001 4281147685
-0.1386054 0.060657255 0.69800001 4279239688
-0.13727744 0.060655378 0.69800001 4287196514
-0.13594954 0.060653519 0.69800001 4294967295
-0.13500746 0.06082546 0.69999999 4294967295
-0.057094276 0.056058649 0.64600003 4291477700
-0.055868518 0.056057718 0.64600003 4291477702
-0.054642804 0.056056816 0.64600003 4291411908
-0.053417135 0.056055926 0.64600003 4290885301
-0.052029911 0.0558815 0.64399999 4289635234
-0.05072923 0.055793881 0.64300001 4289239949
-0.049432375 0.055706274 0.64200002 4288976520
-0.048064239 0.055531912 0.63999999 4289171855
-0.046850145 0.055531114 0.63999999 4289106062
-0.04549348 0.055356801 0.63800001 4289302921
-0.044213846 0.055269279 0.63700002 4289961108
-0.043005548 0.055268548 0.63700002 4289698963
-0.041797295 0.055267822 0.63700002 4289501583
0.01487687 0.065490127 0.755 4292597202
0.016308138 0.065490305 0.755 4292136651
0.0177864 0.065663971 0.75700003 4292465110
0.019221472 0.065664195 0.75700003 4292662745
0.020656554 0.065664425 0.75700003 4292794330
0.02209164 0.065664671 0.75700003 4293254881
0.023526745 0.065664954 0.75700003 4293123292
0.025027804 0.065838747 0.759 4293057499
0.027905658 0.065839417 0.759 4293517789
0.029344609 0.06583979 0.759 4293582812
0.030783575 0.065840185 0.759 4293846240
0.032307461 0.066014089 0.76099998 4293715180
0.033750255 0.066014528 0.76099998 4293386214
