# .PCD v0.7 - Point Cloud Data file format
VERSION 0.7
FIELDS x y z rgba
SIZE 4 4 4 4
TYPE F F F U
COUNT 1 1 1 1
WIDTH 1077
HEIGHT 1
VIEWPOINT 0 0 0 1 0 0 0
POINTS 1077
DATA ascii
0.065884188 -0.15316436 0.73299998 4293977570
0.067091398 -0.1527473 0.73100001 4293649116
0.068384714 -0.15253919 0.73000002 4293649116
0.069769837 -0.15254006 0.73000002 4293516767
0.07096006 -0.15212303 0.72799999 4293385437
0.072043359 -0.15149707 0.72500002 4293451742
0.073216543 -0.15108003 0.72299999 4293714913
0.07458853 -0.15108098 0.72299999 4293649370
0.075960517 -0.1510819 0.72299999 4293518041
0.077011682 -0.150456 0.72000003 4293517787
0.078269191 -0.15024799 0.71899998 4293517787
0.0794122 -0.14983104 0.71700001 4293648605
0.080660298 -0.14962307 0.71600002 4293582812
0.081790075 -0.14920612 0.71399999 4293385689
0.083028749 -0.14899817 0.713 4293319640
0.08414533 -0.14858127 0.71100003 4293254360
0.085374571 -0.14837332 0.70999998 4293254360
0.086722203 -0.14837438 0.70999998 4293320153
0.087697752 -0.1477485 0.70700002 4293254360
0.089039758 -0.14774957 0.70700002 4293385689
0.090381816 -0.14775068 0.70700002 4293582812
0.091594167 -0.14754277 0.70599997 4293254362
0.092934385 -0.14754386 0.70599997 4293188569
0.094274655 -0.14754501 0.70599997 4293188315
0.09561494 -0.14754611 0.70599997 4293056986
0.09654329 -0.14692031 0.70300001 4293057238
0.097599514 -0.14650345 0.70099998 4293057238
0.098930411 -0.1465046 0.70099998 4293188054
0.10011835 -0.14629677 0.69999999 4293188054
0.10144743 -0.14629793 0.69999999 4293188054
0.10277656 -0.14629908 0.69999999 4293385689
0.10410573 -0.14630027 0.69999999 4293253847
0.10513368 -0.14588347 0.69800001 4293122261
0.10645914 -0.14588466 0.69800001 4293188308
0.10778461 -0.14588585 0.69800001 4293188308
0.10942277 -0.14630507 0.69999999 4293122513
0.11075211 -0.14630628 0.69999999 4293056720
0.11208151 -0.14630748 0.69999999 4293056716
0.1130869 -0.1458907 0.69800001 4292990922
0.11424866 -0.1456829 0.69700003 4292859602
0.11557248 -0.14568414 0.69700003 4292859602
0.11689633 -0.14568536 0.69700003 4292859602
0.11805061 -0.14547759 0.69599998 4292793809
0.1190296 -0.14506078 0.69400001 4292728018
0.12034785 -0.145062 0.69400001 4292728018
0.12166616 -0.14506325 0.69400001 4292793809
0.12298448 -0.1450645 0.69400001 4292859602
0.12430285 -0.14506571 0.69400001 4292728016
0.12562126 -0.14506696 0.69400001 4292728016
0.12730552 -0.14548625 0.69599998 4292727757
0.12862779 -0.1454875 0.69599998 4292398792
0.12995012 -0.14548874 0.69599998 4292398792
0.13127245 -0.14548998 0.69599998 4292398792
0.13259485 -0.14549124 0.69599998 4292201159
0.13391727 -0.14549246 0.69599998 4292135366
0.13523974 -0.14549369 0.69599998 4292004550
0.1365622 -0.14549492 0.69599998 4292004550
0.13748854 -0.14507808 0.69400001 4292135364
0.13880727 -0.14507928 0.69400001 4291872448
0.14012606 -0.14508051 0.69400001 4291806403
0.14144489 -0.14508173 0.69400001 4292069319
0.14317515 -0.14550103 0.69599998 4292069055
0.14449787 -0.14550224 0.69599998 4292135104
0.14582056 -0.14550342 0.69599998 4292069570
0.14714333 -0.14550462 0.69599998 4292135364
0.14867942 -0.14571488 0.69700003 4292070089
0.15021935 -0.14592512 0.69800001 4292004296
0.15198021 -0.14634439 0.69999999 4291872446
0.15331066 -0.14634556 0.69999999 4291806653
0.15486208 -0.14655577 0.70099998 4291674815
0.15619449 -0.14655693 0.70099998 4291674815
0.15752694 -0.14655805 0.70099998 4291609020
0.15885942 -0.14655916 0.70099998 4291477690
0.16019189 -0.14656027 0.70099998 4291345852
0.16152442 -0.14656137 0.70099998 4291280059
0.16285697 -0.14656246 0.70099998 4291149239
0.1641895 -0.1465635 0.70099998 4291149239
0.16599435 -0.14698271 0.70300001 4291083444
0.16756879 -0.14719285 0.704 4290951857
0.16890711 -0.14719388 0.704 4290951859
0.17024545 -0.14719486 0.704 4291083446
0.17207128 -0.14761403 0.70599997 4291017900
0.1736591 -0.14782411 0.70700002 4290689192
0.17525074 -0.14803416 0.708 4290819504
0.17659673 -0.14803509 0.708 4290556588
0.17945075 -0.14929055 0.71399999 4290293934
0.1808082 -0.14929147 0.71399999 4290293934
0.18293105 -0.14991963 0.71700001 4290425000
0.18403718 -0.1497114 0.71600002 4290293414
0.18539847 -0.14971226 0.71600002 4290227621
0.18702061 -0.14992219 0.71700001 4290096035
0.18890925 -0.15034117 0.71899998 4290030496
0.19027625 -0.15034194 0.71899998 4290030496
0.19484174 -0.15285191 0.73100001 4289899167
0.19623154 -0.15285264 0.73100001 4289767838
0.19762139 -0.15285335 0.73100001 4289635484
0.19901118 -0.15285404 0.73100001 4289569691
0.20040101 -0.1528547 0.73100001 4289373345
0.20179082 -0.15285532 0.73100001 4290228398
0.064932562 -0.15280728 0.73799998 4293648605
0.065973237 -0.15197989 0.73400003 4293648605
0.067090549 -0.15135956 0.73100001 4293582812
0.06838385 -0.15115334 0.73000002 4293582812
0.069768973 -0.15115424 0.73000002 4293582814
0.070959166 -0.15074098 0.72799999 4293582814
0.07224118 -0.15053482 0.727 4293451996
0.073418163 -0.15012163 0.72500002 4293517789
0.074587591 -0.14970842 0.72299999 4293386201
0.075959571 -0.14970934 0.72299999 4293386201
0.077010721 -0.14908911 0.72000003 4293254360
0.078268215 -0.14888301 0.71899998 4293386203
0.079411209 -0.14846985 0.71700001 4293451742
0.080771953 -0.14847086 0.71700001 4293451742
0.081789061 -0.14785063 0.71399999 4293255131
0.083027728 -0.14764458 0.713 4293189337
0.084025942 -0.14702439 0.70999998 4293188567
0.085373521 -0.14702542 0.70999998 4293254360
0.086476862 -0.14661232 0.708 4293254360
0.087696694 -0.14640629 0.70700002 4293320153
0.089038685 -0.14640737 0.70700002 4293320153
0.090380728 -0.14640845 0.70700002 4293320153
0.091593072 -0.14620246 0.70599997 4293123544
0.092933282 -0.14620358 0.70599997 4293057751
0.094273537 -0.14620468 0.70599997 4293057499
0.095613793 -0.1462058 0.70599997 4293057499
0.096267492 -0.14517148 0.70099998 4293057238
0.097598359 -0.14517261 0.70099998 4293188567
0.098929279 -0.14517379 0.70099998 4293188567
0.10011718 -0.14496782 0.69999999 4293057238
0.10144626 -0.14496897 0.69999999 4292924112
0.10277538 -0.14497016 0.69999999 4293187541
0.10410455 -0.14497136 0.69999999 4293188054
0.10543375 -0.14497253 0.69999999 4293122261
0.10676298 -0.14497373 0.69999999 4293122261
0.10809224 -0.14497492 0.69999999 4292990674
0.10957788 -0.14518325 0.70099998 4293056466
0.1109091 -0.14518444 0.70099998 4292990672
0.11208029 -0.14497857 0.69999999 4292859343
0.11340971 -0.14497977 0.69999999 4292859343
0.11441137 -0.14456677 0.69800001 4292990674
0.11557126 -0.14436089 0.69700003 4292990674
0.1168951 -0.14436212 0.69700003 4292859602
0.11821897 -0.14436336 0.69700003 4292859602
0.1195429 -0.1443646 0.69700003 4292596435
0.12069344 -0.14415871 0.69599998 4292727764
0.12201553 -0.14415993 0.69599998 4292662995
0.12333767 -0.14416119 0.69599998 4292531153
0.12465982 -0.1441624 0.69599998 4292529870
0.12598203 -0.14416367 0.69599998 4292595663
0.12748718 -0.14437203 0.69700003 4292529870
0.12881137 -0.1443733 0.69700003 4292398540
0.13013558 -0.14437455 0.69700003 4292398538
0.13145985 -0.14437579 0.69700003 4292398538
0.1325936 -0.14416988 0.69599998 4292004548
0.13391605 -0.14417112 0.69599998 4292070341
0.13523848 -0.14417236 0.69599998 4292004548
0.13656098 -0.14417358 0.69599998 4291872961
0.13748732 -0.14376055 0.69400001 4291938241
0.13880606 -0.14376175 0.69400001 4291938241
0.14012484 -0.14376295 0.69400001 4291872448
0.14144368 -0.14376418 0.69400001 4291872448
0.14276254 -0.14376538 0.69400001 4291937469
0.14408146 -0.14376661 0.69400001 4291806140
0.14540036 -0.14376779 0.69400001 4291740093
0.14671932 -0.14376898 0.69400001 4292069057
0.14846492 -0.14418449 0.69599998 4291806914
0.15021817 -0.14459997 0.69800001 4291675585
0.15197903 -0.14501549 0.69999999 4291740606
0.15330949 -0.14501664 0.69999999 4291609020
0.15486093 -0.14522497 0.70099998 4291674300
0.15619336 -0.14522612 0.70099998 4291740093
0.15752581 -0.14522727 0.70099998 4291609017
0.15885828 -0.14522837 0.70099998 4291477688
0.16064784 -0.14564383 0.70300001 4291346104
0.16198418 -0.14564495 0.70300001 4291214262
0.16332053 -0.14564602 0.70300001 4291148469
0.16465691 -0.14564711 0.70300001 4291148469
0.1659933 -0.14564815 0.70300001 4291017651
0.16828182 -0.14647794 0.70700002 4291017651
0.16962586 -0.14647898 0.70700002 4290951857
0.17072812 -0.14627279 0.70599997 4290951857
0.17207028 -0.14627381 0.70599997 4290754481
0.17365815 -0.14648201 0.70700002 4290688688
0.17524977 -0.14669015 0.708 4290688690
0.17659579 -0.14669108 0.708 4290425261
0.17794184 -0.14669204 0.708 4290293162
0.18156698 -0.14855766 0.71700001 4290293162
0.18293016 -0.14855856 0.71700001 4290358442
0.18403636 -0.14835227 0.71600002 4290292649
0.18539762 -0.1483531 0.71600002 4290096039
0.18754143 -0.14897555 0.71899998 4290096039
0.18890846 -0.14897636 0.71899998 4289964960
0.19318651 -0.15125635 0.73000002 4289964960
0.19457448 -0.15125714 0.73000002 4289702304
0.19596238 -0.15125787 0.73000002 4289702304
0.19735034 -0.1512586 0.73000002 4289636002
0.19901055 -0.15146649 0.73100001 4289636002
0.20040037 -0.15146714 0.73100001 4289438888
0.2017902 -0.15146779 0.73100001 4290096562
0.064931743 -0.1514063 0.73799998 4293582810
0.065972418 -0.15058652 0.73400003 4293582810
0.067273259 -0.15038218 0.73299998 4293582812
0.068476669 -0.14997272 0.73100001 4293517019
0.069768094 -0.14976841 0.73000002 4293451996
0.071153209 -0.14976931 0.73000002 4293451996
0.072339639 -0.14935988 0.72799999 4293451996
0.073417254 -0.14874531 0.72500002 4293451996
0.074792974 -0.14874622 0.72500002 4293320153
0.076168753 -0.14874719 0.72500002 4293320153
0.077330627 -0.14833781 0.72299999 4293320153
0.078376099 -0.14772324 0.72000003 4293320153
0.079631738 -0.14751907 0.71899998 4293385951
0.080770947 -0.14710972 0.71700001 4293385951
0.082131706 -0.14711073 0.71700001 4293386203
0.0830267 -0.14629103 0.713 4293451996
0.084024906 -0.14567652 0.70999998 4293254360
0.08537247 -0.14567755 0.70999998 4293386203
0.086475804 -0.14526823 0.708 4293254360
0.087695621 -0.14506413 0.70700002 4293254360
0.089037612 -0.14506522 0.70700002 4293319894
0.090379633 -0.14506628 0.70700002 4293319894
0.091721691 -0.14506739 0.70700002 4293123544
0.093063794 -0.14506847 0.70700002 4293123544
0.094272397 -0.14486443 0.70599997 4293057499
0.094935536 -0.14383957 0.70099998 4292991706
0.096129037 -0.1436355 0.69999999 4293057238
0.097458005 -0.14363664 0.69999999 4293057238
0.098928116 -0.14384297 0.70099998 4293254360
0.10025904 -0.14384413 0.70099998 4293188567
0.10159003 -0.14384528 0.70099998 4292990423
0.10292104 -0.14384647 0.70099998 4293056216
0.10425208 -0.14384763 0.70099998 4293188308
0.10558316 -0.14384884 0.70099998 4293188308
0.10721933 -0.14426045 0.70300001 4293056468
0.10855428 -0.14426163 0.70300001 4292990674
0.10957665 -0.14385243 0.70099998 4292990674
0.11090789 -0.14385362 0.70099998 4292990674
0.11223917 -0.14385484 0.70099998 4292990420
0.1135705 -0.14385608 0.70099998 4292859091
0.11473796 -0.14365211 0.69999999 4292990161
0.11606745 -0.14365333 0.69999999 4292990161
0.11739698 -0.14365456 0.69999999 4292859089
0.11838734 -0.14324535 0.69800001 4292990674
0.11971316 -0.14324661 0.69800001 4292596437
0.12086563 -0.14304262 0.69700003 4292596437
0.12218962 -0.14304388 0.69700003 4292595665
0.12351363 -0.14304508 0.69700003 4292529872
0.12483772 -0.14304636 0.69700003 4292529870
0.12616181 -0.14304757 0.69700003 4292529870
0.12748596 -0.14304884 0.69700003 4292332747
0.12881014 -0.14305007 0.69700003 4292266954
0.13013434 -0.14305131 0.69700003 4292201159
0.13164721 -0.14325783 0.69800001 4292201159
0.13278288 -0.1430538 0.69700003 4292201411
0.13410722 -0.14305505 0.69700003 4292201411
0.13543157 -0.14305629 0.69700003 4292069568
0.13655974 -0.14285225 0.69599998 4291806653
0.13788228 -0.1428535 0.69599998 4291872194
0.13880485 -0.14244425 0.69400001 4291937987
0.14012364 -0.14244545 0.69400001 4292003262
0.14144246 -0.14244665 0.69400001 4292003262
0.14276133 -0.14244787 0.69400001 4291740093
0.14408025 -0.1424491 0.69400001 4291740093
0.14539915 -0.14245026 0.69400001 4291674561
0.14671813 -0.14245147 0.69400001 4292069319
0.14846374 -0.14286315 0.69599998 4291806653
0.1506474 -0.14368542 0.69999999 4291806653
0.15197785 -0.14368658 0.69999999 4291740606
0.15352736 -0.14389303 0.70099998 4291477690
0.15485977 -0.14389417 0.70099998 4291609020
0.15619221 -0.14389533 0.70099998 4291609020
0.15752469 -0.14389648 0.70099998 4291477942
0.15885717 -0.14389758 0.70099998 4291412149
0.16064672 -0.14430928 0.70300001 4291280309
0.16198307 -0.14431038 0.70300001 4291214516
0.16285479 -0.1439009 0.70099998 4291017139
0.16418739 -0.14390197 0.70099998 4291017139
0.16552 -0.14390305 0.70099998 4291017137
0.1682808 -0.14513582 0.70700002 4291148467
0.16962484 -0.14513685 0.70700002 4290885551
0.17072707 -0.14493257 0.70599997 4290753965
0.1720693 -0.14493358 0.70599997 4290556336
0.17513089 -0.14637162 0.713 4290556336
0.17574383 -0.14575669 0.70999998 4290621611
0.17709371 -0.14575768 0.70999998 4290490025
0.17944889 -0.1465798 0.71399999 4290490023
0.18131287 -0.14699133 0.71600002 4290292901
0.18267412 -0.14699222 0.71600002 4290160808
0.18403548 -0.14699312 0.71600002 4290095015
0.18539679 -0.14699398 0.71600002 4290095013
0.18701895 -0.14720011 0.71700001 4290095013
0.18838218 -0.14720093 0.71700001 4289964447
0.19318573 -0.14987065 0.73000002 4290030496
0.19457367 -0.14987144 0.73000002 4289702045
0.19596164 -0.1498722 0.73000002 4289570458
0.19734964 -0.14987293 0.73000002 4289569954
0.19900985 -0.15007894 0.73100001 4289504161
0.20039971 -0.15007962 0.73100001 4289373354
0.20178954 -0.15008026 0.73100001 4289899699
0.068475805 -0.14858508 0.73100001 4293386203
0.069862783 -0.14858595 0.73100001 4293386203
0.071152322 -0.14838354 0.73000002 4293451996
0.072338738 -0.14797792 0.72799999 4293385949
0.073618844 -0.14777558 0.727 4293385949
0.074792042 -0.14736997 0.72500002 4293386203
0.0761678 -0.14737092 0.72500002 4293386203
0.077329665 -0.14696531 0.72299999 4293386203
0.078592837 -0.14676301 0.722 4293386203
0.0797415 -0.14635748 0.72000003 4293255135
0.080995239 -0.14615518 0.71899998 4293189085
0.082130693 -0.14574964 0.71700001 4293320153
0.083375022 -0.14554739 0.71600002 4293254360
0.084378913 -0.14493857 0.713 4292925652
0.085491695 -0.14453304 0.71100003 4293188567
0.086841181 -0.1445341 0.71100003 4293188567
0.088066667 -0.14433187 0.70999998 4293254360
0.089414336 -0.14433295 0.70999998 4293254360
0.09037856 -0.14372417 0.70700002 4293254360
0.091590881 -0.14352196 0.70599997 4293057751
0.092931055 -0.14352307 0.70599997 4292991958
0.094271287 -0.14352417 0.70599997 4293057238
0.094934426 -0.14250883 0.70099998 4293188567
0.096127898 -0.14230664 0.69999999 4293057238
0.097456858 -0.1423078 0.69999999 4292991445
0.098926969 -0.1425122 0.70099998 4293122261
0.1002579 -0.14251338 0.70099998 4293122261
0.10158885 -0.14251453 0.70099998 4293056468
0.10291985 -0.1425157 0.70099998 4293122261
0.10425089 -0.14251688 0.70099998 4293188308
0.10603383 -0.14312799 0.704 4293056466
0.10737063 -0.14312918 0.704 4292990674
0.1087075 -0.14313039 0.704 4292859089
0.10988808 -0.14292829 0.70300001 4292990159
0.11122312 -0.14292952 0.70300001 4293055952
0.1125582 -0.14293075 0.70300001 4292990161
0.11356927 -0.1425253 0.70099998 4292990161
0.11490063 -0.14252654 0.70099998 4292990161
0.11606623 -0.14232445 0.69999999 4293055954
0.11739576 -0.1423257 0.69999999 4292924112
0.11838613 -0.14192028 0.69800001 4292924112
0.11971193 -0.14192152 0.69800001 4292530642
0.12103779 -0.14192277 0.69800001 4292464849
0.12236367 -0.14192401 0.69800001 4292464847
0.1236896 -0.14192523 0.69800001 4292464847
0.12501556 -0.1419265 0.69800001 4292399054
0.12634157 -0.14192773 0.69800001 4292399054
0.12803341 -0.14233565 0.69999999 4292332745
0.1293633 -0.14233689 0.69999999 4292266952
0.1306932 -0.14233816 0.69999999 4292201157
0.13202316 -0.14233941 0.69999999 4292135364
0.13297217 -0.14193398 0.69800001 4291938239
0.13429838 -0.14193521 0.69800001 4291938239
0.13543035 -0.14173311 0.69700003 4292003262
0.13675475 -0.14173435 0.69700003 4291937469
0.13807915 -0.14173557 0.69700003 4291937471
0.13940366 -0.14173681 0.69700003 4291937471
0.14052622 -0.14153467 0.69599998 4291806655
0.14144129 -0.14112918 0.69400001 4291806655
0.14276014 -0.14113039 0.69400001 4291609020
0.14407903 -0.14113158 0.69400001 4291674813
0.145817 -0.14153951 0.69599998 4291740093
0.14713974 -0.14154069 0.69599998 4291806142
0.14846253 -0.14154188 0.69599998 4291609020
0.1508614 -0.14255989 0.70099998 4291674813
0.15219378 -0.14256108 0.70099998 4291674813
0.15352619 -0.14256227 0.70099998 4291411897
0.15530044 -0.14297017 0.70300001 4291411897
0.15663669 -0.14297132 0.70300001 4291411897
0.15797298 -0.14297248 0.70300001 4291346102
0.15930928 -0.1429736 0.70300001 4291280309
0.16064562 -0.14297473 0.70300001 4291148469
0.16152111 -0.14256907 0.70099998 4291017139
0.16285373 -0.14257017 0.70099998 4291017139
0.16418633 -0.14257126 0.70099998 4290951346
0.16551897 -0.14257233 0.70099998 4290885551
0.16827974 -0.14379369 0.70700002 4290885551
0.16962379 -0.14379472 0.70700002 4290753711
0.17096792 -0.14379576 0.70700002 4290687918
0.17231204 -0.1437968 0.70700002 4290687406
0.17512989 -0.14501813 0.713 4290555564
0.17648546 -0.14501911 0.713 4290555818
0.17784107 -0.14502008 0.713 4290490025
0.17944795 -0.14522442 0.71399999 4290292901
0.18080546 -0.14522535 0.71399999 4290292901
0.18216299 -0.14522628 0.71399999 4290095265
0.18403459 -0.14563398 0.71600002 4290095265
0.18539591 -0.14563484 0.71600002 4290029472
0.18675728 -0.14563568 0.71600002 4289898143
0.18811864 -0.14563651 0.71600002 4289635738
0.19318493 -0.14848499 0.73000002 4289569945
0.19457291 -0.14848576 0.73000002 4289569945
0.19596092 -0.14848655 0.73000002 4289569945
0.19761927 -0.1486907 0.73100001 4289373091
0.19900914 -0.14869142 0.73100001 4289373091
0.20039904 -0.1486921 0.73100001 4289242025
0.068474941 -0.14719746 0.73100001 4293320153
0.069861904 -0.14719832 0.73100001 4293451996
0.071151435 -0.14699787 0.73000002 4293517789
0.072536558 -0.14699873 0.73000002 4293516767
0.073719181 -0.14659689 0.72799999 4293385437
0.074997433 -0.14639647 0.727 4293320153
0.076166861 -0.14599469 0.72500002 4293320153
0.077328697 -0.14559288 0.72299999 4293517019
0.078591861 -0.14539248 0.722 4293517019
0.079740517 -0.14499073 0.72000003 4293385689
0.080994256 -0.14479034 0.71899998 4293319640
0.082358763 -0.14479131 0.71899998 4293254360
0.083490439 -0.14438958 0.71700001 4293254360
0.084732912 -0.14418925 0.71600002 4293057238
0.085851356 -0.1437875 0.71399999 4293188567
0.08684013 -0.14318442 0.71100003 4293188054
0.088065609 -0.14298408 0.70999998 4293253847
0.089413248 -0.14298514 0.70999998 4293319640
0.090377465 -0.14238206 0.70700002 4293319640
0.091589764 -0.14218174 0.70599997 4293057238
0.092929959 -0.14218284 0.70599997 4292991445
0.094270185 -0.14218397 0.70599997 4292991445
0.095204145 -0.14158089 0.70300001 4292991445
0.09612678 -0.14097784 0.69999999 4293056468
0.097455718 -0.14097896 0.69999999 4293056468
0.098925814 -0.14118151 0.70099998 4292990674
0.10025673 -0.14118265 0.70099998 4292990674
0.10158769 -0.14118382 0.70099998 4293056466
0.10291868 -0.14118497 0.70099998 4293056466
0.10424972 -0.14118616 0.70099998 4292990672
0.10603264 -0.14179158 0.704 4292859343
0.10736943 -0.14179274 0.704 4292859343
0.10870629 -0.14179395 0.704 4292859343
0.10988687 -0.14159377 0.70300001 4292859089
0.11122189 -0.14159496 0.70300001 4292793296
0.11255695 -0.14159618 0.70300001 4292793298
0.11356805 -0.14119455 0.70099998 4292793298
0.1148994 -0.14119577 0.70099998 4292793296
0.1162308 -0.14119703 0.70099998 4292793296
0.11739452 -0.14099683 0.69999999 4292793296
0.11872409 -0.14099807 0.69999999 4292727503
0.1200537 -0.1409993 0.69999999 4292464847
0.12103654 -0.1405977 0.69800001 4292464847
0.12236243 -0.14059894 0.69800001 4292465101
0.12368836 -0.14060017 0.69800001 4292399051
0.12501432 -0.14060143 0.69800001 4292595917
0.12634031 -0.14060265 0.69800001 4292530123
0.12803215 -0.14100677 0.69999999 4292332745
0.12936205 -0.14100803 0.69999999 4292201159
0.13069198 -0.1410093 0.69999999 4292201157
0.1320219 -0.14101052 0.69999999 4292069570
0.13335191 -0.14101179 0.69999999 4292003264
0.13429712 -0.14061014 0.69800001 4291937471
0.1354291 -0.14040992 0.69700003 4291806655
0.1367535 -0.14041115 0.69700003 4291806655
0.13807794 -0.14041239 0.69700003 4291806140
0.1394024 -0.14041361 0.69700003 4291740347
0.14072692 -0.14041485 0.69700003 4291740858
0.14144005 -0.13981169 0.69400001 4291740858
0.14275894 -0.13981292 0.69400001 4291609020
0.14407785 -0.13981414 0.69400001 4291609020
0.14581579 -0.14021823 0.69599998 4291740093
0.14713858 -0.14021944 0.69599998 4291740093
0.14846137 -0.14022061 0.69599998 4291674300
0.15086024 -0.14122914 0.70099998 4291674300
0.15219261 -0.14123031 0.70099998 4291674813
0.15352501 -0.14123151 0.70099998 4291411897
0.15529928 -0.14163563 0.70300001 4291346363
0.15663554 -0.14163679 0.70300001 4291346363
0.15797181 -0.14163791 0.70300001 4291215032
0.15930814 -0.14163905 0.70300001 4291083446
0.1606445 -0.14164019 0.70300001 4291016887
0.16152005 -0.14123835 0.70099998 4291016887
0.16285263 -0.14123942 0.70099998 4290951346
0.16418524 -0.14124052 0.70099998 4290819504
0.1655179 -0.1412416 0.70099998 4290819504
0.16827866 -0.14245158 0.70700002 4290819504
0.16962278 -0.14245264 0.70700002 4290425263
0.17096689 -0.14245366 0.70700002 4290293934
0.17255473 -0.14265616 0.708 4290555564
0.1739008 -0.14265718 0.708 4290489771
0.17598945 -0.14326265 0.71100003 4290292649
0.17734122 -0.14326361 0.71100003 4290161062
0.179447 -0.14386906 0.71399999 4290226594
0.18080457 -0.14387003 0.71399999 4290160545
0.18216206 -0.14387091 0.71399999 4290095006
0.18351962 -0.1438718 0.71399999 4290028957
0.18539506 -0.14427572 0.71600002 4289832348
0.18675643 -0.14427656 0.71600002 4289832348
0.18811782 -0.14427738 0.71600002 4289767070
0.19344875 -0.14730081 0.73100001 4289569691
0.19483869 -0.14730161 0.73100001 4289504661
0.19622858 -0.14730237 0.73100001 4289504661
0.19761854 -0.14730313 0.73100001 4289635236
0.19900845 -0.14730386 0.73100001 4290358703
0.20039834 -0.14730455 0.73100001 4289702824
0.069129787 -0.14720616 0.73799998 4293385689
0.070052169 -0.14620969 0.73299998 4293517019
0.071442939 -0.14621057 0.73299998 4293517019
0.072833739 -0.14621148 0.73299998 4293385435
0.073920794 -0.14561397 0.73000002 4293385435
0.074996494 -0.14501649 0.727 4293385689
0.0761659 -0.14461848 0.72500002 4293319640
0.077327751 -0.14422049 0.72299999 4293385689
0.078590892 -0.14402197 0.722 4293385689
0.079739526 -0.14362401 0.72000003 4293385689
0.08099325 -0.14342551 0.71899998 4293319640
0.082357757 -0.14342651 0.71899998 4293254360
0.083489418 -0.14302856 0.71700001 4293254360
0.084731869 -0.14283012 0.71600002 4293319640
0.085850321 -0.14243218 0.71399999 4293319640
0.087083347 -0.14223374 0.713 4293384915
0.088188589 -0.14183584 0.71100003 4293384915
0.089412175 -0.1416374 0.70999998 4293253847
0.090376392 -0.14104001 0.70700002 4293319640
0.091588683 -0.1408416 0.70599997 4293057238
0.092928864 -0.14084269 0.70599997 4292925652
0.094269052 -0.14084379 0.70599997 4292926163
0.095338456 -0.14044592 0.704 4292926163
0.096674956 -0.14044705 0.704 4292991443
0.098289914 -0.14084718 0.70599997 4292925650
0.099348038 -0.14044933 0.704 4293056468
0.10068464 -0.14045048 0.704 4293056468
0.10231111 -0.14085063 0.70599997 4293056466
0.10335796 -0.1404528 0.704 4293122259
0.10469468 -0.14045398 0.704 4292990672
0.10603144 -0.14045516 0.704 4292859343
0.10767328 -0.1408554 0.70599997 4292859089
0.1087051 -0.14045756 0.704 4292859089
0.10988566 -0.14025924 0.70300001 4292793809
0.11122069 -0.14026044 0.70300001 4292793809
0.11255575 -0.14026168 0.70300001 4292596687
0.11356683 -0.13986385 0.70099998 4292530894
0.11489817 -0.13986507 0.70099998 4292530894
0.11622957 -0.13986629 0.70099998 4292530894
0.1173933 -0.139668 0.69999999 4292530894
0.11872286 -0.13966925 0.69999999 4292530894
0.12005247 -0.13967049 0.69999999 4292333258
0.1210353 -0.13927266 0.69800001 4292333258
0.12236118 -0.1392739 0.69800001 4292399305
0.12404151 -0.1396742 0.69999999 4292399305
0.12537126 -0.13967544 0.69999999 4292399305
0.12670107 -0.13967671 0.69999999 4292267719
0.12821381 -0.13987747 0.70099998 4292201157
0.12954558 -0.13987873 0.70099998 4292201157
0.13087742 -0.13987999 0.70099998 4292135364
0.13202067 -0.13968168 0.69999999 4292069570
0.13335067 -0.13968295 0.69999999 4291872446
0.13429588 -0.13928509 0.69800001 4291872446
0.13542786 -0.13908678 0.69700003 4291806653
0.13675226 -0.13908802 0.69700003 4291740860
0.13807674 -0.13908926 0.69700003 4291675067
0.13940117 -0.13909046 0.69700003 4291675067
0.1407257 -0.1390917 0.69700003 4291675067
0.14205025 -0.13909291 0.69700003 4291675067
0.14316912 -0.13889457 0.69599998 4291411897
0.14449182 -0.13889576 0.69599998 4291609020
0.14581458 -0.13889697 0.69599998 4291805369
0.14925143 -0.14089385 0.70599997 4291871163
0.15059322 -0.14089505 0.70599997 4291674553
0.15128948 -0.14029755 0.70300001 4291674553
0.15262565 -0.14029872 0.70300001 4291609020
0.15396187 -0.1402999 0.70300001 4291346104
0.15529811 -0.14030108 0.70300001 4291149239
0.15663439 -0.14030224 0.70300001 4291346617
0.15797067 -0.14030337 0.70300001 4291412410
0.15930702 -0.14030454 0.70300001 4291083446
0.16064337 -0.14030564 0.70300001 4290951605
0.16851562 -0.14130905 0.708 4290622895
0.16986166 -0.14131013 0.708 4290293162
0.17120768 -0.14131117 0.708 4290358955
0.17255373 -0.14131218 0.708 4290555564
0.1738998 -0.1413132 0.708 4290226855
0.17598848 -0.14191298 0.71100003 4290029220
0.17734025 -0.14191394 0.71100003 4289897891
0.17944603 -0.14251371 0.71399999 4290028959
0.18080358 -0.14251463 0.71399999 4290028959
0.18216115 -0.14251557 0.71399999 4289898141
0.18351872 -0.14251646 0.71399999 4289832348
0.18539417 -0.14291656 0.71600002 4289635738
0.1867556 -0.14291744 0.71600002 4289635738
0.18811701 -0.14291827 0.71600002 4289635488
0.19344792 -0.14591321 0.73100001 4289635488
0.19483788 -0.14591402 0.73100001 4289504663
0.19622782 -0.14591482 0.73100001 4289175699
0.1976178 -0.14591558 0.73100001 4289765537
0.19900769 -0.1459163 0.73100001 4291476155
0.20039767 -0.14591701 0.73100001 4291214307
0.069128931 -0.14580536 0.73799998 4293517019
0.070529133 -0.14580622 0.73799998 4293254360
0.071539514 -0.14501683 0.73400003 4293188567
0.072932206 -0.14501774 0.73400003 4293254360
0.07422366 -0.14482105 0.73299998 4293451996
0.075305045 -0.14422929 0.73000002 4293254360
0.076164953 -0.14324233 0.72500002 4293188567
0.077540703 -0.14324328 0.72500002 4293319640
0.078589924 -0.14265151 0.722 4293319640
0.07973855 -0.14225733 0.72000003 4293319640
0.080992259 -0.14206074 0.71899998 4293385689
0.082356751 -0.14206174 0.71899998 4293385689
0.083721288 -0.14206275 0.71899998 4293253847
0.084849179 -0.1416686 0.71700001 4293254101
0.08620999 -0.14166963 0.71700001 4293254101
0.087448701 -0.1414731 0.71600002 4293319374
0.088187516 -0.14048621 0.71100003 4293385167
0.08941111 -0.14028968 0.70999998 4293253847
0.090375319 -0.139698 0.70700002 4293122261
0.091717333 -0.13969907 0.70700002 4293122261
0.093059383 -0.13970016 0.70700002 4293122261
0.094267949 -0.13950366 0.70599997 4292991443
0.095337331 -0.13910958 0.704 4292991443
0.096673831 -0.13911073 0.704 4292990672
0.09828876 -0.13950703 0.70599997 4292859343
0.099629119 -0.13950817 0.70599997 4293056720
0.10096953 -0.13950935 0.70599997 4293056720
0.10230994 -0.13951048 0.70599997 4293056720
0.10365042 -0.13951167 0.70599997 4293056720
0.10499091 -0.13951282 0.70599997 4292990670
0.10633148 -0.139514 0.70599997 4292793548
0.10767207 -0.13951522 0.70599997 4292793550
0.10870389 -0.1391212 0.704 4292793550
0.11004075 -0.13912238 0.704 4292859856
0.11137767 -0.1391236 0.704 4292859856
0.11255452 -0.13892719 0.70300001 4292530894
0.11388963 -0.1389284 0.70300001 4292530894
0.11489695 -0.1385344 0.70099998 4292595917
0.11622833 -0.13853562 0.70099998 4292398538
0.11755976 -0.13853684 0.70099998 4292529870
0.11889123 -0.13853808 0.70099998 4292595663
0.12005123 -0.13834168 0.69999999 4292530119
0.12138087 -0.1383429 0.69999999 4292398790
0.12271056 -0.13834415 0.69999999 4292333512
0.12404028 -0.13834541 0.69999999 4292399305
0.12537001 -0.13834663 0.69999999 4292398790
0.12669984 -0.13834789 0.69999999 4292135618
0.12821257 -0.13854678 0.70099998 4292135364
0.12954435 -0.13854803 0.70099998 4292135364
0.13087617 -0.13854928 0.70099998 4291938239
0.13220802 -0.13855051 0.70099998 4291806653
0.13334942 -0.13835412 0.69999999 4292003262
0.13467945 -0.13835537 0.69999999 4292003262
0.13562094 -0.1379613 0.69800001 4291674813
0.13694724 -0.13796255 0.69800001 4291609020
0.13807547 -0.13776612 0.69700003 4291609271
0.13939996 -0.13776734 0.69700003 4291609271
0.14072448 -0.13776858 0.69700003 4291609017
0.14204904 -0.13776979 0.69700003 4291609017
0.14316791 -0.13757335 0.69599998 4291477688
0.14449061 -0.13757454 0.69599998 4291477688
0.14790839 -0.1395524 0.70599997 4291608504
0.14925019 -0.13955362 0.70599997 4291608504
0.15059201 -0.13955483 0.70599997 4291739574
0.1521491 -0.1397537 0.70700002 4291739574
0.1534929 -0.13975492 0.70700002 4291411895
0.15417971 -0.13916306 0.704 4291148467
0.15529694 -0.13896656 0.70300001 4291083446
0.15663321 -0.13896771 0.70300001 4291215032
0.15796953 -0.13896887 0.70300001 4291149491
0.16064225 -0.13897115 0.70300001 4290951857
0.1692286 -0.14055814 0.71100003 4290557102
0.17034039 -0.14036149 0.70999998 4290292908
0.17241573 -0.14095564 0.713 4290292908
0.17377129 -0.14095667 0.713 4290292899
0.1751269 -0.1409577 0.713 4290029470
0.1764825 -0.1409587 0.713 4289897893
0.17783813 -0.14095967 0.713 4289897893
0.17944507 -0.14115834 0.71399999 4289832098
0.18080267 -0.1411593 0.71399999 4289832098
0.1826705 -0.14155564 0.71600002 4289832350
0.18403192 -0.14155658 0.71600002 4289832350
0.1853933 -0.14155744 0.71600002 4289700759
0.18675472 -0.1415583 0.71600002 4289634966
0.1891671 -0.14235 0.72000003 4289569439
0.19053616 -0.14235084 0.72000003 4289569439
0.19483709 -0.14452647 0.73100001 4289569439
0.19622703 -0.14452726 0.73100001 4289174937
0.19761704 -0.14452802 0.73100001 4289633949
0.19900699 -0.14452875 0.73100001 4294305252
0.20039696 -0.14452948 0.73100001 4294437887
0.070528261 -0.14440547 0.73799998 4293319894
0.071733564 -0.144015 0.736 4293319894
0.073130026 -0.14401591 0.736 4293188567
0.074526519 -0.14401682 0.736 4293320153
0.075407274 -0.14303938 0.73100001 4293254614
0.076479174 -0.14245325 0.72799999 4293254614
0.077539742 -0.14186718 0.72500002 4293319640
0.078915507 -0.14186814 0.72500002 4293319640
0.08006981 -0.14147775 0.72299999 4293188054
0.081441842 -0.14147875 0.72299999 4293253847
0.082699373 -0.14128405 0.722 4293319642
0.083836704 -0.14089368 0.72000003 4293253849
0.085084826 -0.14069904 0.71899998 4293188308
0.08620894 -0.14030869 0.71700001 4293122259
0.087569788 -0.14030974 0.71700001 4293056720
0.088930659 -0.14031081 0.71700001 4293188306
0.089535974 -0.1391377 0.71100003 4293188054
0.090502068 -0.1385517 0.708 4293122261
0.091716245 -0.13835709 0.70700002 4292859089
0.093058288 -0.13835818 0.70700002 4292990674
0.094400376 -0.13835928 0.70700002 4293056466
0.095742494 -0.1383604 0.70700002 4293056466
0.097084649 -0.13836151 0.70700002 4292859343
0.098426849 -0.13836263 0.70700002 4292793550
0.099769108 -0.13836379 0.70700002 4292793550
0.10111138 -0.13836494 0.70700002 4292793550
0.10245369 -0.13836607 0.70700002 4292727242
0.10364925 -0.13817155 0.70599997 4292924364
0.10498976 -0.13817273 0.70599997 4292924366
0.10633028 -0.13817389 0.70599997 4292858573
0.10767088 -0.1381751 0.70599997 4292858573
0.10870268 -0.13778484 0.704 4292858573
0.11003955 -0.13778605 0.704 4292596687
0.11137646 -0.13778725 0.704 4292596687
0.11255331 -0.13759275 0.70300001 4292530121
0.1134024 -0.13700679 0.69999999 4292530121
0.11473183 -0.13700801 0.69999999 4292595917
0.11606133 -0.13700923 0.69999999 4292332745
0.11739084 -0.13701044 0.69999999 4292463817
0.11889 -0.13720742 0.70099998 4292595403
0.12005 -0.13701293 0.69999999 4292465099
0.12137964 -0.13701414 0.69999999 4292136134
0.12270931 -0.13701539 0.69999999 4292135364
0.12403903 -0.13701662 0.69999999 4292135364
0.12536879 -0.13701785 0.69999999 4292135618
0.12669857 -0.1370191 0.69999999 4292069568
0.12821132 -0.13721609 0.70099998 4292069568
0.1295431 -0.13721733 0.70099998 4292069568
0.13087492 -0.13721858 0.70099998 4291937469
0.13220678 -0.13721983 0.70099998 4291937469
0.13353868 -0.13722107 0.70099998 4291609017
0.13467821 -0.13702658 0.69999999 4291675067
0.13561967 -0.1366363 0.69800001 4291411895
0.13694599 -0.13663754 0.69800001 4291477688
0.13827236 -0.13663879 0.69800001 4291478201
0.13959871 -0.13664 0.69800001 4291478201
0.14092514 -0.13664123 0.69800001 4291412408
0.14204784 -0.1364467 0.69700003 4291412408
0.1433724 -0.13644791 0.69700003 4291477688
0.14469701 -0.13644908 0.69700003 4291411895
0.14748819 -0.13782069 0.704 4291542711
0.149249 -0.13821344 0.70599997 4291476918
0.15059082 -0.13821463 0.70599997 4291279796
0.1521479 -0.13841163 0.70700002 4291345589
0.15349171 -0.13841282 0.70700002 4291279542
0.15461652 -0.13821821 0.70599997 4291213749
0.1559585 -0.1382194 0.70599997 4290951857
0.15730049 -0.13822055 0.70599997 4290951857
0.15864249 -0.1382217 0.70599997 4290885551
0.15998456 -0.13822287 0.70599997 4290885551
0.16652413 -0.13920631 0.71100003 4290621611
0.1678758 -0.13920738 0.71100003 4290621863
0.16922754 -0.13920848 0.71100003 4290621863
0.17033933 -0.13901372 0.70999998 4290162342
0.17168921 -0.13901478 0.70999998 4289964962
0.17328283 -0.13921162 0.71100003 4290161062
0.17463464 -0.13921264 0.71100003 4290095013
0.17672904 -0.13980104 0.71399999 4289832611
0.17808658 -0.13980204 0.71399999 4289766818
0.17944413 -0.13980302 0.71399999 4289766304
0.18130818 -0.14019556 0.71600002 4289700511
0.18266959 -0.14019652 0.71600002 4289700507
0.18403098 -0.14019743 0.71600002 4289700507
0.18642813 -0.14098154 0.72000003 4289503898
0.18779719 -0.14098245 0.72000003 4289438105
0.18916625 -0.1409833 0.72000003 4289437855
0.19483627 -0.14313889 0.73100001 4289437855
0.19622625 -0.14313969 0.73100001 4288714132
0.19761623 -0.14314047 0.73100001 4288713310
0.19900623 -0.14314121 0.73100001 4292858269
0.063473739 -0.1461001 0.75400001 4292792251
0.064904116 -0.14610089 0.75400001 4293450181
0.067405447 -0.14532743 0.75 4293056466
0.068736561 -0.14513452 0.74900001 4293254351
0.070157565 -0.14513537 0.74900001 4293320144
0.071578607 -0.14513625 0.74900001 4293254097
0.071927585 -0.14300562 0.73799998 4293254097
0.073129117 -0.14261897 0.736 4293254099
0.074221812 -0.14203854 0.73299998 4293319892
0.075612649 -0.14203948 0.73299998 4293320146
0.076793395 -0.14165285 0.73100001 4293320146
0.077752694 -0.14087868 0.727 4293319892
0.078914523 -0.14049208 0.72500002 4293319892
0.080068812 -0.14010546 0.72299999 4293188054
0.081440844 -0.14010647 0.72299999 4293253847
0.08269836 -0.13991366 0.722 4293319642
0.084068574 -0.13991469 0.722 4293188056
0.085202143 -0.13952814 0.72000003 4293122261
0.086448379 -0.13933538 0.71899998 4293122261
0.08781299 -0.13933642 0.71899998 4293122261
0.088929586 -0.13894989 0.71700001 4293122261
0.090164557 -0.13875715 0.71600002 4293187802
0.090884469 -0.13778925 0.71100003 4293187802
0.092104331 -0.13759653 0.70999998 4292990420
0.093452051 -0.13759762 0.70999998 4292990420
0.094532788 -0.13721113 0.708 4292859602
0.095876805 -0.13721225 0.708 4292859602
0.097220853 -0.13721336 0.708 4292728016
0.098564945 -0.13721448 0.708 4292728016
0.099909067 -0.13721564 0.708 4292793550
0.10125323 -0.13721678 0.708 4292793550
0.10245252 -0.13702413 0.70700002 4292793550
0.10379489 -0.13702528 0.70700002 4292793550
0.1051373 -0.13702647 0.70700002 4292727757
0.10647973 -0.13702764 0.70700002 4292727757
0.1076697 -0.13683501 0.70599997 4292727244
0.1087015 -0.13644856 0.704 4292727244
0.11003836 -0.13644975 0.704 4292661708
0.11137525 -0.13645095 0.704 4292595915
0.1125521 -0.13625833 0.70300001 4292530121
0.11340119 -0.13567808 0.69999999 4292530121
0.11473062 -0.13567929 0.69999999 4292463817
0.11606011 -0.13568051 0.69999999 4292463817
0.1173896 -0.13568172 0.69999999 4292397768
0.11888876 -0.13587679 0.70099998 4292397768
0.12004877 -0.13568419 0.69999999 4292136134
0.12137839 -0.13568541 0.69999999 4292004548
0.12270807 -0.13568664 0.69999999 4291938754
0.12403778 -0.13568789 0.69999999 4292004548
0.12536754 -0.13568911 0.69999999 4292004548
0.12669733 -0.13569035 0.69999999 4291872961
0.12857586 -0.13627312 0.70300001 4292069055
0.12991144 -0.13627437 0.70300001 4292003262
0.13124707 -0.13627566 0.70300001 4292003516
0.13220553 -0.13588917 0.70099998 4292003516
0.13353741 -0.13589042 0.70099998 4291740347
0.13486937 -0.13589166 0.70099998 4291740347
0.13600703 -0.13569905 0.69999999 4291477690
0.13694476 -0.13531257 0.69800001 4291477690
0.13827112 -0.13531381 0.69800001 4291478201
0.13959749 -0.13531502 0.69800001 4291478201
0.14092393 -0.13531624 0.69800001 4291477688
0.14225039 -0.13531747 0.69800001 4291411895
0.14398827 -0.13570639 0.69999999 4291412149
0.14552622 -0.13590151 0.70099998 4291412149
0.14748697 -0.13648431 0.704 4291476918
0.14924778 -0.13687328 0.70599997 4291345589
0.15058962 -0.13687447 0.70599997 4291279544
0.1521467 -0.13706955 0.70700002 4291213751
0.15349051 -0.13707076 0.70700002 4291213749
0.15461534 -0.13687804 0.70599997 4291213749
0.15595733 -0.13687922 0.70599997 4291017137
0.15729932 -0.1368804 0.70599997 4290951344
0.15864137 -0.13688155 0.70599997 4290885551
0.16787471 -0.13785772 0.71100003 4290425252
0.16922647 -0.13785882 0.71100003 4290359459
0.1703383 -0.13766599 0.70999998 4290227617
0.17168818 -0.13766703 0.70999998 4289832859
0.17303808 -0.13766807 0.70999998 4289897893
0.17463364 -0.13786301 0.71100003 4289897893
0.17648052 -0.13825181 0.713 4289832348
0.17808557 -0.1384467 0.71399999 4289766554
0.17944317 -0.13844769 0.71399999 4289700511
0.18130723 -0.13883646 0.71600002 4289634462
0.18266863 -0.13883738 0.71600002 4289634714
0.18428712 -0.13903223 0.71700001 4289634714
0.18642725 -0.13961487 0.72000003 4289437853
0.18779631 -0.13961576 0.72000003 4289437853
0.19190361 -0.13961828 0.72000003 4289569702
0.062289484 -0.1452439 0.75700003 4290751914
0.063472964 -0.14466909 0.75400001 4292002999
0.064903311 -0.14466988 0.75400001 4293384652
0.066421673 -0.14486255 0.755 4293056720
0.067314751 -0.14371215 0.74900001 4293056720
0.06846039 -0.14313735 0.74599999 4293122511
0.069875695 -0.1431382 0.74599999 4293188304
0.070813209 -0.1421797 0.741 4293188819
0.071926706 -0.14160495 0.73799998 4293057490
0.073128216 -0.14122207 0.736 4293253847
0.074524678 -0.141223 0.736 4293188054
0.075714871 -0.14084016 0.73400003 4293122000
0.077002555 -0.1406492 0.73299998 4293187793
0.077751741 -0.13949886 0.727 4293187793
0.078913577 -0.13911606 0.72500002 4293187793
0.080067851 -0.13873324 0.72299999 4293122259
0.08143986 -0.13873422 0.72299999 4293122259
0.082697362 -0.13854332 0.722 4293188056
0.084067553 -0.13854435 0.722 4293188056
0.085201114 -0.13816158 0.72000003 4293122261
0.086447328 -0.13797069 0.71899998 4293122261
0.087811947 -0.13797176 0.71899998 4293122261
0.08917658 -0.13797279 0.71899998 4293122261
0.090289414 -0.1375901 0.71700001 4292991191
0.091139063 -0.13682356 0.713 4292991191
0.092492424 -0.13682464 0.713 4292925652
0.0935826 -0.13644195 0.71100003 4292859602
0.094932251 -0.13644305 0.71100003 4292859602
0.096146524 -0.13625224 0.70999998 4292793809
0.097494349 -0.13625334 0.70999998 4292794063
0.09856379 -0.13587065 0.708 4292794063
0.099907927 -0.1358718 0.708 4292794063
0.10125209 -0.13587295 0.708 4292728270
0.10245138 -0.13568218 0.70700002 4292794063
0.10379373 -0.13568334 0.70700002 4292728270
0.1051361 -0.13568452 0.70700002 4292661708
0.10647854 -0.1356857 0.70700002 4292661708
0.10766849 -0.13549495 0.70599997 4292727244
0.10900912 -0.13549614 0.70599997 4292661195
0.11003717 -0.13511348 0.704 4292595915
0.11137407 -0.1351147 0.704 4292530121
0.11255091 -0.13492398 0.70300001 4292399305
0.11388598 -0.13492517 0.70300001 4292399305
0.115385 -0.13511832 0.704 4292135366
0.11622468 -0.13454373 0.70099998 4292201159
0.1175561 -0.13454495 0.70099998 4292266439
0.11888754 -0.13454619 0.70099998 4292266439
0.12021901 -0.1345474 0.70099998 4292004548
0.12137717 -0.13435671 0.69999999 4292004548
0.12270684 -0.13435793 0.69999999 4291938754
0.12421374 -0.13455111 0.70099998 4291938754
0.12536632 -0.1343604 0.69999999 4292004548
0.12669611 -0.13436164 0.69999999 4291807168
0.12857464 -0.13493872 0.70300001 4291806655
0.12991022 -0.13493997 0.70300001 4291806655
0.13124582 -0.13494122 0.70300001 4291674553
0.13258147 -0.13494246 0.70300001 4291740347
0.13353619 -0.13455978 0.70099998 4291674553
0.13486812 -0.13456102 0.70099998 4291674553
0.13620012 -0.13456227 0.70099998 4291411897
0.13733593 -0.13437153 0.69999999 4291411897
0.13866606 -0.13437277 0.69999999 4291478204
0.13999626 -0.13437401 0.69999999 4291478204
0.1413265 -0.13437523 0.69999999 4291215286
0.14286058 -0.13456841 0.70099998 4291149493
0.14460416 -0.13495356 0.70300001 4291477172
0.1461478 -0.13514675 0.704 4291345587
0.14790477 -0.1355319 0.70599997 4291214003
0.14945798 -0.13572508 0.70700002 4291279796
0.15080172 -0.13572629 0.70700002 4291279542
0.15214552 -0.13572751 0.70700002 4291213749
0.15348931 -0.1357287 0.70700002 4291017137
0.15483317 -0.13572988 0.70700002 4291017137
0.15595613 -0.13553907 0.70599997 4290951857
0.15729816 -0.13554025 0.70599997 4290886064
0.15864021 -0.13554139 0.70599997 4290950574
0.16178142 -0.13592768 0.708 4290753198
0.16787365 -0.13650809 0.71100003 4290293412
0.16922539 -0.13650918 0.71100003 4290227619
0.17057715 -0.13651024 0.71100003 4289964449
0.17168714 -0.13631929 0.70999998 4289832863
0.17303704 -0.13632031 0.70999998 4289766304
0.17463261 -0.13651337 0.71100003 4289700511
0.17647952 -0.1368984 0.713 4289765791
0.17808461 -0.1370914 0.71399999 4289633949
0.1794422 -0.13709235 0.71399999 4289568156
0.18206596 -0.13805336 0.71899998 4289568156
0.18368819 -0.13824634 0.72000003 4289568919
0.18505728 -0.13824727 0.72000003 4289568919
0.18642633 -0.13824816 0.72000003 4289372310
0.18779543 -0.13824904 0.72000003 4289306517
0.059730779 -0.14456563 0.76099998 4289306013
0.061174303 -0.14456636 0.76099998 4289239708
0.062288724 -0.14380725 0.75700003 4289568417
0.063724712 -0.14380801 0.75700003 4291081127
0.064988591 -0.14342886 0.755 4293186759
0.066420846 -0.14342965 0.755 4293449927
0.067313917 -0.14229065 0.74900001 4293121218
0.068459556 -0.14172156 0.74599999 4293056456
0.069687508 -0.14134245 0.74400002 4293056456
0.070812337 -0.14077339 0.741 4293056718
0.071925819 -0.14020431 0.73799998 4293188304
0.073127322 -0.13982525 0.736 4293253847
0.074523762 -0.13982615 0.736 4293122261
0.075713955 -0.13944712 0.73400003 4293121746
0.076791525 -0.13887809 0.73100001 4293187795
0.077750795 -0.13811907 0.727 4293121746
0.078912616 -0.13774006 0.72500002 4293121746
0.080066882 -0.13736105 0.72299999 4293056468
0.081438884 -0.13736205 0.72299999 4293122261
0.082696363 -0.13717301 0.722 4293188308
0.08406654 -0.13717403 0.722 4293122259
0.085200086 -0.13679506 0.72000003 4293122261
0.0864463 -0.13660608 0.71899998 4293122261
0.087810889 -0.13660713 0.71899998 4293056466
0.089175537 -0.13660817 0.71899998 4293056466
0.090288334 -0.13622925 0.71700001 4292991443
0.091137975 -0.1354703 0.713 4292925650
0.092491336 -0.13547139 0.713 4292859602
0.093581498 -0.13509247 0.71100003 4292793809
0.094931163 -0.13509357 0.71100003 4292794063
0.096280813 -0.13509466 0.71100003 4292794063
0.09763056 -0.13509579 0.71100003 4292794061
0.098841093 -0.1349069 0.70999998 4292859854
0.099906802 -0.13452801 0.708 4292793548
0.10125094 -0.13452913 0.708 4292727755
0.10259514 -0.13453029 0.708 4292793550
0.10379256 -0.13434143 0.70700002 4292990672
0.10513495 -0.13434261 0.70700002 4292661195
0.10647737 -0.13434376 0.70700002 4292661195
0.10766732 -0.13415493 0.70599997 4292595401
0.10900792 -0.13415609 0.70599997 4292595401
0.11003597 -0.13377726 0.704 4292530121
0.11137286 -0.13377845 0.704 4292398792
0.11270978 -0.13377963 0.704 4292398792
0.11404676 -0.13378084 0.704 4292398792
0.11538377 -0.13378204 0.704 4292135366
0.11672086 -0.13378328 0.704 4292135366
0.11805796 -0.1337845 0.704 4292201157
0.11939509 -0.13378572 0.704 4292135364
0.12073229 -0.13378693 0.704 4291938752
0.12154932 -0.13321805 0.70099998 4291872959
0.12288089 -0.13321927 0.70099998 4291807168
0.12474409 -0.13379066 0.704 4291543997
0.12608145 -0.13379189 0.704 4291609792
0.12741882 -0.13379312 0.704 4291477950
0.12875627 -0.13379437 0.704 4291609020
0.13009375 -0.13379562 0.704 4291740606
0.13124458 -0.13360681 0.70300001 4291608506
0.13258024 -0.13360804 0.70300001 4291542713
0.13353494 -0.13322917 0.70099998 4291608504
0.13486688 -0.1332304 0.70099998 4291608504
0.13619886 -0.13323164 0.70099998 4291083194
0.13753086 -0.13323285 0.70099998 4291017401
0.13866484 -0.13304403 0.69999999 4291346613
0.13999504 -0.13304527 0.69999999 4291412406
0.14152716 -0.13323654 0.70099998 4291214516
0.14326693 -0.13361791 0.70300001 4291214516
0.14480864 -0.13380919 0.704 4291214003
0.14656176 -0.13419056 0.70599997 4291214003
0.14811304 -0.13438185 0.70700002 4291147953
0.14945675 -0.13438305 0.70700002 4291147953
0.15080053 -0.13438427 0.70700002 4291214003
0.1521443 -0.13438547 0.70700002 4291147953
0.15348814 -0.13438667 0.70700002 4291017137
0.15483199 -0.13438784 0.70700002 4291017137
0.15617588 -0.13438903 0.70700002 4291082414
0.15818819 -0.13496044 0.70999998 4290950572
0.15953784 -0.13496159 0.70999998 4290950826
0.16043435 -0.13458256 0.708 4290819497
0.16178027 -0.13458373 0.708 4290489773
0.16358702 -0.13496503 0.70999998 4290358444
0.16493678 -0.13496614 0.70999998 4290358694
0.16834477 -0.13553865 0.713 4290030496
0.16970031 -0.13553973 0.713 4289898654
0.17105591 -0.13554083 0.713 4289898143
0.1719279 -0.13516165 0.71100003 4289766556
0.17327975 -0.13516271 0.71100003 4289766304
0.17463158 -0.13516374 0.71100003 4289634462
0.17672601 -0.13573505 0.71399999 4289634464
0.17808358 -0.13573606 0.71399999 4289568671
0.18094917 -0.13687769 0.72000003 4289437340
0.18231818 -0.13687867 0.72000003 4289437340
0.18445261 -0.13744994 0.72299999 4289568919
0.18582742 -0.13745089 0.72299999 4289568919
0.18694326 -0.13726167 0.722 4289306517
0.1883162 -0.1372626 0.722 4289175187
0.059730053 -0.14312144 0.76099998 4289437855
0.061012786 -0.14274602 0.759 4289175197
0.062452525 -0.14274678 0.759 4288780439
0.063723937 -0.14237142 0.75700003 4290422422
0.065159947 -0.14237218 0.75700003 4293317314
0.066595994 -0.14237298 0.75700003 4292858573
0.067762449 -0.14180958 0.75400001 4292595401
0.068825789 -0.14105812 0.75 4292529858
0.069686651 -0.13993049 0.74400002 4292924616
0.070907041 -0.13955519 0.74199998 4292990409
0.07192494 -0.13880372 0.73799998 4293056202
0.073126428 -0.13842846 0.736 4293056468
0.07452286 -0.13842934 0.736 4293056468
0.075713031 -0.1380541 0.73400003 4293056466
0.076790594 -0.13749076 0.73100001 4293056466
0.077749848 -0.13673934 0.727 4293122000
0.078911662 -0.13636413 0.72500002 4293122000
0.080065913 -0.13598891 0.72299999 4293056466
0.081437901 -0.13598989 0.72299999 4293056466
0.08269538 -0.13580279 0.722 4293056468
0.084065534 -0.13580376 0.722 4293056468
0.085199073 -0.13542858 0.72000003 4293056466
0.086445279 -0.13524151 0.71899998 4293056466
0.087809861 -0.13524254 0.71899998 4292990672
0.089174479 -0.13524356 0.71899998 4293056466
0.090287276 -0.13486843 0.71700001 4292925652
0.09113691 -0.1341171 0.713 4292859602
0.092490256 -0.13411817 0.713 4292662993
0.093843654 -0.13411926 0.713 4292662993
0.094930045 -0.13374412 0.71100003 4292728270
0.096279718 -0.13374524 0.71100003 4292728270
0.097629435 -0.13374636 0.71100003 4292728270
0.098839998 -0.13355936 0.70999998 4292728270
0.10018788 -0.13356048 0.70999998 4292332997
0.10124981 -0.1331854 0.708 4292530119
0.10259399 -0.13318653 0.708 4292595401
0.10379142 -0.13299958 0.70700002 4292595401
