# .PCD v0.7 - Point Cloud Data file format
VERSION 0.7
FIELDS x y z rgba
SIZE 4 4 4 4
TYPE F F F U
COUNT 1 1 1 1
WIDTH 1003
HEIGHT 1
VIEWPOINT 0 0 0 1 0 0 0
POINTS 1003
DATA ascii
-0.088630475 -0.0050798617 0.63499999 4292991956
-0.087424703 -0.0050801598 0.63499999 4293057749
-0.086218975 -0.0050804536 0.63499999 4293057749
-0.084879451 -0.0050727413 0.634 4293189591
-0.08367575 -0.0050730254 0.634 4293255637
-0.082472101 -0.0050733048 0.634 4293255637
-0.081268534 -0.0050735804 0.634 4293123542
-0.080065012 -0.0050738514 0.634 4293255385
-0.078612782 -0.0050581116 0.63200003 4293255637
-0.077413157 -0.0050583733 0.63200003 4293189587
-0.076213613 -0.0050586304 0.63200003 4293189587
-0.075014099 -0.0050588818 0.63200003 4293386966
-0.073814653 -0.0050591305 0.63200003 4293255383
-0.072615266 -0.0050593754 0.63200003 4293386712
-0.071641922 -0.0050756256 0.634 4293255644
-0.070438839 -0.0050758626 0.634 4293124057
-0.06934502 -0.0050841016 0.63499999 4293124055
-0.068140134 -0.0050843298 0.63499999 4293058262
-0.066935316 -0.0050845528 0.63499999 4293123796
-0.065730542 -0.0050847726 0.63499999 4293189589
-0.064627424 -0.0050929957 0.63599998 4293123794
-0.063420855 -0.0050932067 0.63599998 4293189587
-0.062214334 -0.0050934134 0.63599998 4293189589
-0.061103791 -0.0051016249 0.63700002 4293189589
-0.059989497 -0.005109834 0.63800001 4293189851
-0.058963578 -0.0051260469 0.63999999 4293255644
-0.057749666 -0.0051262383 0.63999999 4293058264
-0.056535777 -0.0051264255 0.63999999 4292926935
-0.055321954 -0.0051266085 0.63999999 4292861392
-0.054192707 -0.0051347977 0.64099997 4292927185
-0.052977066 -0.0051349723 0.64099997 4293058262
-0.051761474 -0.0051351436 0.64099997 4292926933
-0.050545927 -0.0051353099 0.64099997 4292926935
-0.049407374 -0.0051434836 0.64200002 4293058264
-0.048265066 -0.0051516537 0.64300001 4292860888
-0.047119014 -0.0051598204 0.64399999 4292860888
-0.045897923 -0.0051599694 0.64399999 4292926161
-0.044815637 -0.0051761423 0.64600003 4293058003
-0.043590833 -0.0051762844 0.64600003 4293058003
-0.042366069 -0.0051764222 0.64600003 4292992210
-0.04114135 -0.0051765563 0.64600003 4292861140
-0.039916657 -0.0051766858 0.64600003 4292861140
-0.038751896 -0.005184826 0.64700001 4292991956
-0.037583373 -0.0051929606 0.648 4293123542
-0.036411103 -0.0052010925 0.64899999 4292992210
-0.035235062 -0.005209221 0.64999998 4292926161
-0.034002956 -0.0052093305 0.64999998 4292795345
-0.032922126 -0.0052334797 0.653 4292729552
-0.031781439 -0.0052496106 0.65499997 4292795345
-0.030633185 -0.0052657383 0.65700001 4292795345
-0.029432658 -0.0052738474 0.65799999 4292926413
-0.028185528 -0.0052739368 0.65799999 4292729290
-0.026979364 -0.0052820384 0.65899998 4292663756
-0.025730394 -0.0052821208 0.65899998 4292597963
-0.024592886 -0.0053062434 0.662 4292400589
-0.023408787 -0.0053223483 0.66399997 4292400589
-0.022383921 -0.0053785285 0.671 4292400587
-0.021143762 -0.00538661 0.67199999 4292203207
-0.019870261 -0.005386672 0.67199999 4292203207
-0.018652134 -0.0054027624 0.67400002 4292137414
-0.017400663 -0.0054108324 0.67500001 4292005059
-0.016145421 -0.0054188981 0.676 4292071108
-0.014864416 -0.0054189423 0.676 4292333760
-0.14290731 -0.0039926609 0.65700001 4291806903
-0.14165704 -0.0039931983 0.65700001 4291873211
-0.14040689 -0.0039937315 0.65700001 4292136640
-0.13852134 -0.003976021 0.65399998 4292070843
-0.13727699 -0.0039765406 0.65399998 4292070843
-0.13582471 -0.0039709741 0.653 4292267715
-0.13375801 -0.003947156 0.64899999 4292333508
-0.13211498 -0.0039354903 0.64700001 4292267715
-0.13068192 -0.0039299005 0.64600003 4292399557
-0.12945312 -0.003930388 0.64600003 4292268485
-0.12782741 -0.0039187009 0.64399999 4292268485
-0.12660253 -0.0039191768 0.64399999 4292268487
-0.12537774 -0.003919648 0.64399999 4292531659
-0.12396022 -0.0039140265 0.64300001 4292531657
-0.12273746 -0.0039144871 0.64300001 4292531657
-0.12151477 -0.003914942 0.64300001 4292597450
-0.12010507 -0.0039093033 0.64200002 4292597450
-0.11869919 -0.0039036572 0.64099997 4292597450
-0.11748049 -0.0039040954 0.64099997 4292597450
-0.1160805 -0.0038984385 0.63999999 4292663245
-0.11486381 -0.003898866 0.63999999 4292597452
-0.11329208 -0.0038871039 0.63800001 4292531405
-0.11207934 -0.0038875209 0.63800001 4292926163
-0.11069289 -0.0038818398 0.63700002 4292926165
-0.10948218 -0.0038822459 0.63700002 4292926165
-0.10827155 -0.0038826475 0.63700002 4292926163
-0.1068929 -0.0038769483 0.63599998 4292926163
-0.10568429 -0.0038773401 0.63599998 4292794832
-0.10431147 -0.003871629 0.63499999 4293058003
-0.10310487 -0.0038720102 0.63499999 4292992208
-0.10205883 -0.0038784845 0.63599998 4292992208
-0.10085046 -0.0038788563 0.63599998 4292926161
-0.099642172 -0.0038792237 0.63599998 4292992210
-0.098433934 -0.0038795862 0.63599998 4292926415
-0.09722577 -0.0038799439 0.63599998 4292926415
-0.096017681 -0.0038802973 0.63599998 4292926415
-0.094809644 -0.0038806451 0.63599998 4292926415
-0.093454488 -0.0038748868 0.63499999 4292926415
-0.09224847 -0.0038752249 0.63499999 4292992208
-0.091042504 -0.0038755592 0.63499999 4292992210
-0.08983662 -0.0038758884 0.63499999 4292992210
-0.088630781 -0.0038762125 0.63499999 4292992210
-0.087425008 -0.0038765322 0.63499999 4293058003
-0.086219281 -0.0038768467 0.63499999 4293058003
-0.085013621 -0.0038771573 0.63499999 4293123796
-0.08380802 -0.0038774628 0.63499999 4293123542
-0.082472391 -0.003871657 0.634 4293189591
-0.081268817 -0.0038719529 0.634 4293123542
-0.080065295 -0.0038722446 0.634 4293189591
-0.078861818 -0.0038725308 0.634 4293189589
-0.077658415 -0.0038728132 0.634 4293123796
-0.076455049 -0.0038730905 0.634 4293123796
-0.07501436 -0.0038611449 0.63200003 4293058003
-0.073814914 -0.0038614126 0.63200003 4293057749
-0.07284531 -0.0038738959 0.634 4293189591
-0.071642168 -0.0038741557 0.634 4293255131
-0.070439085 -0.0038744099 0.634 4293123544
-0.069345258 -0.0038807713 0.63499999 4293057751
-0.068140373 -0.0038810172 0.63499999 4293189337
-0.066935547 -0.0038812591 0.63499999 4293189589
-0.065834269 -0.0038876089 0.63599998 4293189589
-0.064627655 -0.0038878419 0.63599998 4292926161
-0.063421078 -0.0038880704 0.63599998 4293123796
-0.062214546 -0.0038882936 0.63599998 4293189591
-0.061104003 -0.0038946273 0.63700002 4293189591
-0.059989695 -0.0039009573 0.63800001 4293058264
-0.058963783 -0.0039133974 0.63999999 4293189851
-0.05774986 -0.0039136047 0.63999999 4293124057
-0.056535974 -0.0039138068 0.63999999 4292926935
-0.05532214 -0.0039140056 0.63999999 4292926933
-0.054192893 -0.0039203148 0.64099997 4292926933
-0.052977249 -0.0039205044 0.64099997 4292861655
-0.051842403 -0.0039268057 0.64200002 4292861655
-0.050624959 -0.0039269873 0.64200002 4292926935
-0.049484491 -0.0039332802 0.64300001 4292861142
-0.048265234 -0.003933453 0.64300001 4292926165
-0.047119163 -0.0039397376 0.64399999 4292926165
-0.04589808 -0.003939901 0.64399999 4292794832
-0.044815782 -0.0039522969 0.64600003 4293058003
-0.043590978 -0.003952452 0.64600003 4292861140
-0.042431794 -0.0039587207 0.64700001 4292795347
-0.041205175 -0.0039588669 0.64700001 4292861142
-0.039978586 -0.003959009 0.64700001 4292795093
-0.038811922 -0.0039652651 0.648 4292926163
-0.037641503 -0.003971518 0.64899999 4292926163
-0.036467321 -0.0039777658 0.64999998 4292729552
-0.035235178 -0.0039778906 0.64999998 4292729552
-0.034107696 -0.0039902511 0.65200001 4292729552
-0.032922238 -0.0039964872 0.653 4292729552
-0.031781539 -0.0040088394 0.65499997 4292598484
-0.030679917 -0.004027308 0.65799999 4292598484
-0.029432755 -0.0040274118 0.65799999 4292466634
-0.028185619 -0.0040275105 0.65799999 4292597963
-0.02697945 -0.0040337257 0.65899998 4292664010
-0.025808567 -0.0040460583 0.66100001 4292597961
-0.024667265 -0.0040645078 0.66399997 4292269003
-0.023408864 -0.0040645897 0.66399997 4292334796
-0.02241735 -0.0041136378 0.67199999 4292334796
-0.021143828 -0.0041137119 0.67199999 4292202953
-0.019929465 -0.004126024 0.67400002 4292268487
-0.018652191 -0.0041260882 0.67400002 4292005059
-0.017400716 -0.0041322708 0.67500001 4291939266
-0.016193237 -0.0041506914 0.67799997 4292071108
-0.14421295 -0.0027713138 0.66299999 4291478453
-0.14165761 -0.0027468004 0.65700001 4291610042
-0.14040741 -0.0027473618 0.65700001 4292070593
-0.13873369 -0.0027395524 0.65499997 4292070845
-0.13748741 -0.002740101 0.65499997 4292070845
-0.13603322 -0.00273646 0.65399998 4292070595
-0.13396461 -0.0027202568 0.64999998 4292333510
-0.13252388 -0.0027166 0.64899999 4292267717
-0.13128932 -0.0027171227 0.64899999 4292399303
-0.1298544 -0.0027134521 0.648 4292399303
-0.12822489 -0.0027055868 0.64600003 4292399303
-0.12699619 -0.0027060914 0.64600003 4292268489
-0.12537822 -0.0026982108 0.64399999 4292465612
-0.12415349 -0.0026987034 0.64399999 4292531657
-0.12292883 -0.0026991912 0.64399999 4292531657
-0.12151523 -0.0026954813 0.64300001 4292531657
-0.12010551 -0.0026917646 0.64200002 4292597450
-0.11888484 -0.0026922352 0.64200002 4292597452
-0.11748095 -0.0026885059 0.64099997 4292597452
-0.11608095 -0.0026847709 0.63999999 4292597452
-0.11486425 -0.0026852242 0.63999999 4292597452
-0.11364764 -0.0026856728 0.63999999 4292597198
-0.11207977 -0.0026777226 0.63800001 4292991956
-0.11069331 -0.0026739619 0.63700002 4292925902
-0.1094826 -0.0026743936 0.63700002 4292925902
-0.10827196 -0.0026748199 0.63700002 4292794832
-0.10689331 -0.0026710413 0.63599998 4292926161
-0.10568468 -0.0026714571 0.63599998 4292794832
-0.10447612 -0.0026718678 0.63599998 4292992210
-0.10326764 -0.0026722739 0.63599998 4292926415
-0.10205922 -0.0026726746 0.63599998 4292795086
-0.10085085 -0.0026730704 0.63599998 4292926415
-0.099642552 -0.0026734613 0.63599998 4292926415
-0.098434314 -0.0026738471 0.63599998 4292926413
-0.09722615 -0.0026742283 0.63599998 4292926413
-0.096018046 -0.0026746045 0.63599998 4292729036
-0.094809994 -0.0026749757 0.63599998 4292729036
-0.093454838 -0.0026711354 0.63499999 4292729038
-0.09224882 -0.0026714962 0.63499999 4292992210
-0.091042854 -0.0026718525 0.63499999 4292861138
-0.089836963 -0.0026722031 0.63499999 4292795345
-0.088631101 -0.0026725491 0.63499999 4292991956
-0.087425336 -0.0026728907 0.63499999 4293057749
-0.086219609 -0.0026732271 0.63499999 4293058003
-0.085013933 -0.0026735587 0.63499999 4293058003
-0.083808333 -0.0026738849 0.63499999 4293057751
-0.082602791 -0.0026742071 0.63499999 4293123544
-0.081397302 -0.0026745242 0.63499999 4293123542
-0.080191866 -0.002674836 0.63499999 4293123542
-0.078986511 -0.002675144 0.63499999 4293123542
-0.077781193 -0.0026754464 0.63499999 4293123542
-0.076575927 -0.0026757435 0.63499999 4293123544
-0.075370729 -0.0026760369 0.63499999 4293057751
-0.074165575 -0.0026763249 0.63499999 4292991958
-0.072960474 -0.0026766083 0.63499999 4293057751
-0.071755432 -0.0026768865 0.63499999 4293057751
-0.070550449 -0.0026771603 0.63499999 4292991958
-0.069345504 -0.0026774288 0.63499999 4292991958
-0.068140626 -0.0026776933 0.63499999 4293057751
-0.066935793 -0.0026779526 0.63499999 4293189587
-0.06583453 -0.0026824248 0.63599998 4293189587
-0.064627886 -0.0026826749 0.63599998 4292926165
-0.063421309 -0.0026829203 0.63599998 4293057751
-0.062214777 -0.0026831608 0.63599998 4293058516
-0.061104231 -0.0026876163 0.63700002 4293124309
-0.060177978 -0.0027005065 0.63999999 4293058262
-0.059056133 -0.002704954 0.64099997 4293124055
-0.057840299 -0.0027051773 0.64099997 4293123542
-0.056624521 -0.0027053957 0.64099997 4292991956
-0.055408787 -0.0027056097 0.64099997 4292991956
-0.054193091 -0.0027058183 0.64099997 4292991956
-0.052977443 -0.0027060232 0.64099997 4293058262
-0.051842593 -0.0027104446 0.64200002 4293058262
-0.050703991 -0.0027148619 0.64300001 4292861142
-0.049561638 -0.0027192747 0.64399999 4292729300
-0.048340466 -0.002719461 0.64399999 4292926165
-0.047119334 -0.0027196421 0.64399999 4293123544
-0.045898248 -0.0027198193 0.64399999 4293123796
-0.04481595 -0.0027284385 0.64600003 4293123796
-0.043591138 -0.0027286061 0.64600003 4292991956
-0.042431947 -0.0027329926 0.64700001 4292926163
-0.041205324 -0.002733151 0.64700001 4292795093
-0.039978728 -0.0027333046 0.64700001 4292795093
-0.038871955 -0.0027419031 0.64899999 4292794580
-0.037641641 -0.0027420474 0.64899999 4292794580
-0.036467455 -0.0027464121 0.64999998 4292729038
-0.035235308 -0.0027465473 0.64999998 4292729038
-0.034107819 -0.002755129 0.65200001 4292663504
-0.032972772 -0.0027637067 0.65399998 4292663504
-0.031878699 -0.0027765066 0.65700001 4292795093
-0.030680023 -0.0027808503 0.65799999 4292729300
-0.029477589 -0.0027851886 0.65899998 4292597965
-0.028228555 -0.0027852966 0.65899998 4292663758
-0.026979547 -0.0027853996 0.65899998 4292729288
-0.025808657 -0.0027939519 0.66100001 4292663495
-0.024741653 -0.0028151807 0.66600001 4292269003
-0.023479456 -0.0028152706 0.66600001 4292269003
-0.02238407 -0.0028364912 0.671 4292269001
-0.021143904 -0.0028407988 0.67199999 4292006085
-0.019929534 -0.0028493297 0.67400002 4292136901
-0.01867993 -0.0028536282 0.67500001 4291807936
-0.017426556 -0.0028579219 0.676 4291872959
-0.016193293 -0.0028664391 0.67799997 4292070595
-0.1469584 -0.0015145544 0.66399997 4290034119
-0.14547528 -0.0015128845 0.66299999 4290753961
-0.14421353 -0.0015134901 0.66299999 4291412147
-0.14208941 -0.0015049555 0.65899998 4291544247
-0.14062169 -0.0015032615 0.65799999 4292004798
-0.13873425 -0.00149699 0.65499997 4292005563
-0.13748798 -0.0014975665 0.65499997 4292005563
-0.13603379 -0.0014958502 0.65399998 4292070591
-0.13437738 -0.0014918388 0.65200001 4292136640
-0.13272861 -0.0014878185 0.64999998 4292136386
-0.13149214 -0.0014883693 0.64999998 4292333508
-0.13005532 -0.001486624 0.64899999 4292202694
-0.1286224 -0.0014848717 0.648 4292268487
-0.12719332 -0.0014831125 0.64700001 4292269003
-0.12576811 -0.0014813462 0.64600003 4292334796
-0.12453955 -0.0014818668 0.64600003 4292269001
-0.12292931 -0.0014777927 0.64399999 4292400587
-0.12151572 -0.001476006 0.64300001 4292465864
-0.120106 -0.0014742123 0.64200002 4292531657
-0.11888532 -0.0014747089 0.64200002 4292597450
-0.11748141 -0.001472902 0.64099997 4292597450
-0.11608139 -0.001471089 0.63999999 4292597452
-0.11486472 -0.0014715684 0.63999999 4292597452
-0.11364812 -0.0014720425 0.63999999 4292728268
-0.11208022 -0.0014679097 0.63800001 4292794061
-0.11086753 -0.0014683722 0.63800001 4292859595
-0.10948303 -0.0014665269 0.63700002 4292990924
-0.1082724 -0.0014669783 0.63700002 4292663245
-0.10706181 -0.0014674242 0.63700002 4292597452
-0.10585129 -0.0014678652 0.63700002 4292663245
-0.10464083 -0.0014683009 0.63700002 4292729038
-0.10343044 -0.0014687314 0.63700002 4292597191
-0.1022201 -0.0014691572 0.63700002 4292925900
-0.10100985 -0.0014695777 0.63700002 4292925902
-0.099799633 -0.0014699927 0.63700002 4292925902
-0.09858948 -0.0014704027 0.63700002 4292795086
-0.097379424 -0.0014708078 0.63700002 4292795086
-0.096169405 -0.0014712075 0.63700002 4292860108
-0.094959453 -0.0014716022 0.63700002 4292794059
-0.093602367 -0.0014696808 0.63599998 4292597452
-0.092394456 -0.0014700647 0.63599998 4292794832
-0.091186605 -0.0014704436 0.63599998 4292795345
-0.089978784 -0.0014708174 0.63599998 4292795345
-0.088771045 -0.0014711859 0.63599998 4292794832
-0.087425686 -0.0014692356 0.63499999 4292992210
-0.086219944 -0.0014695935 0.63499999 4292992208
-0.085014284 -0.0014699465 0.63499999 4293058001
-0.083808675 -0.001470294 0.63499999 4293058262
-0.082603127 -0.0014706367 0.63499999 4293058262
-0.08139763 -0.0014709744 0.63499999 4293123544
-0.080192193 -0.0014713069 0.63499999 4293123544
-0.078986816 -0.0014716343 0.63499999 4293123542
-0.077781498 -0.0014719568 0.63499999 4293123542
-0.076576225 -0.0014722742 0.63499999 4293123542
-0.075371027 -0.0014725866 0.63499999 4293057749
-0.074165866 -0.0014728939 0.63499999 4292926163
-0.072960772 -0.0014731963 0.63499999 4293057749
-0.071755722 -0.0014734934 0.63499999 4293057751
-0.070550725 -0.0014737856 0.63499999 4292991958
-0.069345787 -0.0014740727 0.63499999 4293057751
-0.068140887 -0.0014743548 0.63499999 4293123544
-0.066936053 -0.0014746321 0.63499999 4292991956
-0.065834776 -0.0014772268 0.63599998 4293057749
-0.064628147 -0.0014774945 0.63599998 4292729040
-0.063521281 -0.0014800804 0.63700002 4292991956
-0.062312856 -0.0014803385 0.63700002 4292926933
-0.06139224 -0.0014875641 0.63999999 4293058262
-0.060272243 -0.0014901378 0.64099997 4293058262
-0.059056364 -0.0014903821 0.64099997 4293058262
-0.05784053 -0.0014906212 0.64099997 4292991956
-0.056624737 -0.0014908555 0.64099997 4292991956
-0.055409007 -0.0014910847 0.64099997 4292991956
-0.054193307 -0.0014913088 0.64099997 4292991956
-0.052977655 -0.0014915279 0.64099997 4292926935
-0.051842805 -0.0014940695 0.64200002 4292861142
-0.050704189 -0.0014966063 0.64300001 4292795093
-0.049561828 -0.0014991384 0.64399999 4292729300
-0.04834066 -0.0014993383 0.64399999 4292729300
-0.047119524 -0.0014995332 0.64399999 4292861142
-0.046040978 -0.0015043808 0.64600003 4293057749
-0.044816118 -0.0015045659 0.64600003 4293057749
-0.043591309 -0.001504746 0.64600003 4292926161
-0.042432118 -0.0015072509 0.64700001 4292926161
-0.041205477 -0.001507421 0.64700001 4292729554
-0.040040676 -0.0015099167 0.648 4292663504
-0.038872108 -0.0015124072 0.64899999 4292794834
-0.037699785 -0.0015148936 0.64999998 4292729040
-0.036467601 -0.0015150445 0.64999998 4292729036
-0.03539807 -0.0015221833 0.653 4292729036
-0.034212571 -0.001524656 0.65399998 4292597965
-0.032972898 -0.0015247924 0.65399998 4292663758
-0.031927343 -0.0015342504 0.65799999 4292532688
-0.030680144 -0.0015343772 0.65799999 4292466895
-0.029477702 -0.0015368311 0.65899998 4292400587
-0.028228665 -0.001536948 0.65899998 4292334794
-0.027061533 -0.0015417247 0.66100001 4292334533
-0.025847802 -0.0015441641 0.662 4292334533
-0.024741748 -0.0015535969 0.66600001 4292268487
-0.023479545 -0.0015536945 0.66600001 4292268487
-0.022350799 -0.0015631183 0.67000002 4292203207
-0.021143986 -0.0015678721 0.67199999 4292006085
-0.019870469 -0.0015679545 0.67199999 4292136901
-0.018680001 -0.0015750317 0.67500001 4291807936
-0.017400842 -0.0015751043 0.67500001 4291872959
-0.016121702 -0.0015751712 0.67500001 4292267717
-0.14695904 -0.00025476026 0.66399997 4290691531
-0.14547591 -0.00025501614 0.66299999 4290164394
-0.14421417 -0.00025565014 0.66299999 4290887861
-0.14209002 -0.00025473238 0.65899998 4291412406
-0.14062232 -0.00025496405 0.65799999 4291872957
-0.13873482 -0.00025441142 0.65499997 4292005048
-0.13748857 -0.00025501582 0.65499997 4292005048
-0.13603435 -0.0002552245 0.65399998 4292136636
-0.13458405 -0.00025542587 0.653 4292136636
-0.13334177 -0.00025601205 0.653 4292136386
-0.13209958 -0.00025659273 0.653 4292267715
-0.13065706 -0.00025677416 0.65200001 4292136901
-0.1290199 -0.00025655364 0.64999998 4292071108
-0.12758704 -0.00025671982 0.64899999 4292202440
-0.12615801 -0.00025687879 0.648 4292268489
-0.12492568 -0.00025742801 0.648 4292268485
-0.12350249 -0.00025757361 0.64700001 4292334535
-0.12170521 -0.00025691433 0.64399999 4292531909
-0.12048066 -0.00025744396 0.64399999 4292531909
-0.11888582 -0.00025716709 0.64200002 4292531909
-0.11766522 -0.00025768438 0.64200002 4292531909
-0.11608189 -0.00025739189 0.63999999 4292597450
-0.11486522 -0.00025789687 0.63999999 4292597450
-0.11364859 -0.0002583965 0.63999999 4292596939
-0.1120807 -0.00025808177 0.63800001 4292596939
-0.110868 -0.0002585692 0.63800001 4292793548
-0.10965538 -0.0002590513 0.63800001 4292990670
-0.10844281 -0.00025952808 0.63800001 4292794063
-0.10723033 -0.00025999956 0.63800001 4292728270
-0.1060179 -0.00026046566 0.63800001 4292795086
-0.10480554 -0.00026092649 0.63800001 4292926415
-0.10343089 -0.00026097236 0.63700002 4292728016
-0.10222054 -0.00026142178 0.63700002 4292991445
-0.10101026 -0.00026186602 0.63700002 4292991693
-0.099800058 -0.00026230488 0.63700002 4292794313
-0.098589912 -0.00026273844 0.63700002 4292729036
-0.097379826 -0.0002631667 0.63700002 4292729036
-0.096169829 -0.0002635897 0.63700002 4292794061
-0.09495987 -0.00026400731 0.63700002 4292794061
-0.093602784 -0.00026400457 0.63599998 4292662991
-0.092394859 -0.00026441098 0.63599998 4292794834
-0.09118697 -0.00026481203 0.63599998 4292795345
-0.089979164 -0.00026520787 0.63599998 4292861138
-0.088771425 -0.00026559841 0.63599998 4292992210
-0.087563723 -0.00026598363 0.63599998 4293123796
-0.086356081 -0.00026636358 0.63599998 4293058003
-0.085148513 -0.00026673824 0.63599998 4293189589
-0.083941013 -0.00026710762 0.63599998 4293123796
-0.082733557 -0.00026747171 0.63599998 4293189589
-0.081397966 -0.00026740934 0.63499999 4293123544
-0.080192529 -0.00026776231 0.63499999 4293057751
-0.078987144 -0.00026810999 0.63499999 4293057751
-0.077904314 -0.00026887513 0.63599998 4293057751
-0.076576553 -0.00026878953 0.63499999 4292991956
-0.07537134 -0.00026912134 0.63499999 4292991956
-0.074166186 -0.00026944792 0.63499999 4292991956
-0.07307598 -0.00027019405 0.63599998 4293123542
-0.071869031 -0.00027051056 0.63599998 4292991956
-0.070662133 -0.00027082177 0.63599998 4292926163
-0.06934607 -0.00027070142 0.63499999 4293058003
-0.068141177 -0.00027100163 0.63499999 4293123796
-0.06704174 -0.00027172378 0.63599998 4293058003
-0.065835059 -0.00027201386 0.63599998 4293058003
-0.064730033 -0.00027272684 0.63700002 4292991958
-0.063521557 -0.00027300682 0.63700002 4292991958
-0.062704399 -0.00027499758 0.64099997 4293057751
-0.061584357 -0.00027569814 0.64200002 4293057751
-0.06036653 -0.00027596432 0.64200002 4293057749
-0.059148744 -0.00027622518 0.64200002 4293057749
-0.057931017 -0.00027648077 0.64200002 4292991956
-0.056713324 -0.00027673098 0.64200002 4292991956
-0.055495679 -0.00027697586 0.64200002 4292991958
-0.054193534 -0.00027678357 0.64099997 4293123544
-0.052977882 -0.00027701748 0.64099997 4292860888
-0.051843025 -0.00027767857 0.64200002 4292795095
-0.050704405 -0.00027833501 0.64300001 4292729300
-0.049562041 -0.00027898684 0.64399999 4292729300
-0.048340857 -0.00027920044 0.64399999 4292729554
-0.047266059 -0.00028027646 0.64600003 4292729554
-0.046041172 -0.00028048005 0.64600003 4292794834
-0.04488568 -0.00028111273 0.64700001 4292794834
-0.043658968 -0.00028130587 0.64700001 4292926415
-0.042432293 -0.00028149365 0.64700001 4292992208
-0.041269343 -0.00028211143 0.648 4292795086
-0.040102635 -0.00028272439 0.64899999 4292663243
-0.038932167 -0.00028333251 0.64999998 4292663245
-0.037815947 -0.00028437196 0.65200001 4292663245
-0.036579963 -0.00028453415 0.65200001 4292597452
-0.035398219 -0.00028512761 0.653 4292597452
-0.03421272 -0.00028571609 0.65399998 4292597450
-0.033023454 -0.00028629968 0.65499997 4292663243
-0.031927478 -0.00028775289 0.65799999 4292597961
-0.030680275 -0.00028788936 0.65799999 4292466632
-0.029477825 -0.00028845805 0.65899998 4292269001
-0.028314456 -0.00028945963 0.66100001 4292334794
-0.02710259 -0.00029001839 0.662 4292268485
-0.025886957 -0.000290572 0.66299999 4292268485
-0.024741855 -0.00029199733 0.66600001 4292268485
-0.023550151 -0.00029297953 0.66799998 4292268485
-0.022350894 -0.00029395681 0.67000002 4292268739
-0.021144073 -0.00029492914 0.67199999 4292137153
-0.019870555 -0.00029501834 0.67199999 4292071104
-0.018680079 -0.00029641946 0.67500001 4291676602
-0.017400917 -0.00029649801 0.67500001 4291675835
-0.14762366 0.0010095913 0.667 4291152595
-0.14569597 0.0010043813 0.66399997 4290295994
-0.14421481 0.0010022064 0.66299999 4290756545
-0.14295313 0.0010015494 0.66299999 4291346352
-0.14083664 0.00099485961 0.65899998 4291675317
-0.13915908 0.00099120056 0.65700001 4291544501
-0.13748918 0.00098755094 0.65499997 4291807416
-0.13603497 0.0009854174 0.65399998 4292135868
-0.13479075 0.00098479714 0.65399998 4292070074
-0.13334237 0.00098267756 0.653 4291939004
-0.13210018 0.00098206953 0.653 4292136640
-0.13065766 0.00097996381 0.65200001 4292136388
-0.12902048 0.00097636349 0.64999998 4292267717
-0.12758762 0.00097427348 0.64899999 4292267717
-0.12635326 0.00097369106 0.64899999 4292333510
-0.12492623 0.00097161485 0.648 4292268485
-0.12350306 0.00096954586 0.64700001 4292268485
-0.12227272 0.00096898177 0.64700001 4292268485
-0.12085538 0.00096692645 0.64600003 4292268485
-0.11962708 0.0009663743 0.64600003 4292268485
-0.11766573 0.00095984724 0.64200002 4292334535
-0.11608241 0.00095632114 0.63999999 4292596937
-0.11486574 0.00095579046 0.63999999 4292596937
-0.11382667 0.00095675793 0.64099997 4292728266
-0.11243255 0.00095474574 0.63999999 4292794059
-0.11121605 0.00095423142 0.63999999 4292663497
-0.1099996 0.00095372275 0.63999999 4292729290
-0.10844331 0.00095024082 0.63800001 4292663243
-0.10723082 0.00094974466 0.63800001 4292663243
-0.10601837 0.00094925385 0.63800001 4292795086
-0.10480601 0.00094876881 0.63800001 4292729036
-0.10359371 0.000948289 0.63800001 4292334281
-0.102221 0.00094632927 0.63700002 4292794832
-0.10101072 0.00094586116 0.63700002 4292925902
-0.099957176 0.00094688276 0.63800001 4292860108
-0.098745115 0.00094642502 0.63800001 4292860108
-0.097533144 0.00094597286 0.63800001 4292860108
-0.096321218 0.00094552606 0.63800001 4292860108
-0.094960287 0.0009436034 0.63700002 4292925902
-0.09375038 0.00094316824 0.63700002 4292925902
-0.092540547 0.00094273861 0.63700002 4292925902
-0.091330789 0.00094231457 0.63700002 4292729036
-0.090121053 0.00094189594 0.63700002 4292992208
-0.08877182 0.00094000483 0.63599998 4292861140
-0.087564111 0.0009395979 0.63599998 4292861140
-0.086356468 0.00093919638 0.63599998 4292729038
-0.085148901 0.0009388004 0.63599998 4292992210
-0.083941385 0.00093841 0.63599998 4292926161
-0.082733937 0.00093802507 0.63599998 4293058003
-0.081526525 0.00093764561 0.63599998 4292926933
-0.080319181 0.00093727163 0.63599998 4292861140
-0.079111896 0.00093690323 0.63599998 4292991956
-0.077904671 0.00093654025 0.63599998 4292991956
-0.076576896 0.00093471084 0.63499999 4292861140
-0.075371683 0.00093435962 0.63499999 4292861140
-0.074166514 0.00093401381 0.63499999 4292861140
-0.0730763 0.00093514385 0.63599998 4292861140
-0.071869351 0.00093480857 0.63599998 4292991956
-0.070773549 0.00093594805 0.63700002 4292926163
-0.069455594 0.00093415449 0.63599998 4292926163
-0.068248793 0.00093383575 0.63599998 4292926163
-0.067042045 0.00093352253 0.63599998 4292794832
-0.065938875 0.0009346822 0.63700002 4293058003
-0.06483195 0.00093584642 0.63800001 4292991956
-0.063820988 0.00093848153 0.63999999 4292991956
-0.06270469 0.00093965471 0.64099997 4293057749
-0.061680555 0.00094229786 0.64300001 4293123542
-0.060460832 0.00094201474 0.64300001 4293057749
-0.059149016 0.00094027276 0.64200002 4292991956
-0.05793127 0.00094000122 0.64200002 4292992210
-0.056713574 0.00093973533 0.64200002 4292992210
-0.055495929 0.00093947514 0.64200002 4292861140
-0.054278333 0.00093922054 0.64200002 4292861140
-0.053060774 0.00093897147 0.64200002 4292795093
-0.051924013 0.00094019022 0.64300001 4292795093
-0.050704632 0.00093995198 0.64300001 4292729554
-0.049562261 0.00094118068 0.64399999 4292729554
-0.048491202 0.0009438757 0.64600003 4292729552
-0.047266271 0.00094365334 0.64600003 4292729552
-0.046112653 0.00094489707 0.64700001 4292729038
-0.044955261 0.00094614562 0.648 4292663245
-0.043726642 0.00094593951 0.648 4292597450
-0.042498067 0.00094573904 0.648 4292663243
-0.041396901 0.00094846258 0.64999998 4292729036
-0.040164605 0.00094827288 0.64999998 4292663243
-0.038932342 0.00094808888 0.64999998 4292597452
-0.037816115 0.00095082721 0.65200001 4292597452
-0.03663623 0.00095211208 0.653 4292597450
-0.035398375 0.00095194438 0.653 4292597450
-0.034212872 0.00095323997 0.65399998 4292597452
-0.033023607 0.0009545408 0.65499997 4292531659
-0.031927619 0.00095876091 0.65799999 4292400587
-0.03072704 0.00096007186 0.65899998 4292466636
-0.029567424 0.0009628447 0.66100001 4292203207
-0.028314583 0.00096270966 0.66100001 4292203207
-0.027143648 0.0009654928 0.66299999 4292268487
-0.025926119 0.00096682512 0.66399997 4292202694
-0.024741964 0.00096961868 0.66600001 4292070595
-0.023620768 0.00097532885 0.67000002 4292070595
-0.022350991 0.0009752214 0.67000002 4292070595
-0.021207098 0.00098094135 0.67400002 4292004546
-0.019929783 0.00098084495 0.67400002 4291742143
-0.018707838 0.00098366465 0.676 4291676350
-0.017426772 0.0009835799 0.676 4291610042
-0.016145729 0.00098350109 0.676 4292004800
-0.14762434 0.0022751114 0.667 4292730848
-0.14569664 0.0022641807 0.66399997 4291217623
-0.14443299 0.0022634887 0.66399997 4290296522
-0.1431694 0.0022628023 0.66399997 4290952359
-0.14147845 0.0022553082 0.662 4291347117
-0.13958335 0.0022444183 0.65899998 4291478201
-0.13790965 0.0022369444 0.65700001 4291807166
-0.13624361 0.0022294801 0.65499997 4291938491
-0.13479139 0.0022254284 0.65399998 4292135614
-0.1335472 0.002224786 0.65399998 4292070591
-0.13210079 0.0022207485 0.653 4292136640
-0.13085866 0.0022201184 0.653 4292136386
-0.12941809 0.0022160953 0.65200001 4292136386
-0.12778479 0.0022086813 0.64999998 4292267717
-0.12654856 0.0022080713 0.64999998 4292267717
-0.1251196 0.0022040706 0.64899999 4292267717
-0.12369452 0.0022000773 0.648 4292333510
-0.12246228 0.0021994861 0.648 4292333510
-0.12104303 0.0021955068 0.64700001 4292333510
-0.11962764 0.002191535 0.64600003 4292333512
-0.11784957 0.0021807873 0.64300001 4292399305
-0.1166271 0.0021802229 0.64300001 4292531144
-0.11486626 0.0021694943 0.63999999 4292531144
-0.11364963 0.0021689436 0.63999999 4292728520
-0.11243307 0.0021683986 0.63999999 4292860106
-0.11121656 0.0021678593 0.63999999 4292859591
-0.11000012 0.0021673255 0.63999999 4292991176
-0.10878376 0.0021667974 0.63999999 4292728520
-0.10756746 0.0021662749 0.63999999 4292597191
-0.10635123 0.0021657583 0.63999999 4292597702
-0.1048065 0.0021584807 0.63800001 4292597702
-0.10359419 0.0021579769 0.63800001 4292531659
-0.10222149 0.002154097 0.63700002 4292794832
-0.10101119 0.0021536048 0.63700002 4292795084
-0.099957652 0.0021564988 0.63800001 4292729290
-0.098745592 0.0021560176 0.63800001 4292795086
-0.097533599 0.0021555419 0.63800001 4292795086
-0.096321672 0.0021550721 0.63800001 4292795086
-0.095109798 0.0021546076 0.63800001 4292795086
-0.09375082 0.0021507728 0.63700002 4292795086
-0.092540972 0.0021503204 0.63700002 4292729036
-0.091331206 0.0021498741 0.63700002 4292729552
-0.090121493 0.0021494338 0.63700002 4293058516
-0.088911816 0.0021489982 0.63700002 4293057751
-0.087564543 0.0021451961 0.63599998 4292926165
-0.086356893 0.002144773 0.63599998 4292728786
-0.085283197 0.0021477276 0.63700002 4292926165
-0.08394178 0.0021439444 0.63599998 4292861140
-0.082734317 0.0021435383 0.63599998 4292926933
-0.08152692 0.0021431383 0.63599998 4292992208
-0.080319561 0.0021427441 0.63599998 4292926415
-0.079112276 0.0021423553 0.63599998 4292926163
-0.077905044 0.0021419725 0.63599998 4292991956
-0.076697856 0.0021415954 0.63599998 4292861140
-0.075490735 0.002141224 0.63599998 4292861140
-0.074283667 0.0021408582 0.63599998 4292795347
-0.073191553 0.0021438641 0.63700002 4292861140
-0.071982697 0.0021435092 0.63700002 4292991956
-0.070884995 0.0021465248 0.63800001 4292926163
-0.06956514 0.0021428172 0.63700002 4292926163
-0.068356439 0.0021424803 0.63700002 4292794834
-0.067147784 0.0021421486 0.63700002 4292926163
-0.066042706 0.0021451851 0.63800001 4293123542
-0.065035492 0.0021515882 0.63999999 4292992210
-0.063921027 0.0021546339 0.64099997 4292926161
-0.062802814 0.0021576849 0.64200002 4293057749
-0.06177678 0.0021641005 0.64399999 4292991956
-0.060555153 0.0021638006 0.64399999 4292991956
-0.059241429 0.0021601468 0.64300001 4292991956
-0.058021788 0.0021598591 0.64300001 4292992208
-0.056802191 0.0021595771 0.64300001 4293058001
-0.055582643 0.0021593014 0.64300001 4292992208
-0.054278586 0.0021556732 0.64200002 4292926415
-0.053061023 0.0021554092 0.64200002 4292926161
-0.051924255 0.0021585082 0.64300001 4292926161
-0.050704882 0.0021582558 0.64300001 4292795599
-0.049562495 0.0021613652 0.64399999 4292729550
-0.048491444 0.0021678358 0.64600003 4292729550
-0.047266498 0.0021676 0.64600003 4292663756
-0.046112865 0.0021707253 0.64700001 4292729290
-0.044955477 0.0021738554 0.648 4292597448
-0.043726854 0.0021736366 0.648 4292597452
-0.042563852 0.0021767777 0.64899999 4292597452
-0.041397102 0.0021799244 0.64999998 4292531657
-0.040288389 0.0021864299 0.65200001 4292465864
-0.039052326 0.0021862336 0.65200001 4292531657
-0.037816301 0.0021860434 0.65200001 4292597450
-0.036636405 0.0021892118 0.653 4292597450
-0.035398547 0.0021890334 0.653 4292597450
-0.034213036 0.0021922132 0.65399998 4292597450
-0.033023767 0.0021953983 0.65499997 4292334535
-0.031927776 0.0022052922 0.65799999 4292531655
-0.030727185 0.0022084878 0.65899998 4292597448
-0.029567568 0.0022150406 0.66100001 4292268487
-0.028314719 0.0022148965 0.66100001 4292202694
-0.027184721 0.0022248104 0.66399997 4292070854
-0.025926244 0.0022246779 0.66399997 4292070854
-0.024742084 0.0022312521 0.66600001 4292005059
-0.023620885 0.0022445321 0.67000002 4291939266
-0.022351101 0.0022444171 0.67000002 4291807938
-0.021081341 0.0022443084 0.67000002 4291742145
-0.019989017 0.0022643029 0.676 4291742141
-0.018707927 0.0022642058 0.676 4291610555
-0.017426858 0.0022641148 0.676 4291610040
-0.016145807 0.0022640303 0.676 4293320657
-0.1478464 0.0035459579 0.66799998 4293980148
-0.14613622 0.0035346132 0.66600001 4292402149
-0.14443369 0.0035232776 0.66399997 4290165187
-0.14317007 0.003522563 0.66399997 4290688417
-0.14147915 0.0035112458 0.662 4291346604
-0.14000766 0.0035052418 0.66100001 4291412147
-0.13812022 0.0034886417 0.65799999 4291609269
-0.13666029 0.0034826556 0.65700001 4291806392
-0.13479204 0.0034660781 0.65399998 4292135100
-0.13354786 0.0034654073 0.65399998 4292070591
-0.13210145 0.0034594461 0.653 4292070591
-0.1308593 0.0034587882 0.653 4292070591
-0.12941872 0.0034528405 0.65200001 4292136640
-0.12817861 0.0034521958 0.65200001 4292070595
-0.1265492 0.0034409694 0.64999998 4292070595
-0.12512021 0.0034350443 0.64899999 4292070595
-0.12369513 0.0034291281 0.648 4292136388
-0.12246288 0.0034285097 0.648 4292267717
-0.12123071 0.0034278978 0.648 4292333510
-0.11981341 0.0034220021 0.64700001 4292333510
-0.11803342 0.0034055377 0.64399999 4292333510
-0.11662769 0.0033996596 0.64300001 4292334281
-0.11486682 0.0033832155 0.63999999 4292465610
-0.1136502 0.0033826397 0.63999999 4292531142
-0.11243361 0.0033820691 0.63999999 4292531142
-0.11121711 0.0033815047 0.63999999 4292531396
-0.11000068 0.0033809461 0.63999999 4292728518
-0.1087843 0.0033803929 0.63999999 4292531655
-0.107568 0.0033798458 0.63999999 4292531655
-0.10635175 0.003379304 0.63999999 4292597702
-0.10513557 0.0033787692 0.63999999 4292663495
-0.10359471 0.0033676818 0.63800001 4292663497
-0.10238247 0.00336716 0.63800001 4292663497
-0.10117027 0.0033666433 0.63800001 4292663497
-0.099958144 0.0033661325 0.63800001 4292729290
-0.098746084 0.0033656277 0.63800001 4292729036
-0.097534098 0.0033651285 0.63800001 4292729036
-0.096322149 0.0033646354 0.63800001 4292794834
-0.095110267 0.0033641479 0.63800001 4292794834
-0.093898475 0.0033636675 0.63800001 4292663756
-0.09268672 0.0033631921 0.63800001 4292663756
-0.091475025 0.003362722 0.63800001 4292663758
-0.09012194 0.003356989 0.63700002 4292729552
-0.088912271 0.0033565315 0.63700002 4292991958
-0.087702662 0.0033560805 0.63700002 4292926165
-0.086493112 0.0033556351 0.63700002 4292794834
-0.085283622 0.0033551962 0.63700002 4292991956
-0.084074184 0.0033547629 0.63700002 4292926933
-0.082734726 0.003349069 0.63599998 4292926933
-0.081527315 0.003348649 0.63599998 4292861138
-0.080319971 0.0033482339 0.63599998 4292861138
-0.079112664 0.003347825 0.63599998 4292795347
-0.077905424 0.003347422 0.63599998 4292861140
-0.076698244 0.0033470255 0.63599998 4292926933
-0.075491108 0.0033466343 0.63599998 4292861140
-0.074284032 0.0033462492 0.63599998 4292795345
-0.073191926 0.0033511315 0.63700002 4292795345
-0.071983062 0.003350758 0.63700002 4292926163
-0.070885353 0.0033556505 0.63800001 4292926163
-0.069674693 0.0033552879 0.63800001 4292794834
-0.068464078 0.0033549319 0.63800001 4292794834
-0.067253537 0.0033545825 0.63800001 4292794834
-0.066250063 0.003364753 0.63999999 4292794834
-0.065137438 0.0033696711 0.64099997 4292794832
-0.063921347 0.0033693379 0.64099997 4292794832
-0.062803127 0.0033742662 0.64200002 4293057749
-0.061777093 0.0033844556 0.64399999 4292991956
-0.060555454 0.0033841392 0.64399999 4292794834
-0.059241731 0.0033785745 0.64300001 4292794834
-0.058022078 0.0033782709 0.64300001 4292729036
-0.05680247 0.0033779729 0.64300001 4292926415
-0.055582915 0.0033776816 0.64300001 4292729550
-0.054278858 0.0033721437 0.64200002 4292729550
-0.053061292 0.003371865 0.64200002 4292663756
-0.051924516 0.0033768441 0.64300001 4292663756
-0.050783992 0.0033818288 0.64399999 4292663756
-0.049716681 0.0033920698 0.64600003 4292663756
-0.048491687 0.0033918142 0.64600003 4292400841
-0.047266737 0.0033915644 0.64600003 4292663756
-0.0461131 0.0033965711 0.64700001 4292466636
-0.044955701 0.0034015833 0.648 4292466636
-0.043794557 0.0034066008 0.64899999 4292597450
-0.042564072 0.0034063749 0.64899999 4292465864
-0.04152469 0.0034219013 0.65200001 4292465864
-0.040350385 0.0034269351 0.653 4292531657
-0.039112419 0.0034267271 0.653 4292465864
-0.037874494 0.0034265255 0.653 4292334535
-0.036636595 0.0034263297 0.653 4292399303
-0.03545294 0.0034313875 0.65399998 4292465097
-0.034265526 0.0034364513 0.65499997 4292334281
-0.033023935 0.0034362744 0.65499997 4292202694
-0.03192794 0.0034518419 0.65799999 4292202694
-0.030727344 0.0034569222 0.65899998 4292202694
-0.02956772 0.0034672546 0.66100001 4292136901
-0.028314866 0.0034671016 0.66100001 4292136901
-0.027184861 0.0034826898 0.66399997 4291939520
-0.025926376 0.0034825492 0.66399997 4292005313
-0.024816509 0.0035033931 0.66799998 4292005313
-0.023621008 0.0035137546 0.67000002 4291807934
-0.022384578 0.0035188757 0.671 4291742143
-0.021112917 0.0035187595 0.671 4291676350
-0.020107403 0.0035658453 0.68000001 4291676348
-0.018818725 0.0035657403 0.68000001 4291676348
-0.017530069 0.0035656432 0.68000001 4291347383
-0.14784713 0.0048134113 0.66799998 4294572539
-0.14635637 0.004805448 0.667 4293717746
-0.14486948 0.0047974922 0.66600001 4290691268
-0.14360206 0.0047967462 0.66600001 4290163879
-0.14169356 0.0047744033 0.66299999 4290887346
-0.14000838 0.0047592735 0.66100001 4291346867
-0.13812093 0.0047369534 0.65799999 4291412660
-0.13666099 0.0047290414 0.65700001 4291609017
-0.13479273 0.004706745 0.65399998 4291806653
-0.13354853 0.004706047 0.65399998 4292070072
-0.13210212 0.0046981606 0.653 4292070072
-0.13085996 0.0046974756 0.653 4292004798
-0.12961787 0.0046967971 0.653 4292070591
-0.12817927 0.0046889316 0.65200001 4292070591
-0.12693922 0.0046882662 0.65200001 4292004798
-0.12531364 0.0046732258 0.64999998 4292070341
-0.12388664 0.004665385 0.64899999 4292070341
-0.12246351 0.0046575521 0.648 4292136134
-0.12123133 0.0046569132 0.648 4292333512
-0.11981403 0.0046490952 0.64700001 4292136134
-0.11803404 0.0046269149 0.64399999 4292136134
-0.11662828 0.0046191141 0.64300001 4292202694
-0.1152264 0.0046113217 0.64200002 4292268487
-0.11400594 0.0046107168 0.64200002 4292399557
-0.11260988 0.0046029389 0.64099997 4292465351
-0.11139146 0.0046023484 0.64099997 4292465351
-0.11017311 0.0046017631 0.64099997 4292596937
-0.10878486 0.0045940061 0.63999999 4292596937
-0.10756855 0.0045934347 0.63999999 4292596937
-0.10635231 0.004592869 0.63999999 4292597448
-0.10513613 0.0045923088 0.63999999 4292729290
-0.10359524 0.0045774048 0.63800001 4292597448
-0.102383 0.0045768591 0.63800001 4292597448
-0.10117079 0.004576318 0.63800001 4292597450
-0.099958658 0.0045757839 0.63800001 4292663243
-0.09874659 0.0045752558 0.63800001 4292663243
-0.097534589 0.0045747333 0.63800001 4292729036
-0.096322663 0.0045742174 0.63800001 4292794580
-0.095110796 0.0045737075 0.63800001 4292794580
-0.093898959 0.0045732032 0.63800001 4292729038
-0.092687212 0.0045727044 0.63800001 4292663245
-0.091475502 0.0045722127 0.63800001 4292663245
-0.090122402 0.0045645614 0.63700002 4292663245
-0.088912725 0.0045640827 0.63700002 4292794834
-0.087703116 0.0045636101 0.63700002 4293123542
-0.086493559 0.0045631435 0.63700002 4292926161
-0.085284062 0.0045626829 0.63700002 4292794832
-0.084206618 0.0045693899 0.63800001 4292992210
-0.082865261 0.00456178 0.63700002 4293058003
-0.081655942 0.0045613376 0.63700002 4292861392
-0.080446675 0.0045609022 0.63700002 4292795599
-0.079113081 0.0045533129 0.63599998 4292926163
-0.077905841 0.0045528901 0.63599998 4293123542
-0.076698638 0.0045524738 0.63599998 4293057749
-0.07549151 0.0045520626 0.63599998 4292926163
-0.074284427 0.0045516589 0.63599998 4292729552
-0.073192306 0.004558417 0.63700002 4292729552
-0.071983442 0.0045580249 0.63700002 4292794832
-0.070885725 0.0045647933 0.63800001 4292794832
-0.069675051 0.0045644129 0.63800001 4292794832
-0.068464443 0.0045640389 0.63800001 4292729038
-0.067253895 0.0045636711 0.63800001 4292794832
-0.066250421 0.0045776148 0.63999999 4292794832
-0.065137781 0.0045844102 0.64099997 4292729038
-0.063921675 0.0045840591 0.64099997 4292729038
-0.062901281 0.0045980173 0.64300001 4292794832
-0.061777413 0.004604829 0.64399999 4292794832
-0.060555771 0.0046044961 0.64399999 4292794834
-0.059334181 0.0046041696 0.64399999 4292729040
-0.058022391 0.0045967004 0.64300001 4292795086
-0.056802779 0.0045963875 0.64300001 4292795086
-0.05558322 0.0045960806 0.64300001 4292729288
-0.054363698 0.0045957803 0.64300001 4292663495
-0.053144217 0.004595486 0.64300001 4292663497
-0.052005544 0.0046023447 0.64399999 4292663497
-0.050941985 0.0046163565 0.64600003 4292663243
-0.049716942 0.0046160803 0.64600003 4292597450
-0.048567008 0.0046229567 0.64700001 4292597450
-0.047413331 0.0046298373 0.648 4292926415
-0.046184618 0.0046295798 0.648 4292597448
-0.045025323 0.004636474 0.64899999 4292531655
-0.043794788 0.004636229 0.64899999 4292465862
-0.042629883 0.0046431348 0.64999998 4292465862
-0.041588601 0.0046643321 0.653 4292465862
-0.040350601 0.0046641058 0.653 4292465862
-0.039112631 0.004663886 0.653 4292334533
-0.037932698 0.0046708151 0.65399998 4292334533
-0.036692899 0.0046706088 0.65399998 4292268489
-0.035453133 0.0046704081 0.65399998 4292268489
-0.034265708 0.0046773562 0.65499997 4292202440
-0.033124954 0.0046914509 0.65700001 4292202440
-0.031976636 0.0047055506 0.65899998 4292136901
-0.030727511 0.004705376 0.65899998 4292136901
-0.029567881 0.0047194879 0.66100001 4292267715
-0.028400695 0.0047336053 0.66299999 4292267715
-0.02726689 0.0047548679 0.66600001 4292005311
-0.026043657 0.0047618579 0.667 4292005311
-0.024816647 0.0047688535 0.66799998 4291939516
-0.023621134 0.0047829947 0.67000002 4291742393
-0.022351341 0.0047828653 0.67000002 4291676602
-0.021081567 0.0047827428 0.67000002 4291610553
-0.14829057 0.0060990914 0.67000002 4294572539
-0.14657655 0.0060800966 0.66799998 4294178043
-0.14508776 0.0060702148 0.667 4291743701
-0.14381845 0.0060694395 0.667 4290558394
-0.14233546 0.0060595712 0.66600001 4290690237
-0.14043273 0.0060315169 0.66299999 4291149491
-0.13833158 0.0059943795 0.65899998 4291412406
-0.13666172 0.0059754481 0.65700001 4291477940
-0.13479343 0.0059474306 0.65399998 4291675063
-0.13354923 0.005946706 0.65399998 4291872696
-0.13230512 0.0059459866 0.65399998 4291938489
-0.13086067 0.0059361826 0.653 4291873211
-0.12961857 0.0059354776 0.653 4292004798
-0.12837654 0.0059347763 0.653 4292004798
-0.12693989 0.0059249951 0.65200001 4292070591
-0.1253143 0.0059061339 0.64999998 4292070595
-0.12388729 0.0058963699 0.64899999 4292070595
-0.12265315 0.0058956975 0.64899999 4292004800
-0.12123198 0.0058859475 0.648 4292136386
-0.11999985 0.0058852891 0.648 4292070595
-0.11840124 0.0058664745 0.64600003 4292267717
-0.11681028 0.0058476678 0.64399999 4292202692
-0.11558598 0.0058470308 0.64399999 4292268485
-0.11436173 0.0058464003 0.64399999 4292334533
-0.11296186 0.0058366982 0.64300001 4292334533
-0.11139205 0.0058179265 0.64099997 4292268485
-0.11017372 0.0058173169 0.64099997 4292465864
-0.10895543 0.005816713 0.64099997 4292465864
-0.10756914 0.0058070426 0.63999999 4292465864
-0.10635287 0.0058064512 0.63999999 4292465864
-0.10513668 0.0058058668 0.63999999 4292531657
-0.10392055 0.0058052889 0.63999999 4292268485
-0.10238354 0.0057865768 0.63800001 4292597450
-0.10117134 0.0057860133 0.63800001 4292597448
-0.10027255 0.0058035911 0.63999999 4292663497
-0.099056691 0.0058030384 0.63999999 4292663243
-0.097840868 0.0058024898 0.63999999 4292663243
-0.096323177 0.0057838177 0.63800001 4292663245
-0.095111296 0.005783285 0.63800001 4292729038
-0.093899466 0.0057827579 0.63800001 4292729036
-0.092687719 0.0057822382 0.63800001 4292663243
-0.091476016 0.0057817237 0.63800001 4292729038
-0.090122893 0.0057721538 0.63700002 4292729038
-0.08891321 0.0057716528 0.63700002 4292859854
-0.087703601 0.0057711578 0.63700002 4292925648
-0.086494029 0.0057706703 0.63700002 4292925648
-0.085284539 0.0057701878 0.63700002 4292925648
-0.084207073 0.0057787704 0.63800001 4292729036
-0.082865715 0.0057692439 0.63700002 4292926415
-0.081656381 0.0057687806 0.63700002 4292795599
-0.080447137 0.0057683252 0.63700002 4292795599
-0.079113513 0.0057588192 0.63599998 4292992208
-0.077906266 0.0057583768 0.63599998 4293058001
-0.076699071 0.00575794 0.63599998 4292926161
-0.075491928 0.0057575111 0.63599998 4292794832
-0.074284837 0.0057570864 0.63599998 4292729550
-0.073192716 0.0057657221 0.63700002 4292729550
-0.071983837 0.005765311 0.63700002 4292795086
-0.071108319 0.0057920557 0.63999999 4292926415
-0.069675453 0.0057735583 0.63800001 4292729038
-0.068464823 0.0057731648 0.63800001 4292663245
-0.067465097 0.0057908767 0.63999999 4292663758
-0.066250779 0.0057904953 0.63999999 4292729552
-0.065138139 0.0057991692 0.64099997 4292663245
-0.064021766 0.0058078482 0.64200002 4292729038
-0.062901631 0.0058165318 0.64300001 4292729038
-0.061681837 0.005816177 0.64300001 4292729038
-0.06055611 0.0058248728 0.64399999 4292729038
-0.059334502 0.0058245296 0.64399999 4292729038
-0.058112942 0.0058241934 0.64399999 4292663756
-0.056891438 0.0058238637 0.64399999 4292663756
-0.055669971 0.0058235419 0.64399999 4292466632
-0.054448549 0.0058232257 0.64399999 4292466632
-0.053227168 0.005822917 0.64399999 4292597448
-0.052005842 0.0058226138 0.64399999 4292597448
-0.050942261 0.0058404002 0.64600003 4292597450
-0.049717218 0.0058401101 0.64600003 4292531657
-0.048567288 0.0058488674 0.64700001 4292531657
-0.047413591 0.0058576297 0.648 4292531657
-0.046256151 0.0058663981 0.64899999 4292465862
-0.04502558 0.0058661341 0.64899999 4292465862
-0.043862522 0.0058749155 0.64999998 4292465603
-0.0427613 0.0058927424 0.65200001 4292465603
-0.041652523 0.0059105712 0.65399998 4292334533
-0.040350825 0.0059012957 0.653 4292268739
-0.039112851 0.0059010652 0.653 4292268485
-0.03793291 0.0059098764 0.65399998 4292268485
-0.036693107 0.0059096599 0.65399998 4292268489
-0.035507541 0.0059184846 0.65499997 4292202440
-0.034370534 0.0059363521 0.65700001 4292202694
-0.033225976 0.0059542246 0.65899998 4292202694
-0.031976819 0.0059540332 0.65899998 4292136901
-0.030867565 0.0059809526 0.662 4292005059
-0.02961278 0.0059807752 0.662 4292004798
-0.028443696 0.0059986729 0.66399997 4292004798
-0.027267048 0.0060165762 0.66600001 4291939516
-0.026082853 0.0060344855 0.66799998 4291808186
-0.024816794 0.0060343347 0.66799998 4291676859
-0.02362127 0.0060522561 0.67000002 4291545530
-0.022351468 0.0060521197 0.67000002 4291479737
-0.14912014 0.0073492005 0.66799998 4294111988
-0.14784873 0.0073483791 0.66799998 4294374904
-0.14657736 0.0073475624 0.66799998 4294375674
-0.14530607 0.0073467516 0.66799998 4293191399
-0.14403485 0.0073459474 0.66799998 4291218139
-0.14233626 0.0073231566 0.66600001 4289968072
-0.1406453 0.0073003764 0.66399997 4290624432
-0.13875215 0.0072666146 0.66100001 4291018934
-0.13687047 0.0072328653 0.65799999 4291346354
-0.13500027 0.0071991282 0.65499997 4291477940
