# .PCD v0.7 - Point Cloud Data file format
VERSION 0.7
FIELDS x y z rgba
SIZE 4 4 4 4
TYPE F F F U
COUNT 1 1 1 1
WIDTH 1049
HEIGHT 1
VIEWPOINT 0 0 0 1 0 0 0
POINTS 1049
DATA ascii
0.051534619 0.058555607 0.69 4294374381
0.052843206 0.058556329 0.69 4294505197
0.054230295 0.058641933 0.69099998 4294505197
0.055540845 0.058642689 0.69099998 4294505710
0.05701597 0.058813199 0.69300002 4294374381
0.058414545 0.058898874 0.69400001 4294505710
0.059730891 0.058899693 0.69400001 4294505710
0.061311159 0.059155144 0.69700003 4294505710
0.062723123 0.05924087 0.69800001 4294637297
0.064047158 0.059241749 0.69800001 4294637297
0.065558545 0.05941239 0.69999999 4294571504
0.066982009 0.059498191 0.70099998 4294636786
0.068506747 0.059668887 0.70300001 4294636786
0.069939792 0.059754726 0.704 4294636786
0.071275413 0.059755705 0.704 4294636786
0.072611086 0.059756696 0.704 4294570990
0.074156858 0.059927467 0.70599997 4294505197
0.075603351 0.060013399 0.70700002 4294439404
0.077053666 0.06009933 0.708 4294505197
0.078729287 0.060355071 0.71100003 4294505458
0.080641605 0.060780611 0.71600002 4294374129
0.082000315 0.060781728 0.71600002 4294110955
0.083475493 0.06086776 0.71700001 4294110955
0.085072838 0.061038699 0.71899998 4294242795
0.086557612 0.061124783 0.72000003 4294176746
0.087924108 0.061125975 0.72000003 4294307818
0.089538679 0.061296988 0.722 4294307818
-0.053438451 0.06334018 0.73000002 4282667574
-0.051911052 0.063165754 0.72799999 4287668372
-0.0504607 0.06307812 0.727 4292010710
-0.04894666 0.062903762 0.72500002 4292859341
-0.047374643 0.062642649 0.722 4292990670
-0.046005201 0.062641859 0.722 4293056968
-0.044512153 0.06246756 0.72000003 4293056968
-0.04296679 0.062206518 0.71700001 4293122765
-0.041432854 0.061945517 0.71399999 4293517267
-0.040022589 0.061858047 0.713 4293386189
-0.038507681 0.06159709 0.70999998 4293517519
-0.036951844 0.061249405 0.70599997 4293649107
-0.035612982 0.061248764 0.70599997 4293649107
-0.034177065 0.061074637 0.704 4293649109
-0.032842062 0.061074056 0.704 4293649109
-0.031462327 0.060986724 0.70300001 4293648855
-0.030000696 0.060725909 0.69999999 4293648855
-0.028591439 0.060551882 0.69800001 4293780695
-0.027267922 0.060551375 0.69800001 4293780695
-0.025907256 0.060464136 0.69700003 4293715163
-0.024585679 0.060463663 0.69700003 4293715163
-0.023230748 0.060376469 0.69599998 4293584093
-0.021848153 0.06020255 0.69400001 4293584093
-0.020502744 0.060115397 0.69300002 4293846750
-0.019188838 0.060115017 0.69300002 4294175714
-0.017874951 0.060114656 0.69300002 4293846752
-0.016561082 0.060114302 0.69300002 4293846752
-0.015247229 0.060113978 0.69300002 4294043615
-0.013933393 0.060113687 0.69300002 4294043615
-0.012583151 0.059939921 0.69099998 4294043615
-0.011273135 0.059939656 0.69099998 4294043615
-0.0099631334 0.059939411 0.69099998 4293912545
-0.0086531434 0.059939198 0.69099998 4294241509
-0.0073325364 0.059852257 0.69 4294110689
-0.0060244631 0.059852075 0.69 4294110689
-0.0047163996 0.059851926 0.69 4294176739
-0.0033984643 0.059678301 0.68800002 4294176739
-0.0020942071 0.059678189 0.68800002 4294307553
-0.00078880781 0.059591345 0.68699998 4294373346
0.00051279465 0.059504539 0.68599999 4294307553
0.0018132447 0.05950449 0.68599999 4294241759
0.0031136912 0.059504453 0.68599999 4294241761
0.0044141361 0.059504449 0.68599999 4294175712
0.0057145795 0.059504449 0.68599999 4294241761
0.0069945711 0.059331004 0.68400002 4294175712
0.0082912222 0.059331056 0.68400002 4294175712
0.0095878765 0.059331127 0.68400002 4294241761
0.010884532 0.059331212 0.68400002 4294307553
0.012181191 0.05933132 0.68400002 4294241759
0.013477854 0.059331458 0.68400002 4294307555
0.014774526 0.059331615 0.68400002 4294241761
0.0160712 0.059331778 0.68400002 4294307555
0.017367881 0.059331976 0.68400002 4294373348
0.018719148 0.059505671 0.68599999 4294307814
0.019961271 0.059332412 0.68400002 4294307814
0.021257984 0.059332665 0.68400002 4294307816
0.022554701 0.059332941 0.68400002 4294373609
0.023851434 0.059333231 0.68400002 4294307818
0.025148181 0.059333548 0.68400002 4294307818
0.026406283 0.05924714 0.68300003 4294373096
0.027701164 0.059247494 0.68300003 4294373096
0.028996056 0.059247866 0.68300003 4294438891
0.030290967 0.059248265 0.68300003 4294438891
0.031585891 0.059248675 0.68300003 4294307818
0.032880839 0.059249103 0.68300003 4294505197
0.03422584 0.059336305 0.68400002 4294505449
0.035522725 0.059336774 0.68400002 4294439656
0.036819629 0.059337281 0.68400002 4294439656
0.038228005 0.059511285 0.68599999 4294373607
0.039528742 0.059511818 0.68599999 4294505449
0.040829506 0.059512369 0.68599999 4294505449
0.042130303 0.059512954 0.68599999 4294505449
0.043494418 0.05960029 0.68699998 4294505449
0.04479716 0.059600905 0.68699998 4294505708
0.046167027 0.059688289 0.68800002 4294374379
0.047471717 0.059688956 0.68800002 4294439402
0.048776433 0.059689622 0.68800002 4294373609
0.050081179 0.059690312 0.68800002 4294373609
0.051385954 0.059691019 0.68800002 4294439402
0.052690759 0.05969175 0.68800002 4294308586
0.054152567 0.059866019 0.69 4294374379
0.05554162 0.059953552 0.69099998 4294374381
0.057016771 0.060127866 0.69300002 4294374381
0.058415364 0.060215447 0.69400001 4294505710
0.059731722 0.060216274 0.69400001 4294571504
0.061312016 0.060477436 0.69700003 4294505710
0.062634133 0.060478307 0.69700003 4294571504
0.064048059 0.06056596 0.69800001 4294571504
0.065559454 0.060740415 0.69999999 4294505710
0.066982947 0.060828116 0.70099998 4294571506
0.068507709 0.061002623 0.70300001 4294505712
0.069940776 0.061090369 0.704 4294505712
0.071276404 0.06109136 0.704 4294505712
0.072612084 0.061092358 0.704 4294374381
0.074157886 0.061266955 0.70599997 4294308588
0.075604402 0.061354794 0.70700002 4294374381
0.077054746 0.06144264 0.708 4294374381
0.078730389 0.061704081 0.71100003 4294308588
0.08064273 0.06213912 0.71600002 4294242795
0.082001448 0.062140256 0.71600002 4294176746
0.083476655 0.062228203 0.71700001 4294176746
0.085074022 0.06240296 0.71899998 4294242793
0.086438581 0.062404148 0.71899998 4294045157
0.087803192 0.062405363 0.71899998 4294044648
0.089539908 0.062666975 0.722 4294176235
-0.053292941 0.064547837 0.72799999 4284441419
-0.051840637 0.064458288 0.727 4289175435
-0.05046156 0.064457409 0.727 4293123015
-0.048947502 0.064279228 0.72500002 4292858569
-0.047375459 0.064012408 0.722 4292990411
-0.046005987 0.064011604 0.722 4292859845
-0.044512916 0.063833512 0.72000003 4292859845
-0.042967528 0.063566767 0.71700001 4293122248
-0.041375544 0.063211396 0.713 4293451212
-0.039911021 0.063033372 0.71100003 4293254603
-0.038508356 0.062944017 0.70999998 4293386189
-0.03700484 0.062677391 0.70700002 4293518291
-0.035613619 0.062588096 0.70599997 4293518291
-0.034177676 0.062410157 0.704 4293649620
-0.032842651 0.062409565 0.704 4293518291
-0.031462897 0.062320329 0.70300001 4293583316
-0.030001247 0.062053829 0.69999999 4293714902
-0.028591961 0.06187598 0.69800001 4293714648
-0.027268421 0.061875463 0.69800001 4293714648
-0.025944905 0.061874967 0.69800001 4293714648
-0.024586141 0.061785854 0.69700003 4293780697
-0.023264572 0.0617854 0.69700003 4293715163
-0.021848571 0.061519027 0.69400001 4293780956
-0.020503141 0.061429974 0.69300002 4293847004
-0.019189214 0.061429579 0.69300002 4293978590
-0.017875306 0.061429217 0.69300002 4293780956
-0.016561417 0.061428867 0.69300002 4293846750
-0.015247545 0.061428551 0.69300002 4293912797
-0.013933687 0.061428238 0.69300002 4293912797
-0.012583423 0.061250664 0.69099998 4293847004
-0.011273387 0.061250407 0.69099998 4293912797
-0.0099633634 0.061250158 0.69099998 4293912797
-0.008653352 0.061249934 0.69099998 4294175712
-0.0073327259 0.061161105 0.69 4294044896
-0.0060246312 0.061160918 0.69 4294044896
-0.0047165467 0.061160758 0.69 4294110689
-0.0033985903 0.060983345 0.68800002 4294044896
-0.0020943126 0.060983233 0.68800002 4294109919
-0.00078889233 0.060894493 0.68699998 4294241761
0.00051273115 0.060805779 0.68599999 4293978588
0.0018132018 0.060805727 0.68599999 4294241759
0.0031136691 0.060805686 0.68599999 4294241761
0.0044141342 0.060805678 0.68599999 4294175712
0.0056979377 0.060628425 0.68400002 4294109919
0.0069946102 0.060628444 0.68400002 4294109919
0.0082912827 0.060628496 0.68400002 4294109919
0.0095879547 0.060628567 0.68400002 4294241761
0.010916458 0.060805939 0.68599999 4294110689
0.012181313 0.060628772 0.68400002 4294110689
0.013477997 0.060628902 0.68400002 4294241761
0.014774686 0.060629051 0.68400002 4294175712
0.016071383 0.06062923 0.68400002 4294175712
0.017368084 0.060629416 0.68400002 4294373348
0.018719373 0.060806926 0.68599999 4294373609
0.019961517 0.060629867 0.68400002 4294307816
0.021258246 0.060630128 0.68400002 4294307816
0.022554992 0.060630407 0.68400002 4294307816
0.023816872 0.060542062 0.68300003 4294307816
0.025111742 0.060542386 0.68300003 4294307816
0.026406629 0.060542725 0.68300003 4294176487
0.027701527 0.060543079 0.68300003 4294307816
0.028996438 0.060543448 0.68300003 4294373096
0.030291367 0.060543846 0.68300003 4294373096
0.031586315 0.060544264 0.68300003 4294307818
0.032881286 0.060544714 0.68300003 4294176233
0.03422631 0.060633812 0.68400002 4294241509
0.03552321 0.060634296 0.68400002 4294241509
0.036820136 0.060634796 0.68400002 4294241509
0.038228527 0.060812604 0.68599999 4294373096
0.039529294 0.060813151 0.68599999 4294307814
0.040830072 0.060813703 0.68599999 4294307814
0.042130884 0.060814284 0.68599999 4294176487
0.043495025 0.060903538 0.68699998 4294439402
0.044797778 0.060904153 0.68699998 4294308586
0.046100568 0.060904801 0.68699998 4294242793
0.04747238 0.060994111 0.68800002 4294307816
0.048777115 0.060994796 0.68800002 4294373609
0.050081883 0.060995493 0.68800002 4294177000
0.051386677 0.060996212 0.68800002 4294242793
0.052691508 0.060996957 0.68800002 4294176746
0.054153331 0.061175026 0.69 4294308588
0.055542406 0.061264466 0.69099998 4294374381
0.057017576 0.061442595 0.69300002 4294308588
0.058416191 0.06153208 0.69400001 4294242795
0.059732571 0.061532922 0.69400001 4294308588
0.061224915 0.061711103 0.69599998 4294242795
0.062635019 0.061800655 0.69700003 4294308588
0.063957199 0.061801553 0.69700003 4294571506
0.065279424 0.06180248 0.69700003 4294571506
0.066888325 0.062069427 0.69999999 4294505710
0.06850867 0.062336411 0.70300001 4294505710
0.069941744 0.062426057 0.704 4294374381
0.071277417 0.06242707 0.704 4294308588
0.072613113 0.062428091 0.704 4294242795
0.074158944 0.062606484 0.70599997 4294308588
0.075605474 0.062696226 0.70700002 4294308588
0.077055827 0.062785991 0.708 4294308588
0.0787315 0.063053146 0.71100003 4294242795
0.080305964 0.063231632 0.713 4294242795
0.082002603 0.063498847 0.71600002 4294176746
0.083477817 0.063588686 0.71700001 4294242795
0.085075207 0.063767247 0.71899998 4294308586
0.086439781 0.063768461 0.71899998 4294111207
0.087804422 0.063769691 0.71899998 4293978599
-0.053293865 0.065929115 0.72799999 4280631892
-0.051841531 0.065837644 0.727 4287007877
-0.050462428 0.06583675 0.727 4292271318
-0.048948344 0.065654762 0.72500002 4292793798
-0.0474419 0.065472811 0.72299999 4292662212
-0.046006788 0.065381423 0.722 4292924866
-0.044637341 0.065380625 0.722 4292990659
-0.042968292 0.064927071 0.71700001 4293122502
-0.041260209 0.064383008 0.71100003 4293319624
-0.039855596 0.064291738 0.70999998 4293188556
-0.038509045 0.064291023 0.70999998 4293254349
-0.037057843 0.064109243 0.708 4293583564
-0.035664711 0.064018041 0.70700002 4293649357
-0.034323942 0.064017393 0.70700002 4293649105
-0.032843243 0.063745134 0.704 4293583312
-0.031463474 0.063654006 0.70300001 4293583316
-0.030044662 0.063472345 0.70099998 4293649109
-0.028592495 0.063200153 0.69800001 4293714902
-0.027268933 0.063199632 0.69800001 4293714902
-0.025945397 0.063199133 0.69800001 4293780697
-0.024586607 0.063108101 0.69700003 4293780697
-0.023265015 0.063107647 0.69700003 4293715161
-0.021943441 0.0631072 0.69700003 4293715161
-0.02053313 0.062835157 0.69400001 4293847002
-0.019189596 0.06274423 0.69300002 4293978588
-0.017875668 0.06274385 0.69300002 4293781210
-0.016561756 0.0627435 0.69300002 4293781210
-0.015247863 0.062743165 0.69300002 4294043611
-0.013933985 0.062742859 0.69300002 4294043611
-0.0125837 0.062561482 0.69099998 4293847004
-0.011273642 0.062561221 0.69099998 4293912797
-0.0099491794 0.062470436 0.69 4293912797
-0.0086410418 0.062470205 0.69 4293978590
-0.0073329168 0.062470004 0.69 4293978590
-0.0060248026 0.062469821 0.69 4294109919
-0.0047166967 0.062469658 0.69 4294109919
-0.0033987185 0.062288444 0.68800002 4294109919
-0.0020944197 0.06228834 0.68800002 4294109919
-0.0007889783 0.0621977 0.68699998 4294307555
0.00051266607 0.06210709 0.68599999 4294109919
0.0018131579 0.062107041 0.68599999 4294307555
0.0031136458 0.062106993 0.68599999 4294241759
0.0044141319 0.062106982 0.68599999 4293978588
0.0056979577 0.061925925 0.68400002 4293978592
0.0069946498 0.061925955 0.68400002 4293978592
0.0082913432 0.061926004 0.68400002 4293913310
0.0095880367 0.061926074 0.68400002 4293913310
0.010884735 0.061926164 0.68400002 4294175966
0.012181437 0.061926279 0.68400002 4294175966
0.013478141 0.061926417 0.68400002 4294175712
0.014774851 0.061926574 0.68400002 4294109919
0.016071565 0.061926737 0.68400002 4294109921
0.017368291 0.061926939 0.68400002 4294109921
0.018665023 0.061927155 0.68400002 4294109667
0.019932581 0.061836861 0.68300003 4294109667
0.021227438 0.061837122 0.68300003 4294110439
0.022522304 0.061837409 0.68300003 4294176233
0.023817182 0.061837703 0.68300003 4294307816
0.02511207 0.06183802 0.68300003 4294373609
0.026406977 0.061838362 0.68300003 4294176487
0.027701896 0.061838724 0.68300003 4294110693
0.028996829 0.061839104 0.68300003 4294176487
0.030291777 0.06183951 0.68300003 4294176487
0.031586748 0.061839931 0.68300003 4294176487
0.03288174 0.061840385 0.68300003 4294176487
0.034176741 0.061840836 0.68300003 4294176233
0.035523709 0.061931875 0.68400002 4294176233
0.036820643 0.061932374 0.68400002 4294307303
0.038229059 0.062113982 0.68599999 4294307303
0.039529845 0.062114537 0.68599999 4294176487
0.040830646 0.062115107 0.68599999 4294307816
0.042131476 0.062115692 0.68599999 4294307816
0.04349564 0.062206842 0.68699998 4294307816
0.044798415 0.062207472 0.68699998 4294176233
0.046101216 0.062208124 0.68699998 4294176233
0.047473058 0.062299345 0.68800002 4294307816
0.048777811 0.062300038 0.68800002 4294373609
0.050082602 0.062300749 0.68800002 4294307814
0.051387414 0.062301476 0.68800002 4294176485
0.052692261 0.062302224 0.68800002 4294110953
0.054154109 0.062484104 0.69 4294110953
0.055543192 0.062575445 0.69099998 4294373611
0.057018392 0.06275738 0.69300002 4294373611
0.058332853 0.062758222 0.69300002 4294373609
0.059733421 0.062849618 0.69400001 4294373609
0.061225783 0.063031606 0.69599998 4294373611
0.062546059 0.063032515 0.69599998 4294439404
0.063866347 0.063033417 0.69599998 4294571252
0.065280356 0.063124925 0.69700003 4294571252
0.066698179 0.06321644 0.69800001 4294570990
0.068509661 0.063670255 0.70300001 4294505197
0.069843404 0.063671246 0.70300001 4294439404
0.071278445 0.063762851 0.704 4294439404
0.072614148 0.063763872 0.704 4294439404
0.074159995 0.063946083 0.70599997 4294373611
0.075606547 0.064037733 0.70700002 4294439404
0.077274598 0.064310573 0.70999998 4294373611
0.078954093 0.064583421 0.713 4294373609
0.080307104 0.064584568 0.713 4294373609
0.082118303 0.06494806 0.71700001 4293979112
0.083711855 0.065130413 0.71899998 4293847783
0.085076407 0.065131612 0.71899998 4294044646
0.08656124 0.065223433 0.72000003 4294110439
0.087927796 0.065224677 0.72000003 4293847267
-0.051913738 0.067309514 0.72799999 4286943086
-0.050463319 0.06721615 0.727 4292009147
-0.048949216 0.067030355 0.72500002 4292726721
-0.047442742 0.06684459 0.72299999 4292726721
-0.046071339 0.06684377 0.72299999 4292726719
-0.044699967 0.066842943 0.72299999 4292990148
-0.043328632 0.066842154 0.72299999 4293056708
-0.041260958 0.065731987 0.71100003 4293319624
-0.039856315 0.065638795 0.70999998 4293188554
-0.038509749 0.065638088 0.70999998 4293320396
-0.037058521 0.065452501 0.708 4293386189
-0.035665363 0.065359384 0.70700002 4293386189
-0.034324571 0.065358736 0.70700002 4293451212
-0.032843858 0.065080784 0.704 4293517005
-0.031464059 0.064987727 0.70300001 4293320144
-0.030002361 0.064709827 0.69999999 4293583316
-0.028593034 0.06452439 0.69800001 4293779925
-0.027269453 0.064523861 0.69800001 4293845718
-0.025945896 0.064523347 0.69800001 4293714648
-0.02462236 0.064522848 0.69800001 4293714648
-0.02326547 0.064429946 0.69700003 4293649368
-0.021943875 0.064429492 0.69700003 4293518039
-0.020533537 0.064151756 0.69400001 4293518039
-0.019189984 0.064058922 0.69300002 4293715161
-0.017876035 0.064058542 0.69300002 4293846490
-0.0165621 0.064058185 0.69300002 4293846490
-0.015248188 0.064057842 0.69300002 4293780695
-0.013894071 0.06387265 0.69099998 4293846488
-0.012583978 0.063872352 0.69099998 4293781210
-0.0112739 0.063872084 0.69099998 4293912797
-0.0099494159 0.063779406 0.69 4293912797
-0.0086412579 0.063779175 0.69 4293912797
-0.0073331129 0.063778967 0.69 4293912797
-0.0060249749 0.06377878 0.69 4294109919
-0.0047168485 0.063778616 0.69 4293978590
-0.0033988494 0.063593611 0.68800002 4293978590
-0.0020945289 0.063593492 0.68800002 4293978590
-0.00078906619 0.063500963 0.68699998 4294109919
0.00051259965 0.063408457 0.68599999 4293912797
0.0018131124 0.06340839 0.68599999 4294109919
0.0031136218 0.063408352 0.68599999 4293978590
0.0044141295 0.063408338 0.68599999 4293912797
0.005697974 0.063223481 0.68400002 4293912797
0.0069946898 0.063223518 0.68400002 4293912797
0.0082914019 0.063223563 0.68400002 4293847517
0.0095881196 0.063223645 0.68400002 4293716188
0.010884839 0.063223742 0.68400002 4293913049
0.012163751 0.063131414 0.68300003 4293978842
0.01345858 0.063131548 0.68300003 4293978590
0.014753415 0.063131705 0.68300003 4293978590
0.016071754 0.063224316 0.68400002 4294109921
0.017368497 0.063224517 0.68400002 4294109921
0.018665254 0.06322474 0.68400002 4294109667
0.019932829 0.063132547 0.68300003 4294109667
0.021227706 0.0631328 0.68300003 4294175714
0.022522595 0.063133091 0.68300003 4294307301
0.023817495 0.063133396 0.68300003 4294176487
0.025112405 0.063133717 0.68300003 4294176487
0.026407331 0.063134067 0.68300003 4294110691
0.027702272 0.063134424 0.68300003 4294110691
0.028997224 0.063134812 0.68300003 4294110691
0.030292194 0.063135229 0.68300003 4294110691
0.031587183 0.063135654 0.68300003 4294111207
0.032882195 0.063136101 0.68300003 4294111207
0.034177225 0.063136578 0.68300003 4294176487
0.035472266 0.063137069 0.68300003 4294176487
0.036821168 0.063230023 0.68400002 4294176487
0.038229603 0.06341543 0.68599999 4294110693
0.039530408 0.063415989 0.68599999 4294110693
0.040831231 0.063416563 0.68599999 4294307816
0.042193498 0.063509606 0.68699998 4294307818
0.043496266 0.063510217 0.68699998 4294176233
0.04479906 0.06351085 0.68699998 4294176233
0.04616899 0.063603953 0.68800002 4294044646
0.04747374 0.063604631 0.68800002 4294110693
0.048778515 0.063605338 0.68800002 4294110693
0.050083317 0.063606046 0.68800002 4294110693
0.051388152 0.063606791 0.68800002 4294176487
0.052693024 0.063607551 0.68800002 4294110953
0.054154888 0.063793227 0.69 4294176746
0.055544004 0.063886493 0.69099998 4294307818
0.056854662 0.063887306 0.69099998 4294373611
0.058333699 0.064073063 0.69300002 4294439402
0.059734292 0.064166389 0.69400001 4294439402
0.061226673 0.064352185 0.69599998 4294242795
0.062546954 0.064353094 0.69599998 4294242795
0.063867278 0.064354017 0.69599998 4294242541
0.065187633 0.064354956 0.69599998 4294308334
0.066699155 0.064540848 0.69800001 4294374381
0.068315737 0.064819224 0.70099998 4294308588
0.069844425 0.065005183 0.70300001 4294176233
0.071279466 0.065098681 0.704 4294373611
0.072615206 0.065099716 0.704 4294570218
0.074161068 0.065285727 0.70599997 4294438889
0.075607643 0.065379307 0.70700002 4294308588
0.07705804 0.065472886 0.708 4294242795
0.078955226 0.065936401 0.713 4294110953
0.080308259 0.065937556 0.713 4294176746
0.08211948 0.066308655 0.71700001 4293978599
0.083713062 0.066494823 0.71899998 4293978599
0.085077621 0.066496037 0.71899998 4294044646
0.086562492 0.06658978 0.72000003 4294044646
0.087929055 0.066591032 0.72000003 4293649890
-0.047574833 0.068405159 0.72500002 4292530112
-0.046199612 0.068404309 0.72500002 4292530112
-0.044824433 0.068403482 0.72500002 4292858821
-0.042610265 0.067081802 0.71100003 4292990659
-0.041261707 0.067081034 0.71100003 4293188295
-0.039857045 0.066985935 0.70999998 4293319624
-0.038510453 0.066985212 0.70999998 4293385417
-0.03705921 0.066795833 0.708 4293451212
-0.035716474 0.066795155 0.708 4293517005
-0.034325216 0.066700146 0.70700002 4293517007
-0.032844473 0.066416487 0.704 4293451214
-0.031330377 0.066038504 0.69999999 4293450962
-0.030002935 0.066037931 0.69999999 4293648342
-0.028593585 0.065848693 0.69800001 4293648596
-0.027269982 0.065848149 0.69800001 4293648596
-0.025946395 0.06584762 0.69800001 4293583062
-0.024622843 0.065847129 0.69800001 4293648855
-0.023265932 0.06575232 0.69700003 4293452246
-0.021944316 0.065751866 0.69700003 4293452246
-0.020533955 0.065468423 0.69400001 4293583062
-0.019190377 0.065373689 0.69300002 4293714648
-0.017876405 0.065373294 0.69300002 4293714648
-0.016562453 0.065372929 0.69300002 4293714648
-0.015204508 0.065183923 0.69099998 4293780697
-0.013894379 0.065183602 0.69099998 4293780697
-0.012584265 0.065183312 0.69099998 4293846490
-0.011257849 0.065088704 0.69 4293977820
-0.0099496581 0.065088451 0.69 4293977820
-0.0086414786 0.065088212 0.69 4293977820
-0.0073333099 0.065088004 0.69 4294043613
-0.0060251523 0.065087818 0.69 4294175199
-0.0047033308 0.064898983 0.68800002 4293978590
-0.0033989828 0.064898849 0.68800002 4293847004
-0.0020946402 0.064898714 0.68800002 4293847004
-0.00078915566 0.064804286 0.68699998 4293978590
0.00051253173 0.064709879 0.68599999 4293912799
0.0018130661 0.06470982 0.68599999 4293912799
0.0031135969 0.064709783 0.68599999 4293847517
0.0044141263 0.064709768 0.68599999 4293847517
0.0056979931 0.064521126 0.68400002 4293715934
0.006994728 0.064521149 0.68400002 4293715934
0.0082914643 0.064521208 0.68400002 4293847517
0.0095882015 0.064521275 0.68400002 4293716188
0.010884941 0.064521365 0.68400002 4293847256
0.012163876 0.064427152 0.68300003 4293978842
0.013458728 0.064427294 0.68300003 4293912797
0.014753585 0.06442745 0.68300003 4293847004
0.016071944 0.064521961 0.68400002 4293978592
0.017368708 0.064522155 0.68400002 4293978592
0.018665487 0.064522386 0.68400002 4294109667
0.019933084 0.064428292 0.68300003 4294109667
0.02122798 0.064428553 0.68300003 4293978851
0.022522889 0.064428844 0.68300003 4294110693
0.023817806 0.064429149 0.68300003 4294110691
0.025112739 0.064429484 0.68300003 4294044898
0.026407691 0.064429827 0.68300003 4294241507
0.027702648 0.0644302 0.68300003 4294439143
0.028997626 0.064430594 0.68300003 4293979103
0.030292617 0.064431004 0.68300003 4293913310
0.031587631 0.064431444 0.68300003 4294044898
0.032882653 0.064431891 0.68300003 4294110691
0.034177698 0.06443236 0.68300003 4294110691
0.035472769 0.064432859 0.68300003 4294110691
0.036821689 0.06452772 0.68400002 4294044644
0.038230155 0.064716943 0.68599999 4293978851
0.039530974 0.064717494 0.68599999 4293978853
0.040891338 0.064812414 0.68699998 4294110439
0.042194106 0.064813025 0.68699998 4294110439
0.043496899 0.064813651 0.68699998 4294044646
0.044799715 0.064814284 0.68699998 4294044646
0.046169665 0.064909302 0.68800002 4293978853
0.047474436 0.064909995 0.68800002 4293978853
0.048779223 0.064910695 0.68800002 4294044646
0.050084051 0.064911425 0.68800002 4294241507
0.051388904 0.06491217 0.68800002 4294307301
0.052693795 0.064912945 0.68800002 4294176487
0.054155685 0.065102436 0.69 4294307816
0.055464432 0.065103233 0.69 4294111207
0.056855485 0.065198421 0.69099998 4293979364
0.058334555 0.065387979 0.69300002 4294176487
0.059735168 0.065483212 0.69400001 4294307816
0.061227582 0.065672815 0.69599998 4294307816
0.062547877 0.065673731 0.69599998 4294307816
0.063868225 0.06567467 0.69599998 4294242795
0.065188587 0.065675616 0.69599998 4294308588
0.066700138 0.06586533 0.69800001 4294308588
0.06831675 0.066149414 0.70099998 4294308588
0.069845445 0.066339165 0.70300001 4294110955
0.071280509 0.06643457 0.704 4294176748
0.072616272 0.066435635 0.704 4294307816
0.073952071 0.066436715 0.704 4294307816
0.075501792 0.066626556 0.70599997 4294111207
0.077059157 0.066816427 0.708 4293979364
0.07895638 0.067289449 0.713 4294045159
0.080309436 0.067290619 0.713 4294045159
0.082120679 0.067669325 0.71700001 4293912806
0.083714284 0.067859292 0.71899998 4293912806
0.085078873 0.067860536 0.71899998 4293912806
0.086443506 0.067861781 0.71899998 4293847013
0.087808192 0.067863062 0.71899998 4293715682
-0.047575697 0.069780879 0.72500002 4292530112
-0.046200451 0.069780022 0.72500002 4292530112
-0.044825252 0.06977918 0.72500002 4292858821
-0.042790838 0.068719648 0.71399999 4292728257
-0.041262466 0.068430141 0.71100003 4292991172
-0.039857782 0.068333134 0.70999998 4293122248
-0.038511168 0.068332404 0.70999998 4293122248
-0.037059903 0.06813921 0.708 4293319113
-0.035717141 0.068138517 0.708 4293647821
-0.034325868 0.068041615 0.70700002 4293647821
-0.032845095 0.067752257 0.704 4293647821
-0.031330977 0.067366682 0.69999999 4293385937
-0.030003512 0.067366101 0.69999999 4293517267
-0.028594136 0.067173049 0.69800001 4293517267
-0.027270511 0.067172498 0.69800001 4293583316
-0.025946908 0.067171976 0.69800001 4293517267
-0.024623333 0.067171477 0.69800001 4293517267
-0.023266397 0.067074753 0.69700003 4293583062
-0.021944759 0.067074299 0.69700003 4293648855
-0.020534376 0.066785157 0.69400001 4293780177
-0.019190777 0.066688515 0.69300002 4293845970
-0.017876782 0.066688128 0.69300002 4293845718
-0.016562808 0.066687748 0.69300002 4293845718
-0.01520484 0.066494942 0.69099998 4293648855
-0.013894689 0.066494606 0.69099998 4293714648
-0.012584555 0.066494323 0.69099998 4293780697
-0.011258116 0.066397808 0.69 4293846490
-0.009949903 0.066397555 0.69 4293977820
-0.0086417012 0.066397309 0.69 4293977820
-0.0073335115 0.066397093 0.69 4293847004
-0.0060078669 0.066204458 0.68800002 4293847004
-0.0047034882 0.066204287 0.68800002 4293977818
-0.0033991176 0.066204138 0.68800002 4294043611
-0.0020947536 0.066204019 0.68800002 4293912795
-0.00078809814 0.066011451 0.68599999 4293912795
0.00051096844 0.065818921 0.68400002 4293912797
0.001807733 0.065818861 0.68400002 4293978590
0.0031044944 0.065818831 0.68400002 4293913310
0.0044012531 0.065818802 0.68400002 4293847517
0.0056980117 0.065818816 0.68400002 4293650140
0.0069947671 0.065818839 0.68400002 4293847263
0.0082915248 0.065818898 0.68400002 4293847263
0.0095882844 0.065818973 0.68400002 4293715934
0.010885047 0.06581907 0.68400002 4293847517
0.012164001 0.06572295 0.68300003 4293913310
0.013458875 0.065723091 0.68300003 4293847517
0.014753752 0.065723248 0.68300003 4293913310
0.016072135 0.065819658 0.68400002 4293978592
0.017368922 0.06581986 0.68400002 4293978592
0.01866572 0.065820083 0.68400002 4293978592
0.019933337 0.065724097 0.68300003 4293978592
0.021228258 0.065724373 0.68300003 4293650142
0.022523182 0.065724656 0.68300003 4294044644
0.023818128 0.065724969 0.68300003 4294110691
0.025113082 0.065725304 0.68300003 4294044898
0.026408048 0.065725654 0.68300003 4293847267
0.027703034 0.065726034 0.68300003 4294044646
0.028955569 0.06563019 0.68199998 4293847517
0.030248687 0.065630615 0.68199998 4293847517
0.031588074 0.065727279 0.68300003 4293913058
0.032883126 0.065727755 0.68300003 4294044644
0.034178194 0.065728225 0.68300003 4294044898
0.035473283 0.065728739 0.68300003 4294044898
0.036768384 0.065729253 0.68300003 4293978338
0.038119245 0.065826029 0.68400002 4293978338
0.039531548 0.066019066 0.68599999 4293978340
0.040891934 0.066115901 0.68699998 4294109669
0.04219472 0.066116512 0.68699998 4294044646
0.043497529 0.066117138 0.68699998 4294044646
0.044800367 0.066117793 0.68699998 4293979364
0.04617035 0.06621471 0.68800002 4293848035
0.047475133 0.066215411 0.68800002 4293715682
0.04877995 0.066216126 0.68800002 4293847267
0.050084796 0.066216856 0.68800002 4293978338
0.051389676 0.066217624 0.68800002 4293978338
0.052694578 0.066218399 0.68800002 4293913058
0.054156493 0.066411689 0.69 4294044644
0.055465255 0.066412501 0.69 4293979618
0.056856334 0.066509597 0.69099998 4293979618
0.05833542 0.066702962 0.69300002 4294110693
0.059736054 0.066800103 0.69400001 4294110693
0.061228484 0.066993505 0.69599998 4294044646
0.062548809 0.066994444 0.69599998 4294110439
0.063960932 0.067091644 0.69700003 4294176746
0.065283224 0.067092612 0.69700003 4294176746
0.066701122 0.067189857 0.69800001 4294176233
0.068317764 0.067479648 0.70099998 4294176233
0.069846481 0.067673206 0.70300001 4294110439
0.071281582 0.067770533 0.704 4294110439
0.072617345 0.067771606 0.704 4294110693
0.073953167 0.067772701 0.704 4294176487
0.075502925 0.067966349 0.70599997 4294110691
0.077060319 0.068160035 0.708 4294110691
0.079068296 0.068738826 0.71399999 4294045159
0.080423266 0.06874001 0.71399999 4294045159
0.082121894 0.069030046 0.71700001 4293912806
0.083715506 0.069223821 0.71899998 4293847013
0.085080124 0.06922508 0.71899998 4293847013
0.08644478 0.069226347 0.71899998 4293649890
0.087809488 0.069227643 0.71899998 4293714911
-0.04414596 0.070075341 0.71399999 4292924614
-0.042791635 0.070074528 0.71399999 4292728003
-0.041263241 0.069779322 0.71100003 4292728003
-0.039858531 0.0696804 0.70999998 4293056708
-0.038511895 0.069679655 0.70999998 4293122502
-0.037165295 0.06967894 0.70999998 4293122252
-0.035717826 0.069481969 0.708 4293385167
-0.034326524 0.069383144 0.70700002 4293451212
-0.032985695 0.069382496 0.70700002 4293517005
-0.031331588 0.068694919 0.69999999 4293517007
-0.030004095 0.068694316 0.69999999 4293517007
-0.028676631 0.068693727 0.69999999 4293582801
-0.027271053 0.068496913 0.69800001 4293582801
-0.025947426 0.068496369 0.69800001 4293517267
-0.024623828 0.06849587 0.69800001 4293517267
-0.023266872 0.068397254 0.69700003 4293583314
-0.021945212 0.068396784 0.69700003 4293649107
-0.020534806 0.06810195 0.69400001 4293648844
-0.019191183 0.068003394 0.69300002 4293648844
-0.017877167 0.068003006 0.69300002 4293779923
-0.016563168 0.068002626 0.69300002 4293845716
-0.015205177 0.067806013 0.69099998 4293649109
-0.013895006 0.067805693 0.69099998 4293583316
-0.012566636 0.067707263 0.69 4293648855
-0.011258386 0.067706972 0.69 4293780697
-0.0099501517 0.067706697 0.69 4293846488
-0.0086419284 0.067706466 0.69 4293846488
-0.0073337164 0.067706265 0.69 4293846490
-0.006008049 0.067509808 0.68800002 4293780697
-0.0047036479 0.067509644 0.68800002 4293846490
-0.0033992548 0.067509495 0.68800002 4293977820
-0.0020948686 0.067509361 0.68800002 4293977818
-0.00078819098 0.067313008 0.68599999 4293846488
0.00051089789 0.067116685 0.68400002 4294043611
0.0018076844 0.067116618 0.68400002 4294175453
0.0031044679 0.067116588 0.68400002 4293978590
0.0044012489 0.067116566 0.68400002 4293847004
0.005698028 0.067116573 0.68400002 4293912797
0.0069948076 0.067116596 0.68400002 4293978590
0.0082915872 0.067116655 0.68400002 4293912799
0.0095883682 0.067116722 0.68400002 4293846750
0.010885151 0.067116819 0.68400002 4293847267
0.012164129 0.067018814 0.68300003 4293913060
0.013459023 0.067018956 0.68300003 4294044896
0.014753926 0.067019112 0.68300003 4294110689
0.016072329 0.067117415 0.68400002 4293913056
0.017369136 0.067117624 0.68400002 4293847263
0.018665954 0.067117855 0.68400002 4293979103
0.019933598 0.067019984 0.68300003 4293979103
0.021228535 0.067020237 0.68300003 4293978851
0.022523485 0.067020535 0.68300003 4293978851
0.023818452 0.067020856 0.68300003 4294109667
0.025113426 0.067021184 0.68300003 4294175716
0.02636975 0.066923417 0.68199998 4294044646
0.027662857 0.06692379 0.68199998 4294176233
0.028955981 0.066924192 0.68199998 4293913058
0.030249117 0.066924609 0.68199998 4293913058
0.031588528 0.067023195 0.68300003 4293978853
0.032883599 0.067023657 0.68300003 4293978853
0.034178685 0.067024142 0.68300003 4293979105
0.035473797 0.067024656 0.68300003 4293979105
0.036768924 0.067025185 0.68300003 4293978851
0.038119812 0.067123875 0.68400002 4293913058
0.039532132 0.067320704 0.68599999 4293913060
0.040833011 0.067321293 0.68599999 4293913060
0.042133927 0.067321919 0.68599999 4293978853
0.043498181 0.067420691 0.68699998 4294110439
0.044801038 0.067421362 0.68699998 4294044898
0.046103925 0.06742204 0.68699998 4294110691
0.047475841 0.067520879 0.68800002 4293978851
0.048780672 0.067521602 0.68800002 4293913058
0.050085541 0.067522354 0.68800002 4293913060
0.051390447 0.067523122 0.68800002 4293913060
0.052695367 0.067523904 0.68800002 4293913060
0.054157302 0.067720994 0.69 4293978853
0.055466093 0.067721829 0.69 4294044898
0.056857195 0.067820832 0.69099998 4294110691
0.058336303 0.068018004 0.69300002 4294175714
0.059736956 0.068117045 0.69400001 4294241507
0.061229408 0.068314262 0.69599998 4294044646
0.062549748 0.068315193 0.69599998 4294044646
0.063961908 0.068414316 0.69700003 4294176235
0.065284207 0.068415292 0.69700003 4294373357
0.066893242 0.068710759 0.69999999 4294110953
0.068513714 0.069006272 0.70300001 4294045159
0.069847524 0.069007315 0.70300001 4294044646
0.071181387 0.06900838 0.70300001 4294044646
0.07261844 0.069107637 0.704 4294110693
0.073954269 0.069108739 0.704 4294110693
0.075504042 0.069306202 0.70599997 4294110691
0.077061459 0.069503695 0.708 4294176485
0.079069465 0.070093885 0.71399999 4294045157
0.080424473 0.070095092 0.71399999 4294045157
0.082352184 0.070587173 0.71899998 4293847013
0.083716765 0.070588417 0.71899998 4293715684
0.085199736 0.070687875 0.72000003 4293649890
0.086566299 0.070689157 0.72000003 4293518304
0.087932922 0.070690461 0.72000003 4293649118
-0.044270456 0.071630388 0.71600002 4292595903
-0.042912312 0.071629554 0.71600002 4292530110
-0.041264027 0.071128555 0.71100003 4292859075
-0.039915435 0.071127772 0.71100003 4292859845
-0.038512636 0.071026981 0.70999998 4292991174
-0.037166007 0.071026251 0.70999998 4293056454
-0.035718516 0.070825472 0.708 4293319626
-0.034327194 0.070724756 0.70700002 4293385167
-0.032939687 0.070624053 0.70599997 4293450960
-0.031466488 0.070323318 0.70300001 4293320142
-0.030004689 0.070022605 0.69999999 4293320142
-0.028677206 0.070022024 0.69999999 4293385937
-0.0272716 0.069821402 0.69800001 4293583316
-0.025947953 0.069820859 0.69800001 4293385937
-0.024624331 0.069820337 0.69800001 4293517267
-0.023267349 0.069719814 0.69700003 4293649109
-0.021945674 0.069719344 0.69700003 4293583316
-0.02053524 0.069418818 0.69400001 4293386189
-0.019191595 0.069318362 0.69300002 4293386189
-0.017877555 0.069317959 0.69300002 4293517521
-0.016563535 0.069317579 0.69300002 4293649107
-0.015205521 0.069117166 0.69099998 4293649109
-0.013875217 0.069016814 0.69 4293583316
-0.012566932 0.069016501 0.69 4293714648
-0.01125866 0.069016203 0.69 4293714648
-0.0099504031 0.069015935 0.69 4293780695
-0.0086171087 0.068815656 0.68800002 4293780695
-0.0073126652 0.068815432 0.68800002 4293780697
-0.0060082329 0.068815239 0.68800002 4293780697
-0.0047038095 0.06881506 0.68800002 4293780695
-0.0033993947 0.068814918 0.68800002 4293846488
-0.0020949857 0.068814784 0.68800002 4293846488
-0.00078943465 0.068714656 0.68699998 4293846488
0.00051306625 0.068714567 0.68699998 4293846488
0.0018129201 0.068614483 0.68599999 4293846488
0.0031135175 0.068614446 0.68599999 4293781210
0.0044141132 0.068614438 0.68599999 4293781210
0.0056980462 0.068414398 0.68400002 4293977822
0.0069948467 0.068414427 0.68400002 4293977822
0.0082916496 0.068414479 0.68400002 4293977822
0.0095884521 0.068414554 0.68400002 4294043615
0.010885258 0.068414651 0.68400002 4293846238
0.012164257 0.068314739 0.68300003 4294043361
0.013459174 0.06831488 0.68300003 4293979105
0.014754099 0.068315051 0.68300003 4293913056
0.016072525 0.068415247 0.68400002 4293847265
0.017369354 0.068415456 0.68400002 4293847265
0.018666193 0.068415679 0.68400002 4293847263
0.019933857 0.068315908 0.68300003 4293913056
0.02122882 0.068316184 0.68300003 4293978851
0.022523796 0.068316489 0.68300003 4293847265
0.023818778 0.068316795 0.68300003 4293780958
0.025113773 0.06831713 0.68300003 4293978338
0.026370119 0.068217471 0.68199998 4293978853
0.027663248 0.068217851 0.68199998 4293978853
0.028956391 0.068218261 0.68199998 4293913310
0.030249553 0.068218686 0.68199998 4293716188
0.031542733 0.06821914 0.68199998 4293913060
0.032835931 0.06821961 0.68199998 4293913060
0.034129139 0.068220094 0.68199998 4293649370
0.035422374 0.0682206 0.68199998 4293912799
0.036769468 0.068321183 0.68300003 4293913056
0.038064644 0.068321735 0.68300003 4293913056
0.039417468 0.068422347 0.68400002 4293848035
0.040833626 0.068623014 0.68599999 4293782242
0.042134561 0.06862364 0.68599999 4293715682
0.04349884 0.068724319 0.68699998 4293978853
0.044801708 0.068724982 0.68699998 4293782242
0.046104617 0.068725668 0.68699998 4293782242
0.047476556 0.06882643 0.68800002 4293913060
0.04878141 0.068827152 0.68800002 4293913060
0.050086305 0.068827912 0.68800002 4293847267
0.051391218 0.06882868 0.68800002 4293913060
0.052849352 0.069029562 0.69 4293978853
0.054158129 0.069030389 0.69 4294044646
0.055466939 0.069031224 0.69 4293978851
0.057022624 0.06933222 0.69300002 4293847265
0.058337186 0.069333106 0.69300002 4293846752
0.059737865 0.069434054 0.69400001 4294175716
0.061230339 0.069635086 0.69599998 4294044646
0.062550701 0.069636032 0.69599998 4294044646
0.063871101 0.069637001 0.69599998 4294044646
0.065285213 0.069738045 0.69700003 4294110439
0.06689427 0.070039228 0.69999999 4294045159
0.068514757 0.070340432 0.70300001 4294045159
0.069848597 0.070341498 0.70300001 4294044646
0.071182467 0.070342571 0.70300001 4294044646
0.07261955 0.070443727 0.704 4294044646
0.074165493 0.070644975 0.70599997 4293978853
0.07561215 0.070746191 0.70700002 4293913058
0.077389166 0.071147621 0.71100003 4294044644
0.078959927 0.071348943 0.713 4294045159
0.080650963 0.071650371 0.71600002 4294045159
0.08212436 0.071751684 0.71700001 4293519588
0.083834469 0.072053157 0.72000003 4293519588
0.085201018 0.072054446 0.72000003 4293584097
0.086567611 0.072055742 0.72000003 4293518304
0.088178508 0.072257228 0.722 4293518302
-0.047447104 0.073704533 0.72299999 4292135354
-0.046011869 0.0736017 0.722 4292201150
-0.044642285 0.073600836 0.722 4292595651
-0.042913135 0.072988361 0.71600002 4292595905
-0.041264817 0.072477847 0.71100003 4292924614
-0.039916202 0.072477072 0.71100003 4292859843
-0.038513381 0.072374366 0.70999998 4292859843
-0.037166733 0.072373629 0.70999998 4293056454
-0.03571922 0.072169043 0.708 4293056454
-0.034327868 0.072066419 0.70700002 4293188045
-0.032940336 0.071963802 0.70599997 4293385167
-0.031467114 0.071657367 0.70300001 4293319374
-0.030048156 0.071452893 0.70099998 4293319374
-0.028677782 0.071350366 0.69999999 4293320144
-0.027272157 0.071145937 0.69800001 4293583316
-0.025948485 0.071145393 0.69800001 4293385937
-0.024624839 0.071144871 0.69800001 4293320144
-0.023267835 0.071042441 0.69700003 4293320146
-0.021946136 0.071041964 0.69700003 4293320146
-0.02053568 0.07073573 0.69400001 4293516753
-0.01919201 0.070633374 0.69300002 4293516753
-0.017877946 0.070632972 0.69300002 4293517521
-0.016563905 0.070632584 0.69300002 4293517521
-0.015205869 0.070428371 0.69099998 4293517267
-0.013875542 0.07032612 0.69 4293583316
-0.012567233 0.070325799 0.69 4293649107
-0.01125894 0.070325501 0.69 4293714900
-0.0099506602 0.070325233 0.69 4293780693
-0.0086173415 0.070121154 0.68800002 4293780693
-0.0073128762 0.070120923 0.68800002 4293780695
-0.0060084211 0.07012073 0.68800002 4293714902
-0.0047039739 0.070120551 0.68800002 4293714648
-0.0033995367 0.070120402 0.68800002 4293780697
-0.0020951054 0.070120268 0.68800002 4293846742
-0.0007895311 0.070018232 0.68699998 4293846742
0.00051224581 0.069916226 0.68599999 4293715415
0.001812869 0.069916159 0.68599999 4293715415
0.0031134891 0.069916122 0.68599999 4293780956
0.0044141067 0.069916107 0.68599999 4293780956
0.005698062 0.069712274 0.68400002 4293780956
0.0069948868 0.069712311 0.68400002 4293715163
0.0082917111 0.069712363 0.68400002 4293977822
0.0095885368 0.069712438 0.68400002 4294306787
0.01086945 0.069610603 0.68300003 4293977568
0.012164386 0.069610722 0.68300003 4293977568
0.013459326 0.069610871 0.68300003 4293847265
0.01475427 0.069611028 0.68300003 4293847265
0.016049225 0.069611229 0.68300003 4293847267
0.01734418 0.06961143 0.68300003 4293913060
0.018639145 0.069611661 0.68300003 4293847263
0.019934122 0.069611922 0.68300003 4293847263
0.021229103 0.069612183 0.68300003 4293715934
0.022524102 0.069612488 0.68300003 4293847263
0.023819108 0.069612809 0.68300003 4293715682
0.025114125 0.069613151 0.68300003 4293847267
0.02640916 0.069613524 0.68300003 4293913310
0.027704209 0.069613904 0.68300003 4293979103
0.028956812 0.06951239 0.68199998 4293847256
0.030249992 0.069512814 0.68199998 4293781206
0.031543192 0.069513276 0.68199998 4293715936
0.032836415 0.069513746 0.68199998 4293847265
0.034129646 0.069514237 0.68199998 4293649888
0.035422899 0.069514759 0.68199998 4293715682
0.03677002 0.069617249 0.68300003 4293847517
0.038065214 0.0696178 0.68300003 4293847517
0.03941806 0.06972032 0.68400002 4293913056
0.040834241 0.069924779 0.68599999 4294110691
0.042135198 0.069925413 0.68599999 4294110439
0.043499496 0.070028 0.68699998 4294044646
0.044802397 0.07002867 0.68699998 4293847267
0.04610531 0.070029363 0.68699998 4293847267
0.047477286 0.070132032 0.68800002 4293847267
0.048782166 0.07013277 0.68800002 4293847267
0.050087072 0.07013353 0.68800002 4293913058
0.051392008 0.070134304 0.68800002 4293847265
0.052850161 0.070338994 0.69 4293913056
0.054158956 0.070339829 0.69 4294044898
0.055467784 0.070340663 0.69 4293978338
0.057023503 0.070647366 0.69300002 4293846752
0.058422264 0.070750214 0.69400001 4293912547
0.059738785 0.070751131 0.69400001 4294175462
0.061231285 0.070955954 0.69599998 4294175716
0.062551662 0.070956916 0.69599998 4294241509
0.063872084 0.070957899 0.69599998 4294044646
0.065286212 0.071060859 0.69700003 4294044646
0.066895291 0.071367733 0.69999999 4294110693
0.068320885 0.071470737 0.70099998 4294110693
0.069650948 0.07147181 0.70099998 4293978853
0.070981041 0.071472891 0.70099998 4293978853
0.072620668 0.071779892 0.704 4293978851
0.073956542 0.071781017 0.704 4293715936
0.075720251 0.072190024 0.708 4293715682
0.077608049 0.072701022 0.713 4293715682
0.078961134 0.072702229 0.713 4293847267
0.080652207 0.073009379 0.71600002 4293978853
0.082125612 0.073112585 0.71700001 4293847267
0.083835751 0.07341978 0.72000003 4293649888
0.085202321 0.073421076 0.72000003 4293649888
0.086568929 0.073422395 0.72000003 4293584095
0.088179842 0.073627673 0.722 4293517787
0.090170503 0.074138932 0.727 4293715165
-0.047251131 0.074765198 0.72000003 4291873463
-0.045885291 0.074764319 0.72000003 4292003251
-0.04451948 0.074763432 0.72000003 4292529595
-0.043093771 0.074658737 0.71899998 4292530112
-0.041381698 0.074034907 0.713 4292661699
-0.040029265 0.074034087 0.713 4292662212
-0.038568385 0.073825657 0.71100003 4292793798
-0.037167463 0.073721074 0.70999998 4292793798
-0.035719924 0.073512681 0.708 4292991176
-0.034328554 0.073408157 0.70700002 4292990663
-0.032940999 0.073303647 0.70599997 4293056456
-0.031467751 0.072991513 0.70300001 4293122765
-0.030134499 0.072990872 0.70300001 4293188558
-0.028719338 0.072782613 0.70099998 4293188558
-0.027350863 0.072678208 0.69999999 4293188558
-0.025949024 0.072470002 0.69800001 4293319374
-0.024625357 0.072469473 0.69800001 4293385167
-0.023268329 0.072365135 0.69700003 4293254351
-0.021852141 0.072053187 0.69400001 4293320144
-0.020506533 0.071948901 0.69300002 4293320144
-0.019192433 0.071948476 0.69300002 4293385937
-0.017878348 0.071948051 0.69300002 4293385937
-0.016564284 0.071947671 0.69300002 4293385937
-0.01520622 0.071739644 0.69099998 4293385937
-0.013895979 0.071739309 0.69099998 4293583316
-0.01256754 0.071635172 0.69 4293583316
-0.011259224 0.071634874 0.69 4293649109
-0.0099509209 0.071634591 0.69 4293779925
-0.0086175781 0.071426719 0.68800002 4293779925
-0.0073130899 0.071426496 0.68800002 4293649109
-0.0060086111 0.071426295 0.68800002 4293714902
-0.004704142 0.071426116 0.68800002 4293714902
-0.0033996806 0.071425945 0.68800002 4293780695
-0.0020952264 0.071425818 0.68800002 4293780695
-0.00078847975 0.071218073 0.68599999 4293780695
0.00051217078 0.071217984 0.68599999 4293715415
0.0018128173 0.071217924 0.68599999 4293715415
0.0031134596 0.071217872 0.68599999 4293715163
0.0044141007 0.071217857 0.68599999 4293780956
0.0056980792 0.071010239 0.68400002 4293780956
0.0069949264 0.071010262 0.68400002 4293780956
0.0082917726 0.071010314 0.68400002 4293846490
0.0095746033 0.070906565 0.68300003 4293977820
0.010869558 0.070906661 0.68300003 4293846238
0.012164516 0.070906788 0.68300003 4293846238
0.013459479 0.07090693 0.68300003 4293780956
0.014754447 0.070907101 0.68300003 4293846750
0.01604942 0.070907287 0.68300003 4293847265
0.0173444 0.070907496 0.68300003 4293715936
0.018639389 0.070907727 0.68300003 4293649370
0.019934388 0.070907988 0.68300003 4293846750
0.021229392 0.070908256 0.68300003 4293847002
0.022524411 0.070908569 0.68300003 4293847002
0.023819441 0.070908882 0.68300003 4293715936
0.025114482 0.070909232 0.68300003 4293715936
0.02640954 0.070909604 0.68300003 4293715934
0.027704608 0.070909999 0.68300003 4293715934
0.028957233 0.070806585 0.68199998 4293781210
0.030250436 0.070807017 0.68199998 4293781210
0.031543657 0.070807479 0.68199998 4293715936
0.032836899 0.070807956 0.68199998 4293715936
0.03413016 0.070808463 0.68199998 4293715934
0.035423432 0.070808977 0.68199998 4293715934
0.036770571 0.07091336 0.68300003 4293715934
0.038065787 0.070913926 0.68300003 4293715934
0.03941866 0.071018353 0.68400002 4293847263
0.040715817 0.071018972 0.68400002 4294044898
0.042135838 0.07122726 0.68599999 4294110439
0.043500159 0.071331754 0.68699998 4293978853
0.044803083 0.071332425 0.68699998 4293715682
0.046106029 0.07133314 0.68699998 4293715682
0.047409005 0.071333863 0.68699998 4293847267
0.048782919 0.071438439 0.68800002 4293715682
0.050087843 0.071439214 0.68800002 4293847267
0.051392805 0.071440011 0.68800002 4293715682
0.052850991 0.071648508 0.69 4293715936
0.054159805 0.071649335 0.69 4293847265
0.055468656 0.071650192 0.69 4293715936
0.057024397 0.071962602 0.69300002 4293715936
0.058338992 0.071963504 0.69300002 4293847267
0.059739713 0.072068267 0.69400001 4293715682
0.061232243 0.072276905 0.69599998 4293847265
0.062552638 0.072277874 0.69599998 4293913058
0.063964859 0.072382733 0.69700003 4293847267
0.065287225 0.072383724 0.69700003 4293913060
0.066896342 0.072696321 0.69999999 4293913058
0.068321943 0.072801232 0.70099998 4293715936
0.069652036 0.072802313 0.70099998 4293715682
0.070982158 0.072803415 0.70099998 4293847267
0.072621793 0.073116109 0.704 4293847267
0.073957689 0.073117249 0.704 4293715682
0.075935334 0.073741585 0.70999998 4293715682
0.077718094 0.074158229 0.71399999 4293649888
0.079073094 0.074159451 0.71399999 4293584093
0.080653451 0.074368447 0.71600002 4293715936
0.082126878 0.07447356 0.71700001 4293715682
0.083720595 0.074682593 0.71899998 4293649888
0.085203633 0.074787788 0.72000003 4293649888
0.086810723 0.074996851 0.722 4293452509
0.088303328 0.075102076 0.72299999 4293451996
0.090171896 0.075518973 0.727 4293649118
-0.047252048 0.076131783 0.72000003 4291807414
-0.045886181 0.076130867 0.72000003 4292069298
-0.044520348 0.076129973 0.72000003 4292332214
-0.043094613 0.076023377 0.71899998 4292464315
-0.041556627 0.075705335 0.71600002 4292464315
-0.040086202 0.07549306 0.71399999 4292530625
-0.038731884 0.075492263 0.71399999 4292728005
-0.037168209 0.075068578 0.70999998 4292794052
