# .PCD v0.7 - Point Cloud Data file format
VERSION 0.7
FIELDS x y z rgba
SIZE 4 4 4 4
TYPE F F F U
COUNT 1 1 1 1
WIDTH 1052
HEIGHT 1
VIEWPOINT 0 0 0 1 0 0 0
POINTS 1052
DATA ascii
-0.20102279 -0.090082943 0.71700001 4292466647
-0.19965714 -0.090082183 0.71700001 4292795356
-0.19884467 -0.090332687 0.71899998 4292598484
-0.19747525 -0.090331897 0.71899998 4292598484
-0.19556044 -0.090079822 0.71700001 4292663506
-0.19419493 -0.090079002 0.71700001 4292729300
-0.1928294 -0.090078168 0.71700001 4292532688
-0.19146399 -0.090077311 0.71700001 4292401102
-0.19009857 -0.090076447 0.71700001 4292532439
-0.18873318 -0.090075575 0.71700001 4292598232
-0.18789048 -0.090325937 0.71899998 4292334294
-0.18652135 -0.090325013 0.71899998 4292334294
-0.18515231 -0.090324104 0.71899998 4292596948
-0.18403892 -0.090448804 0.72000003 4292794584
-0.18342914 -0.090824708 0.72299999 4292597713
-0.1825562 -0.091074996 0.72500002 4292597713
-0.18117586 -0.091074012 0.72500002 4292401104
-0.17979559 -0.091073029 0.72500002 4292401104
-0.17841536 -0.091072038 0.72500002 4292401104
-0.17752354 -0.091322243 0.727 4292401104
-0.17613964 -0.09132123 0.727 4292335057
-0.17475574 -0.091320187 0.727 4292335057
-0.17337191 -0.091319159 0.727 4292203728
-0.17198813 -0.091318108 0.727 4292072142
-0.17060441 -0.091317065 0.727 4292137935
-0.16945349 -0.091441602 0.72799999 4292335057
-0.1685297 -0.091691755 0.73000002 4292203726
-0.16736938 -0.091816269 0.73100001 4292137933
-0.16597827 -0.091815174 0.73100001 4291940047
-0.1650375 -0.092065282 0.73299998 4292006096
-0.16364269 -0.092064172 0.73299998 4291939788
-0.16224793 -0.092063069 0.73299998 4291939788
-0.16151157 -0.092438743 0.736 4292005061
-0.16011122 -0.092437617 0.736 4291939268
-0.15871093 -0.092436485 0.736 4291742145
-0.15773819 -0.092686534 0.73799998 4291544510
-0.15633421 -0.092685401 0.73799998 4291544258
-0.15493029 -0.092684247 0.73799998 4291544258
-0.15373449 -0.092808701 0.73900002 4291347647
-0.15232877 -0.092807539 0.73900002 4291281854
-0.15092319 -0.092806399 0.73900002 4291478717
-0.14992225 -0.093056388 0.741 4291544510
-0.14851296 -0.093055233 0.741 4291478455
-0.1476993 -0.09343081 0.74400002 4291346613
-0.14628442 -0.093429625 0.74400002 4291412410
-0.14701149 -0.0948098 0.755 4291478204
-0.14557581 -0.094808608 0.755 4291281340
-0.14414021 -0.094807431 0.755 4291215547
-0.14308271 -0.095057376 0.75700003 4291149500
-0.14164346 -0.095056199 0.75700003 4291083707
-0.14057466 -0.095306136 0.759 4291216058
-0.13949837 -0.095556088 0.76099998 4291479487
-0.13859591 -0.095931575 0.764 4291216312
-0.13750261 -0.096181504 0.76599997 4290953141
-0.13657941 -0.096557006 0.76899999 4290755259
-0.13546915 -0.096806921 0.77100003 4290755259
-0.13253841 -0.096804537 0.77100003 4290229432
-0.26991171 -0.092691883 0.74900001 4289112749
-0.26776883 -0.09244477 0.74699998 4288981164
-0.2663466 -0.092445135 0.74699998 4289375142
-0.26456967 -0.092321694 0.74599999 4291743690
-0.26244375 -0.092074491 0.74400002 4292137433
-0.26032531 -0.091827206 0.74199998 4292532191
-0.25681877 -0.09108489 0.736 4292400850
-0.25472313 -0.090837553 0.73400003 4292795608
-0.25298014 -0.090713926 0.73299998 4292467161
-0.25089779 -0.090466522 0.73100001 4292532954
-0.24950556 -0.090466589 0.73100001 4292598232
-0.24777396 -0.090342879 0.73000002 4292598232
-0.24570851 -0.090095349 0.72799999 4292664540
-0.24331512 -0.089724056 0.72500002 4292796126
-0.24193421 -0.089723997 0.72500002 4292336089
-0.24055327 -0.089723907 0.72500002 4292796640
-0.2385125 -0.089476272 0.72299999 4292993503
-0.23713532 -0.089476116 0.72299999 4292927709
-0.23543201 -0.089352183 0.722 4292730333
-0.2340567 -0.089351974 0.722 4292993505
-0.23268139 -0.089351751 0.722 4292796380
-0.23130606 -0.08935149 0.722 4292796380
-0.23024914 -0.089474954 0.72299999 4292796126
-0.22855529 -0.089350864 0.722 4292796126
-0.22717988 -0.089350522 0.722 4292335575
-0.22517908 -0.089102678 0.72000003 4292730333
-0.22380745 -0.089102276 0.72000003 4292927196
-0.22305371 -0.089349344 0.722 4292795610
-0.22167836 -0.08934892 0.722 4292729050
-0.21938753 -0.088977188 0.71899998 4293255394
-0.21801788 -0.088976711 0.71899998 4292927196
-0.21604556 -0.088728696 0.71700001 4292795610
-0.21467972 -0.088728167 0.71700001 4292730587
-0.21301636 -0.088603869 0.71600002 4292730587
-0.21165244 -0.088603303 0.71600002 4292467161
-0.21058223 -0.088726461 0.71700001 4292532954
-0.20921643 -0.088725843 0.71700001 4292532439
-0.20785065 -0.088725209 0.71700001 4292532439
-0.20706084 -0.088972047 0.71899998 4292467159
-0.20569131 -0.088971376 0.71899998 4292335829
-0.20460595 -0.089094445 0.72000003 4292203474
-0.20295227 -0.088969983 0.71899998 4292400852
-0.20158279 -0.088969253 0.71899998 4292334292
-0.20021328 -0.0889685 0.71899998 4292334292
-0.1988439 -0.088967755 0.71899998 4292268751
-0.19747448 -0.088966973 0.71899998 4292597715
-0.19555961 -0.088718705 0.71700001 4292335055
-0.19419411 -0.0887179 0.71700001 4292335055
-0.19282857 -0.088717081 0.71700001 4292400591
-0.19199716 -0.088963702 0.71899998 4292400591
-0.19062793 -0.088962853 0.71899998 4292335057
-0.18925872 -0.088961981 0.71899998 4292335057
-0.18788959 -0.088961117 0.71899998 4292400085
-0.18652047 -0.088960215 0.71899998 4292400085
-0.18540889 -0.089083046 0.72000003 4292334544
-0.18454918 -0.089329578 0.722 4292334544
-0.1834282 -0.089452371 0.72299999 4292334542
-0.18255523 -0.089698873 0.72500002 4292400591
-0.1811749 -0.08969792 0.72500002 4292335055
-0.17979461 -0.089696951 0.72500002 4292203726
-0.17841436 -0.089695968 0.72500002 4292072139
-0.17752255 -0.089942411 0.727 4292137933
-0.17613862 -0.089941412 0.727 4292072139
-0.17475471 -0.089940399 0.727 4292137933
-0.17337088 -0.089939386 0.727 4292137935
-0.17198709 -0.089938343 0.727 4292072142
-0.17083801 -0.090061024 0.72799999 4292006092
-0.16991794 -0.090307392 0.73000002 4292006092
-0.16875948 -0.090430036 0.73100001 4292072142
-0.16736831 -0.090428993 0.73100001 4292006092
-0.16597718 -0.090427928 0.73100001 4291677384
-0.1650364 -0.090674236 0.73299998 4291874506
-0.16364159 -0.090673164 0.73299998 4291611337
-0.16246818 -0.09079577 0.73400003 4291413957
-0.16151044 -0.091042072 0.736 4291675583
-0.1605452 -0.091288373 0.73799998 4291675583
-0.15914109 -0.091287248 0.73799998 4291544510
-0.15773705 -0.09128613 0.73799998 4291544510
-0.15633307 -0.091285013 0.73799998 4291413440
-0.15513909 -0.091407582 0.73900002 4291347647
-0.15373334 -0.091406465 0.73900002 4291216058
-0.15232763 -0.091405317 0.73900002 4291216058
-0.15092203 -0.091404192 0.73900002 4291215799
-0.14992109 -0.091650411 0.741 4291215799
-0.14851183 -0.091649286 0.741 4290886835
-0.14710256 -0.091648139 0.741 4291215799
-0.14923251 -0.09387324 0.759 4291347388
-0.1470103 -0.093377352 0.755 4291281594
-0.14557466 -0.093376189 0.755 4291083961
-0.14413904 -0.093375027 0.755 4291149754
-0.14308155 -0.093621209 0.75700003 4291083961
-0.1420165 -0.093867369 0.759 4291149754
-0.1405735 -0.093866207 0.759 4291084729
-0.13949718 -0.094112366 0.76099998 4290953143
-0.13895753 -0.094729535 0.76599997 4290887350
-0.13768096 -0.09485203 0.76700002 4290821557
-0.13693345 -0.095345512 0.77100003 4290755511
-0.13546796 -0.095344335 0.77100003 4290623926
-0.13400255 -0.095343143 0.77100003 4290295477
-0.26919141 -0.091025874 0.74699998 4289440944
-0.26741078 -0.090904422 0.74599999 4289243822
-0.26599041 -0.09090478 0.74599999 4289374892
-0.26492462 -0.091026947 0.74699998 4290953924
-0.26244402 -0.090661675 0.74400002 4291742171
-0.26032552 -0.090418205 0.74199998 4292794602
-0.25751683 -0.089930989 0.73799998 4292466897
-0.25472328 -0.089443736 0.73400003 4292795606
-0.25298029 -0.089322016 0.73299998 4292598232
-0.25089788 -0.089078419 0.73100001 4292598232
-0.24950562 -0.089078486 0.73100001 4292532441
-0.24777396 -0.088956676 0.73000002 4292466647
-0.24570855 -0.088712968 0.72799999 4292532954
-0.2433151 -0.088347375 0.72500002 4292730333
-0.24193414 -0.088347316 0.72500002 4292532700
-0.24055316 -0.088347219 0.72500002 4292993251
-0.23917218 -0.088347115 0.72500002 4292993503
-0.23779114 -0.088346973 0.72500002 4292796380
-0.2357579 -0.088103078 0.72299999 4292730587
-0.23438068 -0.088102877 0.72299999 4292927709
-0.23300344 -0.088102661 0.72299999 4292796380
-0.23162614 -0.088102393 0.72299999 4292927709
-0.23024885 -0.088102125 0.72299999 4292927458
-0.22855496 -0.087979957 0.722 4292796128
-0.22717956 -0.087979622 0.722 4292532700
-0.22517866 -0.087735564 0.72000003 4292730335
-0.22380707 -0.087735191 0.72000003 4292664538
-0.22305332 -0.087978482 0.722 4292532952
-0.22167787 -0.087978043 0.722 4292598234
-0.2196922 -0.087733902 0.72000003 4292992992
-0.21801738 -0.087611564 0.71899998 4292861655
-0.21604504 -0.087367371 0.71700001 4292664277
-0.21467918 -0.087366849 0.71700001 4292664790
-0.21331333 -0.087366313 0.71700001 4292664790
-0.21194747 -0.087365754 0.71700001 4292598234
-0.21058165 -0.08736518 0.71700001 4292598234
-0.20979941 -0.08760827 0.71899998 4292466647
-0.2084298 -0.087607659 0.71899998 4292466647
-0.20734818 -0.087728865 0.72000003 4292466645
-0.20654885 -0.087971896 0.722 4292532439
-0.20460524 -0.087727532 0.72000003 4292400085
-0.20323384 -0.087726846 0.72000003 4292663257
-0.20158204 -0.087604269 0.71899998 4292465362
-0.20021254 -0.087603547 0.71899998 4292334033
-0.19884312 -0.087602809 0.71899998 4292268751
-0.19747372 -0.087602049 0.71899998 4292597715
-0.19610432 -0.087601267 0.71899998 4292400589
-0.19473498 -0.087600484 0.71899998 4292400589
-0.19336563 -0.087599672 0.71899998 4292400591
-0.19199632 -0.087598853 0.71899998 4292400591
-0.19062708 -0.087598011 0.71899998 4292334544
-0.1892579 -0.087597176 0.71899998 4292268751
-0.18788868 -0.087596312 0.71899998 4292334544
-0.18651958 -0.087595433 0.71899998 4292400337
-0.18540801 -0.087716378 0.72000003 4292334544
-0.18454829 -0.087959133 0.722 4292268751
-0.18342726 -0.088080049 0.72299999 4292334542
-0.18255429 -0.088322781 0.72500002 4292334542
-0.18117394 -0.088321835 0.72500002 4292203980
-0.18028963 -0.088564523 0.727 4292203980
-0.17890558 -0.088563561 0.727 4292072139
-0.17752156 -0.088562585 0.727 4292072139
-0.17637989 -0.088683426 0.72799999 4292202953
-0.17499411 -0.088682435 0.72799999 4292269003
-0.17360833 -0.08868143 0.72799999 4292202953
-0.17222261 -0.088680416 0.72799999 4292202953
-0.17154101 -0.089044847 0.73100001 4292137162
-0.1701497 -0.089043818 0.73100001 4292005833
-0.16922013 -0.089286387 0.73299998 4292005833
-0.16782516 -0.089285344 0.73299998 4291808198
-0.16643022 -0.089284301 0.73299998 4291808198
-0.16526049 -0.089405037 0.73400003 4291940040
-0.16386376 -0.089403987 0.73400003 4291545028
-0.16246709 -0.089402899 0.73400003 4291347649
-0.16194823 -0.089889035 0.73799998 4291544512
-0.16054408 -0.089887939 0.73799998 4291610305
-0.15913998 -0.089886859 0.73799998 4291610044
-0.15773594 -0.089885749 0.73799998 4291543995
-0.15654381 -0.090006463 0.73900002 4291347385
-0.15513797 -0.090005353 0.73900002 4291215799
-0.15373221 -0.090004243 0.73900002 4291215799
-0.15232652 -0.090003133 0.73900002 4291215799
-0.15092091 -0.090002038 0.73900002 4291215797
-0.14951535 -0.090000905 0.73900002 4291281590
-0.14810984 -0.089999802 0.73900002 4291017912
-0.14923134 -0.092433214 0.759 4291216051
-0.147788 -0.092432052 0.759 4291281844
-0.14634474 -0.092430905 0.759 4290952889
-0.14490151 -0.09242975 0.759 4291018938
-0.1434584 -0.092428602 0.759 4291018936
-0.14238954 -0.092670992 0.76099998 4291084729
-0.14112796 -0.092791632 0.76200002 4290953143
-0.13967934 -0.092790477 0.76200002 4290821557
-0.13895637 -0.093276389 0.76599997 4290821303
-0.13803878 -0.093640544 0.76899999 4290755509
-0.26919186 -0.089607365 0.74699998 4289703601
-0.26741117 -0.089487799 0.74599999 4289506478
-0.26599076 -0.089488164 0.74599999 4289112234
-0.26492497 -0.089608453 0.74699998 4290099129
-0.26420802 -0.089848667 0.74900001 4290952900
-0.26102749 -0.089249127 0.74400002 4292400602
-0.25891274 -0.089009404 0.74199998 4292335059
-0.25541753 -0.088289835 0.736 4292335059
-0.25332552 -0.08805006 0.73400003 4292400337
-0.25158438 -0.087930217 0.73299998 4292466130
-0.25018829 -0.087930299 0.73299998 4292203476
-0.24811338 -0.087690428 0.73100001 4292400598
-0.24638356 -0.087570481 0.73000002 4292400852
-0.24432187 -0.087330543 0.72799999 4292598232
-0.24260145 -0.087210536 0.727 4292335575
-0.24121664 -0.087210461 0.727 4292730333
-0.23983182 -0.08721035 0.727 4292731100
-0.237791 -0.086970314 0.72500002 4292665051
-0.2364099 -0.086970143 0.72500002 4292532952
-0.23502888 -0.086969957 0.72500002 4292664538
-0.23300317 -0.086729825 0.72299999 4292466647
-0.23162585 -0.086729571 0.72299999 4292664027
-0.23024857 -0.08672931 0.72299999 4292795356
-0.22887124 -0.086729005 0.72299999 4292861149
-0.22717924 -0.08660873 0.722 4292664538
-0.22580376 -0.08660838 0.722 4292730587
-0.22442834 -0.086608015 0.722 4292467161
-0.22305292 -0.08660762 0.722 4292532954
-0.22198448 -0.08672715 0.72299999 4292532954
-0.21969174 -0.086366847 0.72000003 4292598747
-0.21801689 -0.086246431 0.71899998 4292598999
-0.21664718 -0.086245954 0.71899998 4292532950
-0.21527749 -0.086245447 0.71899998 4292137935
-0.21390782 -0.086244926 0.71899998 4292532436
-0.21253811 -0.086244375 0.71899998 4292466645
-0.21116844 -0.086243816 0.71899998 4292532439
-0.20979878 -0.08624322 0.71899998 4292400852
-0.20871909 -0.086362578 0.72000003 4292335059
-0.20734756 -0.086361945 0.72000003 4292400337
-0.20654821 -0.086601198 0.722 4292400337
-0.20517291 -0.086600527 0.722 4292202704
-0.20323314 -0.08635997 0.72000003 4292334546
-0.20186171 -0.086359277 0.72000003 4292202958
-0.20049028 -0.086358555 0.72000003 4292202958
-0.19911894 -0.086357825 0.72000003 4291939788
-0.19774759 -0.086357087 0.72000003 4292268497
-0.19610353 -0.086236387 0.71899998 4292137162
-0.19473419 -0.086235613 0.71899998 4292137162
-0.19336481 -0.086234815 0.71899998 4291939786
-0.19199553 -0.086234018 0.71899998 4292137164
-0.19089139 -0.086353138 0.72000003 4292137164
-0.18952025 -0.086352304 0.72000003 4292202958
-0.18814915 -0.086351462 0.72000003 4292137164
-0.18729696 -0.086590461 0.722 4292137164
-0.18617965 -0.086709529 0.72299999 4292202444
-0.18480293 -0.086708635 0.72299999 4292136651
-0.18342634 -0.086707748 0.72299999 4292005833
-0.18255334 -0.086946696 0.72500002 4292202955
-0.18167278 -0.087185614 0.727 4292005833
-0.18028866 -0.087184682 0.727 4292005833
-0.17890462 -0.087183744 0.727 4292005833
-0.17776477 -0.087302707 0.72799999 4292202955
-0.17637891 -0.087301739 0.72799999 4291874758
-0.1749931 -0.087300777 0.72799999 4291743429
-0.17360732 -0.087299787 0.72799999 4291676098
-0.17340446 -0.087898374 0.73299998 4291741891
-0.1720093 -0.087897375 0.73299998 4291938752
-0.17061418 -0.087896369 0.73299998 4291938752
-0.16921912 -0.087895349 0.73299998 4291676611
-0.16805309 -0.088014238 0.73400003 4291676611
-0.16665623 -0.088013202 0.73400003 4291676611
-0.16525944 -0.088012159 0.73400003 4291545282
-0.16430919 -0.088250928 0.736 4291282626
-0.1633514 -0.088489689 0.73799998 4291151040
-0.16216663 -0.088608526 0.73900002 4291347388
-0.16054301 -0.088487551 0.73799998 4291215545
-0.15913889 -0.088486478 0.73799998 4291215286
-0.1579486 -0.088605314 0.73900002 4291215286
-0.15696634 -0.088844016 0.741 4291149239
-0.15555675 -0.088842943 0.741 4291149239
-0.15373112 -0.088602059 0.73900002 4291018164
-0.15232542 -0.088600971 0.73900002 4291083957
-0.15091981 -0.08859989 0.73900002 4290886835
-0.14951424 -0.088598795 0.73900002 4291018164
-0.15031335 -0.089916468 0.75 4291017914
-0.15067361 -0.090994336 0.759 4291083707
-0.14923021 -0.090993211 0.759 4290953908
-0.14778686 -0.090992071 0.759 4290953908
-0.1463436 -0.090990953 0.759 4290624693
-0.14490041 -0.090989821 0.759 4290756280
-0.14383525 -0.091228433 0.76099998 4290756532
-0.1423884 -0.0912273 0.76099998 4290887861
-0.14112681 -0.09134607 0.76200002 4290690739
-0.14004479 -0.091584675 0.764 4290690739
-0.13913663 -0.09194316 0.76700002 4290887350
-0.13803762 -0.092181772 0.76899999 4290624178
-0.26848692 -0.088425346 0.74900001 4290164154
-0.26706082 -0.088425718 0.74900001 4289573046
-0.26563457 -0.088426046 0.74900001 4289244337
-0.26420829 -0.088426322 0.74900001 4290162609
-0.26208025 -0.088190466 0.74699998 4292136399
-0.25961092 -0.087836519 0.74400002 4292465108
-0.25749987 -0.087600581 0.74199998 4292465108
-0.25401595 -0.086892374 0.736 4292203474
-0.25261417 -0.086892493 0.736 4292335059
-0.25121236 -0.086892575 0.736 4292334805
-0.24913166 -0.086656496 0.73400003 4292795356
-0.24739607 -0.086538456 0.73299998 4292664277
-0.24532865 -0.086302325 0.73100001 4292795606
-0.24360253 -0.086184226 0.73000002 4292467161
-0.24154836 -0.085948035 0.72799999 4292532954
-0.24016157 -0.085947938 0.72799999 4292664538
-0.23844685 -0.085829757 0.727 4292664538
-0.23640975 -0.085593484 0.72500002 4292664025
-0.23502865 -0.085593306 0.72500002 4292795610
-0.23364751 -0.085593089 0.72500002 4292532441
-0.23226637 -0.085592858 0.72500002 4292598234
-0.23088521 -0.085592598 0.72500002 4292664027
-0.22950405 -0.085592315 0.72500002 4292795356
-0.22749352 -0.085355878 0.72299999 4292664538
-0.22611618 -0.08535555 0.72299999 4292730587
-0.22473881 -0.085355192 0.72299999 4292598745
-0.22397932 -0.085590921 0.72500002 4292532952
-0.22198406 -0.085354403 0.72299999 4292532952
-0.22030158 -0.085235924 0.722 4292598745
-0.21892613 -0.085235476 0.722 4292598484
-0.21755067 -0.085235 0.722 4292598484
-0.2161752 -0.0852345 0.722 4292466645
-0.21479979 -0.085233986 0.722 4292664025
-0.21342438 -0.085233465 0.722 4292597715
-0.21204899 -0.085232913 0.722 4292597715
-0.21067359 -0.085232332 0.722 4292400852
-0.20929822 -0.085231744 0.722 4292335059
-0.20821087 -0.085349172 0.72299999 4292203474
-0.2068336 -0.085348532 0.72299999 4292137681
-0.20517227 -0.085229851 0.722 4292202704
-0.20379695 -0.085229181 0.722 4292268497
-0.20242174 -0.08522851 0.722 4292268238
-0.20104648 -0.085227802 0.722 4292334031
-0.1991182 -0.084991008 0.72000003 4292136399
-0.19774683 -0.084990278 0.72000003 4292267986
-0.1961028 -0.084871493 0.71899998 4292137162
-0.19473337 -0.084870733 0.71899998 4292202955
-0.19336404 -0.084869958 0.71899998 4292005581
-0.19199474 -0.084869184 0.71899998 4292005581
-0.19089061 -0.084986433 0.72000003 4292137164
-0.18951945 -0.084985614 0.72000003 4292202958
-0.18814832 -0.084984779 0.72000003 4292137164
-0.18729611 -0.085220017 0.722 4292137164
-0.18617876 -0.085337192 0.72299999 4291939786
-0.1848021 -0.08533632 0.72299999 4291873993
-0.18342543 -0.085335441 0.72299999 4292005831
-0.18255244 -0.085570611 0.72500002 4292202953
-0.18167184 -0.085805774 0.727 4291940040
-0.18028775 -0.085804857 0.727 4291940040
-0.17890365 -0.085803926 0.727 4292137160
-0.17776383 -0.085921027 0.72799999 4292202953
-0.17637794 -0.085920073 0.72799999 4292070854
-0.17499213 -0.085919119 0.72799999 4292070854
-0.17408331 -0.0861542 0.73000002 4291675846
-0.17340349 -0.086507283 0.73299998 4291675846
-0.17200829 -0.0865063 0.73299998 4291742145
-0.17061315 -0.086505316 0.73299998 4291742145
-0.16921809 -0.08650431 0.73299998 4291413442
-0.16805206 -0.086621337 0.73400003 4291281856
-0.16710928 -0.086856328 0.736 4291281602
-0.16570871 -0.086855315 0.736 4291281602
-0.16430816 -0.086854286 0.736 4291282108
-0.16335036 -0.087089263 0.73799998 4291216058
-0.16216555 -0.08720623 0.73900002 4291215545
-0.16075949 -0.087205194 0.73900002 4291149752
-0.15935346 -0.087204136 0.73900002 4291149754
-0.15794756 -0.087203093 0.73900002 4291149754
-0.1569653 -0.087438025 0.741 4291149241
-0.15555564 -0.087436944 0.741 4291149241
-0.15414611 -0.087435894 0.741 4291083446
-0.15232436 -0.087198831 0.73900002 4291149239
-0.15091871 -0.087197758 0.73900002 4291017653
-0.15173864 -0.088494606 0.75 4291083446
-0.15031222 -0.088493511 0.75 4291017662
-0.1506725 -0.089554325 0.759 4291017662
-0.14922908 -0.089553222 0.759 4291019188
-0.14778575 -0.089552119 0.759 4291019188
-0.14634247 -0.089551009 0.759 4290821303
-0.14489928 -0.089549899 0.759 4290821303
-0.14440119 -0.090138711 0.764 4290887346
-0.14257441 -0.089901634 0.76200002 4290953395
-0.14112569 -0.089900523 0.76200002 4290821555
-0.14004366 -0.090135358 0.764 4290821555
-0.1385913 -0.090134256 0.764 4290821552
-0.25961107 -0.086423688 0.74400002 4292005061
-0.25750002 -0.086191542 0.74199998 4292334283
-0.25401607 -0.085494742 0.736 4292137681
-0.25261429 -0.085494868 0.736 4292071888
-0.25121242 -0.085494958 0.736 4292137683
-0.24981055 -0.085495017 0.736 4292532441
-0.24773361 -0.085262723 0.73400003 4292336081
-0.24599983 -0.085146554 0.73299998 4292336081
-0.24393617 -0.0849142 0.73100001 4292466645
-0.24221191 -0.084797986 0.73000002 4292400852
-0.24082126 -0.084797889 0.73000002 4292400852
-0.23877466 -0.084565446 0.72799999 4292466645
-0.23706171 -0.084449135 0.727 4292335059
-0.23502846 -0.084216647 0.72500002 4292466645
-0.2336473 -0.084216468 0.72500002 4292400598
-0.23290683 -0.084448539 0.727 4292466647
-0.23088492 -0.084215984 0.72500002 4292334805
-0.22950377 -0.084215708 0.72500002 4292532441
-0.22812255 -0.08421541 0.72500002 4292466643
-0.22674137 -0.08421509 0.72500002 4292598486
-0.2253601 -0.084214732 0.72500002 4292532950
-0.22397895 -0.084214367 0.72500002 4292532950
-0.2225977 -0.084213965 0.72500002 4292270034
-0.22060625 -0.083981238 0.72299999 4292270034
-0.21922886 -0.083980799 0.72299999 4292006092
-0.2178515 -0.083980337 0.72299999 4292335057
-0.21647413 -0.08397986 0.72299999 4292335057
-0.21509677 -0.083979361 0.72299999 4292203728
-0.21342385 -0.083862692 0.722 4292203728
-0.2120484 -0.083862156 0.722 4292203728
-0.21154839 -0.084210046 0.72500002 4292071888
-0.20958751 -0.08397717 0.72299999 4292071888
-0.20821024 -0.083976574 0.72299999 4291742925
-0.20740514 -0.084208265 0.72500002 4292071890
-0.20545579 -0.08397533 0.72299999 4292072142
-0.20407857 -0.083974682 0.72299999 4291940299
-0.20270143 -0.083974019 0.72299999 4291807946
-0.2010458 -0.083857186 0.722 4291873995
-0.19967063 -0.083856493 0.722 4291807435
-0.19774614 -0.083623499 0.72000003 4291807435
-0.19610204 -0.083506621 0.71899998 4291808200
-0.19473262 -0.083505884 0.71899998 4291939786
-0.19336326 -0.083505131 0.71899998 4291940040
-0.19226098 -0.083620511 0.72000003 4291873991
-0.19088978 -0.083619721 0.72000003 4291808198
-0.19004504 -0.083851203 0.722 4292005833
-0.18867013 -0.083850391 0.722 4292005833
-0.18755469 -0.083965711 0.72299999 4291940040
-0.18617792 -0.083964877 0.72299999 4291742405
-0.18480122 -0.08396402 0.72299999 4291808198
-0.18393198 -0.084195435 0.72500002 4292005061
-0.18305518 -0.084426828 0.727 4291939268
-0.18167096 -0.084425941 0.727 4291742143
-0.18028684 -0.084425047 0.727 4291939266
-0.17890273 -0.084424131 0.727 4292070854
-0.1777629 -0.084539361 0.72799999 4291742145
-0.17686157 -0.084770679 0.73000002 4291675583
-0.17547195 -0.084769756 0.73000002 4291872961
-0.17408234 -0.084768802 0.73000002 4291741893
-0.1734025 -0.085116215 0.73299998 4291676100
-0.17200732 -0.085115246 0.73299998 4291545541
-0.1706122 -0.085114285 0.73299998 4291413955
-0.169448 -0.085229442 0.73400003 4291216058
-0.16805106 -0.085228443 0.73400003 4291282108
-0.1671083 -0.085459672 0.736 4291281340
-0.16570768 -0.085458666 0.736 4291149754
-0.16430715 -0.085457668 0.736 4291149752
-0.16357067 -0.085804999 0.73900002 4291083959
-0.16216454 -0.085803978 0.73900002 4290821043
-0.16119352 -0.086035155 0.741 4290886837
-0.15978371 -0.086034127 0.741 4291018166
-0.15837392 -0.086033083 0.741 4291018166
-0.15717605 -0.086148135 0.74199998 4290820789
-0.15618438 -0.086379305 0.74400002 4290754996
-0.15518515 -0.086610451 0.74599999 4290688690
-0.15397225 -0.086725503 0.74699998 4290885812
-0.15295987 -0.086956643 0.74900001 4290689203
-0.15173756 -0.087071657 0.75 4290820789
-0.15071197 -0.087302774 0.75199997 4290821051
-0.15067141 -0.088114358 0.759 4290755257
-0.14922801 -0.088113271 0.759 4290690485
-0.14778464 -0.088112183 0.759 4290690485
-0.14634138 -0.088111103 0.759 4290755509
-0.14489818 -0.088110015 0.759 4290558387
-0.14440006 -0.088689357 0.764 4290689455
-0.14257328 -0.088456094 0.76200002 4290689455
-0.14112459 -0.088454999 0.76200002 4290557615
-0.14004256 -0.088686079 0.764 4290754994
-0.25470644 -0.084325626 0.73799998 4292400337
-0.25261438 -0.084097229 0.736 4292137164
-0.25121251 -0.084097333 0.736 4292072142
-0.25048941 -0.084325925 0.73799998 4292532436
-0.24840863 -0.084097438 0.736 4292401102
-0.24633545 -0.083868921 0.73400003 4292466895
-0.24460351 -0.083754629 0.73299998 4292400850
-0.24254364 -0.083526053 0.73100001 4292335057
-0.24115108 -0.083525971 0.73100001 4292400598
-0.23943053 -0.083411597 0.73000002 4292466647
-0.23738766 -0.083182938 0.72799999 4292400598
-0.23567662 -0.083068512 0.727 4292466647
-0.2342916 -0.083068319 0.727 4292400852
-0.23290664 -0.083068117 0.727 4292598232
-0.23152161 -0.083067887 0.727 4292335829
-0.23013656 -0.083067611 0.727 4292467159
-0.2287515 -0.08306732 0.727 4292532690
-0.226741 -0.082838498 0.72500002 4292532690
-0.22535977 -0.08283817 0.72500002 4292598484
-0.22397856 -0.082837805 0.72500002 4292664277
-0.22259732 -0.082837418 0.72500002 4292400850
-0.22060582 -0.082608506 0.72299999 4292466643
-0.21922843 -0.082608081 0.72299999 4292400339
-0.21785101 -0.082607634 0.72299999 4292466132
-0.21647365 -0.082607187 0.72299999 4292334544
-0.21509628 -0.082606688 0.72299999 4292268751
-0.21371891 -0.082606182 0.72299999 4292334544
-0.21292895 -0.082834169 0.72500002 4292400337
-0.21154785 -0.082833625 0.72500002 4292202704
-0.21016671 -0.082833059 0.72500002 4292202704
-0.20878562 -0.082832485 0.72500002 4291940047
-0.20740455 -0.082831889 0.72500002 4292137683
-0.20545514 -0.082602754 0.72299999 4292137162
-0.20407791 -0.082602128 0.72299999 4291940040
-0.20270073 -0.082601488 0.72299999 4291742155
-0.20132358 -0.082600825 0.72299999 4291742155
-0.19966991 -0.082485899 0.722 4291741643
-0.19774541 -0.082256712 0.72000003 4291675594
-0.19637407 -0.082256004 0.72000003 4291807435
-0.19500276 -0.082255289 0.72000003 4292070606
-0.19363144 -0.082254551 0.72000003 4292005061
-0.19226022 -0.082253799 0.72000003 4291939268
-0.19141924 -0.082481518 0.722 4291939268
-0.19030751 -0.082594983 0.72299999 4292070854
-0.18893063 -0.082594186 0.72299999 4292071108
-0.18807268 -0.082821868 0.72500002 4291807936
-0.18669209 -0.082821034 0.72500002 4291807938
-0.18531159 -0.082820222 0.72500002 4291807938
-0.18393114 -0.08281938 0.72500002 4291938752
-0.18305424 -0.08304698 0.727 4291938752
-0.1816701 -0.083046131 0.727 4291807936
-0.18053393 -0.083159477 0.72799999 4291939266
-0.17914794 -0.08315859 0.72799999 4291742145
-0.177762 -0.083157711 0.72799999 4291610303
-0.17710292 -0.083499476 0.73100001 4291610305
-0.17571139 -0.083498567 0.73100001 4291676098
-0.17479682 -0.083726086 0.73299998 4291544512
-0.17340156 -0.083725154 0.73299998 4291347134
-0.17200637 -0.083724208 0.73299998 4291216062
-0.17061123 -0.083723262 0.73299998 4291018684
-0.169447 -0.083836533 0.73400003 4291084983
-0.16805007 -0.083835565 0.73400003 4291282105
-0.16710731 -0.084063038 0.736 4291019188
-0.16570668 -0.084062047 0.736 4290755759
-0.16430613 -0.084061071 0.736 4290821303
-0.16356964 -0.084402703 0.73900002 4290887096
-0.16216353 -0.084401719 0.73900002 4290820789
-0.16075744 -0.084400706 0.73900002 4290820789
-0.16107647 -0.085313372 0.74699998 4290821041
-0.15944156 -0.085198134 0.74599999 4290886835
-0.15802233 -0.085197113 0.74599999 4290688949
-0.15681311 -0.085310288 0.74699998 4290623156
-0.15539213 -0.085309267 0.74699998 4290623156
-0.1539712 -0.085308217 0.74699998 4290623156
-0.15316302 -0.085649781 0.75 4290623156
-0.15173653 -0.085648738 0.75 4290688949
-0.15071091 -0.085876085 0.75199997 4290558133
-0.15027334 -0.086446024 0.75700003 4290558133
-0.14883371 -0.086444959 0.75700003 4290624691
-0.14778356 -0.086672276 0.759 4290624691
-0.14634033 -0.086671218 0.759 4290492340
-0.14527892 -0.086898528 0.76099998 4290426547
-0.14439899 -0.087240033 0.764 4290492592
-0.14294641 -0.087238953 0.764 4290492592
-0.1418643 -0.087466247 0.76599997 4290557363
-0.14040808 -0.087465189 0.76599997 4290820791
-0.25330094 -0.082924321 0.73799998 4292137164
-0.25189522 -0.082924433 0.73799998 4292006346
-0.25048947 -0.082924508 0.73799998 4292072139
-0.24908364 -0.082924545 0.73799998 4292137160
-0.24700665 -0.082699843 0.736 4292400589
-0.24493721 -0.082475103 0.73400003 4292072142
-0.24320716 -0.082362689 0.73299998 4292203728
-0.24115098 -0.08213789 0.73100001 4292400852
-0.2397584 -0.082137801 0.73100001 4292466645
-0.23738754 -0.08180058 0.72799999 4292466643
-0.23600063 -0.081800431 0.72799999 4292400850
-0.23461369 -0.081800245 0.72799999 4292006094
-0.23290639 -0.081687681 0.727 4292400852
-0.23152134 -0.08168745 0.727 4292400850
-0.23013628 -0.081687197 0.727 4292400850
-0.22875123 -0.081686929 0.727 4292203728
-0.22736618 -0.081686623 0.727 4292335057
-0.2259811 -0.081686318 0.727 4292335055
-0.22459605 -0.08168596 0.727 4292137933
-0.22259693 -0.081460878 0.72500002 4292137164
-0.22121568 -0.081460491 0.72500002 4292202958
-0.21983446 -0.081460088 0.72500002 4292268497
-0.21845321 -0.081459649 0.72500002 4292136910
-0.21707201 -0.081459202 0.72500002 4292136651
-0.21569081 -0.081458732 0.72500002 4292136651
-0.21430963 -0.081458241 0.72500002 4292136651
-0.21292843 -0.081457727 0.72500002 4292136651
-0.21154729 -0.081457205 0.72500002 4291939786
-0.21016613 -0.081456646 0.72500002 4291939786
-0.20878504 -0.081456088 0.72500002 4291873993
-0.20740393 -0.081455506 0.72500002 4292202958
-0.20602287 -0.08145491 0.72500002 4291677895
-0.20464183 -0.081454292 0.72500002 4291677895
-0.20326082 -0.081453674 0.72500002 4291808200
-0.20132291 -0.081228316 0.72299999 4291808200
-0.19994579 -0.081227653 0.72299999 4291742153
-0.19829401 -0.081114627 0.722 4291676359
-0.19691885 -0.081113942 0.722 4291545028
-0.19500203 -0.080888547 0.72000003 4291545028
-0.19363071 -0.080887832 0.72000003 4291610303
-0.1927935 -0.081111781 0.722 4291676096
-0.19168361 -0.081223384 0.72299999 4291610303
-0.19030672 -0.081222631 0.72299999 4291676096
-0.18892986 -0.081221856 0.72299999 4291742143
-0.18807189 -0.081445754 0.72500002 4291676350
-0.1866913 -0.081444949 0.72500002 4291675583
-0.18531078 -0.081444144 0.72500002 4291807168
-0.18443766 -0.081667989 0.727 4291544510
-0.18305342 -0.081667155 0.727 4291610303
-0.1819191 -0.081778646 0.72799999 4291610303
-0.18053307 -0.081777796 0.72799999 4291610303
-0.17914705 -0.081776924 0.72799999 4291282108
-0.17849363 -0.082113057 0.73100001 4291413694
-0.17758657 -0.082336821 0.73299998 4291610305
-0.17619121 -0.082335927 0.73299998 4291347134
-0.1747959 -0.082335033 0.73299998 4291083961
-0.17340064 -0.082334109 0.73299998 4291083961
-0.17200544 -0.082333192 0.73299998 4290887096
-0.17084305 -0.082444586 0.73400003 4290755509
-0.16944605 -0.082443655 0.73400003 4290624432
-0.16850701 -0.082667343 0.736 4290624432
-0.16710633 -0.08266639 0.736 4290558898
-0.16615601 -0.082890078 0.73799998 4290624691
-0.16475163 -0.08288911 0.73799998 4290624693
-0.16356868 -0.083000459 0.73900002 4290624693
-0.16216251 -0.082999475 0.73900002 4290558900
-0.1624967 -0.083896995 0.74699998 4290624693
-0.16107546 -0.083896004 0.74699998 4290492338
-0.15965426 -0.083894998 0.74699998 4290492338
-0.15865679 -0.084118612 0.74900001 4290492338
-0.15723196 -0.084117599 0.74900001 4290558387
-0.15601517 -0.084228903 0.75 4290623410
-0.15458855 -0.084227875 0.75 4290689203
-0.15316197 -0.084226854 0.75 4290558387
-0.15173548 -0.084225833 0.75 4290558387
-0.15070987 -0.08444941 0.75199997 4290492338
-0.14987525 -0.084785283 0.755 4290558387
-0.14883266 -0.085008845 0.75700003 4290558896
-0.14817193 -0.085456975 0.76099998 4290558896
-0.14672485 -0.085455924 0.76099998 4290426545
-0.14623238 -0.086016357 0.76599997 4290492338
-0.14477594 -0.086015314 0.76599997 4290492592
-0.14331956 -0.086014263 0.76599997 4290492592
-0.14186323 -0.086013205 0.76599997 4290427312
-0.14040703 -0.086012155 0.76599997 4290756278
-0.25189531 -0.081523001 0.73799998 4292136901
-0.25048956 -0.081523091 0.73799998 4292202694
-0.24908371 -0.081523135 0.73799998 4292072139
-0.24700664 -0.081302233 0.736 4292466897
-0.24493721 -0.081081308 0.73400003 4292268751
-0.24320707 -0.080970794 0.73299998 4292268751
-0.24115089 -0.080749802 0.73100001 4292466384
-0.2397583 -0.08074972 0.73100001 4292466384
-0.23803955 -0.080639139 0.73000002 4292401104
-0.23664883 -0.080638997 0.73000002 4292401104
-0.23525803 -0.080638833 0.73000002 4292203476
-0.23322657 -0.080417722 0.72799999 4292400598
-0.2318396 -0.080417506 0.72799999 4292335057
-0.23045257 -0.080417253 0.72799999 4292400850
-0.22906561 -0.080417 0.72799999 4292203728
-0.2276786 -0.080416702 0.72799999 4292203728
-0.22629161 -0.080416404 0.72799999 4292137935
-0.22459571 -0.080305614 0.727 4292006092
-0.22259659 -0.080084346 0.72500002 4292006094
-0.22121531 -0.080083974 0.72500002 4292071888
-0.21983406 -0.080083571 0.72500002 4292136910
-0.21845277 -0.080083162 0.72500002 4291939788
-0.21707155 -0.080082729 0.72500002 4291873741
-0.21569033 -0.080082275 0.72500002 4291873741
-0.21430913 -0.080081798 0.72500002 4291873993
-0.21292794 -0.080081306 0.72500002 4291873993
-0.21154676 -0.080080792 0.72500002 4291873993
-0.21016559 -0.080080256 0.72500002 4291939786
-0.20878446 -0.080079712 0.72500002 4291873991
-0.20740339 -0.080079161 0.72500002 4292202955
-0.20602226 -0.080078565 0.72500002 4291874245
-0.20464119 -0.080077961 0.72500002 4291808452
-0.2032602 -0.080077365 0.72500002 4291808452
-0.20187916 -0.080076732 0.72500002 4291808452
-0.19994512 -0.079855181 0.72299999 4291676609
-0.19856797 -0.079854526 0.72299999 4291676609
-0.19719087 -0.079853848 0.72299999 4291676098
-0.19581383 -0.079853162 0.72299999 4291676098
-0.19443679 -0.079852469 0.72299999 4291675583
-0.1930598 -0.079851747 0.72299999 4291807168
-0.19168286 -0.079851031 0.72299999 4291675583
-0.19083239 -0.080071174 0.72500002 4291807168
-0.18945172 -0.080070421 0.72500002 4291676096
-0.1885899 -0.080290534 0.727 4291610303
-0.18720552 -0.080289759 0.727 4291610303
-0.18582116 -0.080288969 0.727 4291676096
-0.18519795 -0.080619492 0.73000002 4291478717
-0.18380798 -0.080618657 0.73000002 4291347388
-0.18316773 -0.080949157 0.73299998 4291544508
-0.18102819 -0.080617011 0.73000002 4291544508
-0.17963836 -0.080616154 0.73000002 4291347385
-0.17849278 -0.080725744 0.73100001 4291347385
-0.17758571 -0.080945738 0.73299998 4291281340
-0.17619032 -0.080944858 0.73299998 4291149754
-0.17479499 -0.080943979 0.73299998 4291017914
-0.17339972 -0.080943078 0.73299998 4291083707
-0.17223921 -0.081052631 0.73400003 4290887350
-0.17084211 -0.081051707 0.73400003 4290755507
-0.16990682 -0.081271641 0.736 4290558387
-0.16896397 -0.081491552 0.73799998 4290558387
-0.1675595 -0.081490651 0.73799998 4290755761
-0.16638023 -0.08160013 0.73900002 4290821555
-0.16497394 -0.081599183 0.73900002 4290755759
-0.16401036 -0.081819057 0.741 4290492844
-0.16325872 -0.082149349 0.74400002 4290558385
-0.16227818 -0.082369208 0.74599999 4290755507
-0.16150574 -0.082699493 0.74900001 4290623410
-0.16008073 -0.082698509 0.74900001 4290557361
-0.15865581 -0.082697533 0.74900001 4290557615
-0.15723096 -0.08269655 0.74900001 4290623408
-0.15601416 -0.082805954 0.75 4290492590
-0.15458754 -0.082804956 0.75 4290361004
-0.15316096 -0.082803965 0.75 4290492592
-0.15173447 -0.082802959 0.75 4290492592
-0.15070885 -0.083022766 0.75199997 4290427310
-0.14987423 -0.083352968 0.755 4290493103
-0.14981467 -0.084124759 0.76200002 4290493103
-0.14817089 -0.084013328 0.76099998 4290493103
-0.14672382 -0.084012315 0.76099998 4290426799
-0.14623134 -0.084563278 0.76599997 4290426799
-0.14496391 -0.084672637 0.76700002 4290426797
-0.14387983 -0.0848924 0.76899999 4290492590
-0.1424178 -0.084891371 0.76899999 4290492842
-0.25223675 -0.080230132 0.73900002 4291808452
-0.25082904 -0.080230221 0.73900002 4292005831
-0.24942128 -0.080230288 0.73900002 4292137160
-0.24767789 -0.080121748 0.73799998 4292137160
-0.24560456 -0.079904623 0.736 4292136649
-0.24353886 -0.079687469 0.73400003 4292202442
-0.24181059 -0.079578847 0.73299998 4292202444
-0.23975821 -0.07936164 0.73100001 4292334031
-0.23803945 -0.079252973 0.73000002 4292137164
-0.23664866 -0.079252839 0.73000002 4292202958
-0.23525789 -0.079252698 0.73000002 4292202958
-0.23386709 -0.079252511 0.73000002 4292202958
-0.23247628 -0.079252318 0.73000002 4292072142
-0.23108545 -0.079252087 0.73000002 4292137935
-0.22969463 -0.079251841 0.73000002 4291940301
-0.22830383 -0.079251565 0.73000002 4291940301
-0.22691302 -0.079251274 0.73000002 4292006092
-0.22552222 -0.079250962 0.73000002 4292006092
-0.22321026 -0.078924924 0.727 4291742923
-0.22182515 -0.078924567 0.727 4291874508
-0.21983363 -0.078707054 0.72500002 4292005579
-0.21845235 -0.078706667 0.72500002 4292005579
-0.21707115 -0.078706257 0.72500002 4291873993
-0.21568985 -0.078705803 0.72500002 4291873993
-0.21430865 -0.078705348 0.72500002 4291808198
-0.21292743 -0.078704871 0.72500002 4291742405
-0.21154626 -0.078704379 0.72500002 4291741891
-0.21016507 -0.078703873 0.72500002 4291807685
-0.20878394 -0.078703344 0.72500002 4291742145
-0.20740278 -0.078702793 0.72500002 4291807938
-0.2060217 -0.078702234 0.72500002 4291741891
-0.2046406 -0.078701653 0.72500002 4291610305
-0.20325957 -0.078701057 0.72500002 4291610305
-0.20187856 -0.078700438 0.72500002 4291610305
-0.20049758 -0.07869982 0.72500002 4291413440
-0.19911663 -0.078699186 0.72500002 4291347647
-0.19719023 -0.078481421 0.72299999 4291347136
-0.19581315 -0.078480758 0.72299999 4291281342
-0.19443607 -0.078480065 0.72299999 4291412156
-0.19305909 -0.078479372 0.72299999 4291477950
-0.19221237 -0.078695767 0.72500002 4291412408
-0.19083166 -0.078695051 0.72500002 4291478201
-0.18997361 -0.078911409 0.727 4291478715
-0.18858916 -0.078910656 0.727 4291478715
-0.18746227 -0.079018444 0.72799999 4291216310
-0.1865872 -0.079234757 0.73000002 4291282103
-0.18519714 -0.079233982 0.73000002 4291282108
-0.18405896 -0.079341717 0.73100001 4291282108
-0.18341678 -0.079666525 0.73400003 4291215799
-0.18177129 -0.079557151 0.73299998 4291215799
-0.18037574 -0.079556324 0.73299998 4291281592
-0.17898028 -0.079555504 0.73299998 4291215799
-0.17782712 -0.079663202 0.73400003 4291083959
-0.17642982 -0.079662338 0.73400003 4291083959
-0.1750326 -0.079661481 0.73400003 4290821303
-0.17363542 -0.079660609 0.73400003 4290755509
-0.1727076 -0.079876788 0.736 4290755509
-0.17130676 -0.079875909 0.736 4290558387
-0.1703676 -0.08009205 0.73799998 4290492592
-0.16896306 -0.080091156 0.73799998 4290361006
-0.16778563 -0.08019878 0.73900002 4290426032
-0.16637926 -0.080197856 0.73900002 4290426032
-0.16541947 -0.080413975 0.741 4290426032
-0.16423078 -0.080521576 0.74199998 4290360238
-0.16325779 -0.08073768 0.74400002 4290294445
-0.16227724 -0.080953769 0.74599999 4290426032
-0.16150476 -0.081278361 0.74900001 4290426032
-0.16007976 -0.0812774 0.74900001 4290557361
-0.15886664 -0.081384957 0.75 4290557615
-0.15743989 -0.081383996 0.75 4290557615
-0.15601319 -0.081383035 0.75 4290557615
-0.15458655 -0.081382051 0.75 4290623408
-0.15316001 -0.081381097 0.75 4290426795
-0.15173349 -0.081380114 0.75 4290492844
-0.15070786 -0.081596136 0.75199997 4290229934
-0.15126279 -0.082680203 0.76200002 4290229934
-0.14981367 -0.082679205 0.76200002 4290361006
-0.14914341 -0.08311221 0.76599997 4290361006
-0.14768682 -0.083111204 0.76599997 4290031787
-0.14642124 -0.083218709 0.76700002 4290360752
-0.14496288 -0.083217695 0.76700002 4290229934
-0.14350459 -0.08321669 0.76700002 4290427312
-0.14204639 -0.083215684 0.76700002 4290492340
-0.2529195 -0.079040125 0.741 4291939018
-0.25150794 -0.079040214 0.741 4292267984
-0.25009635 -0.079040296 0.741 4292136901
-0.24801356 -0.078827009 0.73900002 4292136901
-0.24660569 -0.078827024 0.73900002 4292005833
-0.244866 -0.078720339 0.73799998 4292137162
-0.24280021 -0.078506961 0.736 4292137164
-0.24041408 -0.078186899 0.73299998 4292202958
-0.23836541 -0.077973485 0.73100001 4292006094
-0.2369727 -0.077973358 0.73100001 4292071888
-0.23557998 -0.077973209 0.73100001 4291940301
-0.23418726 -0.077973053 0.73100001 4291940301
-0.23279451 -0.077972859 0.73100001 4292072142
-0.23108524 -0.077865988 0.73000002 4292072142
-0.2296944 -0.07786575 0.73000002 4291940301
-0.2286163 -0.077972151 0.73100001 4291940301
-0.22691266 -0.077865206 0.73000002 4291940299
-0.22552185 -0.0778649 0.73000002 4291940299
-0.22413103 -0.077864595 0.73000002 4291874508
-0.22212991 -0.077650912 0.72799999 4291874508
-0.2204397 -0.077543892 0.727 4291940040
-0.21905461 -0.077543505 0.727 4291940040
-0.21707071 -0.07732977 0.72500002 4291873991
-0.21568942 -0.07732936 0.72500002 4291742405
-0.21430819 -0.077328913 0.72500002 4291742405
-0.21292695 -0.077328458 0.72500002 4291742405
-0.21154575 -0.077327982 0.72500002 4291807938
-0.21016455 -0.077327482 0.72500002 4291807938
-0.20935938 -0.077540286 0.727 4291742143
-0.20797437 -0.077539764 0.727 4291807936
-0.20658945 -0.077539213 0.727 4291545028
-0.20520456 -0.077538654 0.727 4291347649
-0.20325896 -0.077324763 0.72500002 4291413190
-0.20187795 -0.077324174 0.72500002 4291413190
-0.20049696 -0.077323563 0.72500002 4291150788
-0.19911595 -0.077322945 0.72500002 4291150788
-0.19773506 -0.077322312 0.72500002 4291215810
-0.19635417 -0.077321663 0.72500002 4291215810
-0.19497329 -0.077321 0.72500002 4291215549
-0.19412655 -0.077533633 0.727 4291281342
-0.19274196 -0.07753294 0.727 4291281592
-0.19135737 -0.077532224 0.727 4291347385
-0.19023415 -0.077638149 0.72799999 4291347383
-0.18884782 -0.077637441 0.72799999 4291478969
-0.18797648 -0.077849977 0.73000002 4291281590
-0.18658642 -0.077849232 0.73000002 4291347383
-0.18545005 -0.077955104 0.73100001 4291478455
-0.18456174 -0.078167617 0.73299998 4291478455
-0.18341598 -0.078273475 0.73400003 4291346613
-0.18201847 -0.078272685 0.73400003 4291346613
-0.18062103 -0.078271881 0.73400003 4291346613
-0.179712 -0.078484342 0.736 4291346613
-0.1783108 -0.078483507 0.736 4291149491
-0.1769097 -0.078482673 0.736 4291083698
-0.17550866 -0.078481831 0.736 4290886835
-0.17410767 -0.078480981 0.736 4290755248
-0.17270674 -0.078480124 0.736 4290689201
-0.17130585 -0.078479253 0.736 4290426286
-0.17036675 -0.078691646 0.73799998 4290426032
-0.16919114 -0.0787974 0.73900002 4290426032
-0.16778474 -0.078796506 0.73900002 4290359986
-0.16637839 -0.078795627 0.73900002 4290294193
-0.16608825 -0.079327837 0.74400002 4290294447
-0.16467254 -0.079326935 0.74400002 4290360240
-0.16369571 -0.079539254 0.74599999 4290294447
-0.16249381 -0.079644956 0.74699998 4290360240
-0.16150382 -0.079857267 0.74900001 4290360238
-0.16007881 -0.079856336 0.74900001 4290557361
-0.15886571 -0.079962023 0.75 4290426286
-0.15743892 -0.079961069 0.75 4290294443
-0.15601222 -0.079960123 0.75 4290426286
-0.15458558 -0.079959176 0.75 4290689201
-0.15315901 -0.079958223 0.75 4290427047
-0.15213712 -0.080170497 0.75199997 4290492840
-0.15110771 -0.080382749 0.75400001 4290294956
-0.1516588 -0.081447862 0.764 4290097834
-0.15020588 -0.081446894 0.764 4290294958
-0.14914244 -0.081659123 0.76599997 4290426545
-0.14768584 -0.08165814 0.76599997 4290098095
-0.14642024 -0.081763774 0.76700002 4290229938
-0.14496191 -0.081762791 0.76700002 4290361006
-0.14350364 -0.081761815 0.76700002 4290755507
-0.25291961 -0.077632971 0.741 4290952891
-0.25150803 -0.07763309 0.741 4291479235
-0.25009641 -0.077633172 0.741 4291872707
-0.24868476 -0.077633217 0.741 4292004550
-0.24727304 -0.077633239 0.741 4291742145
-0.24519779 -0.077423707 0.73900002 4292070854
-0.24345997 -0.077318907 0.73799998 4292005833
-0.24139793 -0.077109307 0.736 4292005833
-0.23901746 -0.07679493 0.73299998 4292006092
-0.23762092 -0.076794825 0.73299998 4291940299
-0.23557988 -0.076585181 0.73100001 4291874504
-0.23418711 -0.076585017 0.73100001 4291874504
-0.23279434 -0.076584846 0.73100001 4291940299
-0.23108506 -0.076479889 0.73000002 4291940299
-0.22969416 -0.076479658 0.73000002 4291479496
-0.22861601 -0.076584175 0.73100001 4291611339
-0.22691242 -0.076479152 0.73000002 4291807946
-0.22552159 -0.076478869 0.73000002 4291807946
-0.22413068 -0.076478548 0.73000002 4291676361
-0.22212957 -0.076268695 0.72799999 4291742155
-0.22074255 -0.076268345 0.72799999 4291742407
-0.21905424 -0.076163225 0.727 4291676613
-0.21766911 -0.07616283 0.727 4291545028
-0.21568903 -0.075952902 0.72500002 4291676613
-0.21430776 -0.075952478 0.72500002 4291676611
-0.21292651 -0.075952038 0.72500002 4291479489
-0.21154527 -0.075951576 0.72500002 4291610303
-0.21074383 -0.076160625 0.727 4291610303
-0.20935883 -0.076160125 0.727 4291478969
-0.20825993 -0.076264374 0.72799999 4291544762
-0.20687309 -0.076263845 0.72799999 4291347647
-0.20548627 -0.076263301 0.72799999 4291347647
-0.20409948 -0.076262742 0.72799999 4291282626
-0.20243426 -0.076157413 0.727 4291216833
-0.20104945 -0.076156825 0.727 4291084992
-0.19966464 -0.076156229 0.727 4291084992
-0.1982799 -0.076155603 0.727 4291216062
-0.19689517 -0.07615497 0.727 4291216062
-0.19551045 -0.076154329 0.727 4291018938
-0.19412585 -0.076153681 0.727 4291084731
-0.19274122 -0.076153003 0.727 4291084981
-0.19161987 -0.076257072 0.72799999 4291019188
-0.19075607 -0.07646589 0.73000002 4291150004
-0.18936591 -0.076465175 0.73000002 4291084211
-0.18797576 -0.076464459 0.73000002 4291017904
-0.18684125 -0.076568462 0.73100001 4291083698
-0.18544932 -0.076567732 0.73100001 4291083698
-0.18456101 -0.07677646 0.73299998 4291083698
-0.18341522 -0.07688044 0.73400003 4290951857
-0.1820177 -0.076879665 0.73400003 4291017651
-0.18111238 -0.077088363 0.736 4290688942
-0.17971115 -0.077087566 0.736 4290688942
-0.17830999 -0.077086769 0.736 4290688688
-0.17690888 -0.077085957 0.736 4290688688
-0.17550783 -0.077085137 0.736 4290623410
-0.17410681 -0.07708431 0.736 4290294445
-0.17270589 -0.077083476 0.736 4290294445
-0.1717705 -0.0772921 0.73799998 4290228652
-0.17036588 -0.07729125 0.73799998 4290162859
-0.16919026 -0.077395126 0.73900002 4290228652
-0.16846497 -0.077708453 0.74199998 4290294447
-0.16705288 -0.077707574 0.74199998 4290294447
-0.16608739 -0.077916153 0.74400002 4290097582
-0.1651143 -0.078124717 0.74599999 4289900203
-0.1636948 -0.07812383 0.74599999 4289965994
-0.16249292 -0.078227647 0.74699998 4290031787
-0.16150291 -0.078436188 0.74900001 4290162342
-0.16029163 -0.078539997 0.75 4290425513
-0.15886477 -0.078539081 0.75 4290228650
-0.15785782 -0.078747593 0.75199997 4290294443
-0.15601128 -0.078537241 0.75 4290163629
-0.15458463 -0.078536309 0.75 4290163629
-0.15356649 -0.078744821 0.75199997 4290098086
-0.15213618 -0.078743882 0.75199997 4290163879
-0.15311083 -0.079999499 0.764 4290294958
-0.15165783 -0.079998538 0.764 4290097836
-0.15020491 -0.079997592 0.764 4290097836
-0.14914145 -0.080206051 0.76599997 4290097836
-0.14768489 -0.080205105 0.76599997 4290097582
-0.14641926 -0.080308847 0.76700002 4290294960
-0.14496091 -0.080307886 0.76700002 4290294958
-0.14350265 -0.080306932 0.76700002 4290821303
-0.25184757 -0.076328814 0.74199998 4291478467
-0.25043398 -0.076328896 0.74199998 4291806664
-0.24902038 -0.076328963 0.74199998 4292070093
-0.24760681 -0.076329 0.74199998 4292004800
-0.24586138 -0.076226145 0.741 4292136386
-0.24444963 -0.076226123 0.741 4292070854
-0.2430378 -0.076226078 0.741 4292136647
-0.24195212 -0.076328874 0.74199998 4292005831
-0.24053842 -0.076328792 0.74199998 4292005831
-0.23622423 -0.075402856 0.73299998 4291940040
-0.23482765 -0.075402714 0.73299998 4291940040
-0.23279417 -0.075196825 0.73100001 4291940040
-0.23108485 -0.075093769 0.73000002 4292005833
-0.22969392 -0.075093567 0.73000002 4291677132
-0.22861579 -0.075196207 0.73100001 4291742925
-0.22722301 -0.075195961 0.73100001 4291807948
-0.2258302 -0.07519567 0.73100001 4291807948
-0.22413038 -0.075092524 0.73000002 4291544778
-0.22273952 -0.075092219 0.73000002 4291544778
-0.22074221 -0.074886151 0.72799999 4291675846
-0.21905382 -0.074782923 0.727 4291675846
-0.21766871 -0.074782565 0.727 4291545028
