# .PCD v0.7 - Point Cloud Data file format
VERSION 0.7
FIELDS x y z rgba
SIZE 4 4 4 4
TYPE F F F U
COUNT 1 1 1 1
WIDTH 1067
HEIGHT 1
VIEWPOINT 0 0 0 1 0 0 0
POINTS 1067
DATA ascii
0.020216424 0.023725918 0.55000001 4292069059
0.021220183 0.023682965 0.54900002 4291873993
0.022260707 0.023683157 0.54900002 4291347649
0.023301246 0.023683364 0.54900002 4291610305
0.024386136 0.023726717 0.55000001 4291807685
-0.036995813 0.025404952 0.56400001 4293055952
-0.035926349 0.025404546 0.56400001 4292990409
-0.032660116 0.025358343 0.56300002 4292595154
-0.031536542 0.025312934 0.56199998 4292924114
-0.030471016 0.025312584 0.56199998 4292924114
-0.029353192 0.025267204 0.56099999 4292596948
-0.028289603 0.025266867 0.56099999 4292531155
-0.027226051 0.025266554 0.56099999 4292859602
-0.026162516 0.025266241 0.56099999 4292991445
-0.025099007 0.025265943 0.56099999 4293056466
-0.018518208 0.02499418 0.55500001 4292530640
-0.017434744 0.02494893 0.55400002 4292596689
-0.016384663 0.02494872 0.55400002 4292596689
-0.015334599 0.024948526 0.55400002 4292399054
-0.014284548 0.024948338 0.55400002 4292661197
-0.013234515 0.024948165 0.55400002 4292661197
-0.012184495 0.024948001 0.55400002 4292661197
-0.011134488 0.024947852 0.55400002 4292726990
-0.010084492 0.024947708 0.55400002 4292661195
-0.0090345079 0.024947574 0.55400002 4292727244
-0.0079845348 0.024947459 0.55400002 4292661708
-0.0069345725 0.024947351 0.55400002 4292661708
-0.005884618 0.024947252 0.55400002 4292529870
-0.004825945 0.024902131 0.55299997 4292529870
-0.0037779021 0.024902057 0.55299997 4292463563
-0.0027249295 0.024856968 0.55199999 4292463563
-0.0016787942 0.024856912 0.55199999 4292267465
-0.00063266407 0.024856871 0.55199999 4292136136
0.00041271292 0.024811806 0.551 4292266952
0.0014569403 0.024811788 0.551 4292201159
0.002501165 0.02481178 0.551 4292331712
0.0035518226 0.024856813 0.55199999 4292463554
0.0046062693 0.024901856 0.55299997 4292267206
0.0056440565 0.024856851 0.55199999 4292267206
0.0066901748 0.024856888 0.55199999 4292136134
0.0077362941 0.024856934 0.55199999 4291872961
0.0087983226 0.024902018 0.55299997 4292069059
0.0098463418 0.024902087 0.55299997 4292069059
0.010914068 0.024947202 0.55400002 4292265405
0.0181318 0.024767932 0.55000001 4291872707
0.0191742 0.024768101 0.55000001 4291872194
0.020216605 0.024768276 0.55000001 4291674815
0.021220371 0.024723431 0.54900002 4291543999
0.022260908 0.02472363 0.54900002 4291543999
0.023301458 0.024723839 0.54900002 4291675585
0.024386359 0.024769094 0.55000001 4291806914
-0.031536907 0.026378198 0.56199998 4292989907
-0.030471366 0.026377836 0.56199998 4292989907
-0.018551799 0.026093015 0.55599999 4292465360
-0.01746643 0.026045863 0.55500001 4292465360
-0.016414441 0.026045647 0.55500001 4292661710
-0.015334792 0.025998518 0.55400002 4292595917
-0.014284732 0.025998333 0.55400002 4292792013
-0.013234686 0.025998147 0.55400002 4292792013
-0.012184656 0.025997985 0.55400002 4292791499
-0.011134636 0.025997827 0.55400002 4292857293
-0.01008463 0.02599768 0.55400002 4292661195
-0.0090346346 0.025997547 0.55400002 4292727244
-0.0079846503 0.025997423 0.55400002 4292661449
-0.0069346763 0.025997313 0.55400002 4292661449
-0.0058847107 0.025997208 0.55400002 4292266187
-0.0048347539 0.025997123 0.55400002 4292266187
-0.0037848048 0.025997045 0.55400002 4292266187
-0.0027299253 0.025950052 0.55299997 4292463565
-0.0016818837 0.025949998 0.55299997 4292136138
-0.00063155487 0.025856102 0.551 4292070089
0.00041268714 0.025856072 0.551 4292266952
0.0014569258 0.025856052 0.551 4292398538
0.0025011615 0.02585604 0.551 4292463815
0.0035518301 0.025902968 0.55199999 4292398022
0.0046146177 0.025996834 0.55400002 4292201159
0.0056543113 0.025949931 0.55299997 4292266952
0.0067023351 0.025949968 0.55299997 4292530123
0.0077503603 0.025950015 0.55299997 4292069573
0.0087983869 0.025950072 0.55299997 4292134853
0.0098642232 0.025997067 0.55400002 4292134853
0.010914153 0.025997151 0.55400002 4292067774
0.018164931 0.025857244 0.551 4291872448
0.019209236 0.025857417 0.551 4291807168
0.020253547 0.025857598 0.551 4291675583
0.021297872 0.025857788 0.551 4291740606
0.022301663 0.025811063 0.55000001 4291740606
0.023344118 0.025811277 0.55000001 4291674048
0.024386581 0.025811499 0.55000001 4291937219
-0.017466655 0.027097799 0.55500001 4292465101
-0.01641465 0.027097575 0.55500001 4292661708
-0.015334988 0.027048545 0.55400002 4293056466
-0.014284919 0.027048353 0.55400002 4292858573
-0.01325875 0.02709699 0.55500001 4292595401
-0.012206813 0.027096819 0.55500001 4292595403
-0.011154888 0.027096657 0.55500001 4292661197
-0.010102975 0.027096508 0.55500001 4292595401
-0.0090510733 0.027096372 0.55500001 4292463815
-0.0079991817 0.027096244 0.55500001 4292529860
-0.0069347834 0.027047308 0.55400002 4292661447
-0.0058848062 0.027047204 0.55400002 4292332497
-0.0048348387 0.027047114 0.55400002 4292266704
-0.0037848777 0.027047032 0.55400002 4292397518
-0.0027299866 0.02699814 0.55299997 4293121498
-0.0016819338 0.026998088 0.55299997 4292397770
-0.00063159323 0.026900398 0.551 4292200648
0.00041266016 0.026900366 0.551 4292529870
0.0014569102 0.026900345 0.551 4292661712
0.0025011573 0.026900336 0.551 4292266439
0.0035518375 0.02694916 0.55199999 4292266439
0.0046146372 0.027046811 0.55400002 4292201161
0.0056645665 0.027046837 0.55400002 4292266954
0.0067144968 0.027046874 0.55400002 4292070341
0.0077644293 0.027046921 0.55400002 4291675583
0.0088143628 0.02704698 0.55400002 4292134853
0.0098642986 0.027047047 0.55400002 4292266439
0.01093394 0.027095953 0.55500001 4292199362
-0.015335193 0.028098607 0.55400002 4292465099
-0.014285111 0.028098412 0.55400002 4292530640
-0.013235041 0.02809822 0.55400002 4292399054
-0.012272966 0.028300921 0.55800003 4292595150
-0.011195242 0.028250031 0.55699998 4292661199
-0.010121323 0.028199159 0.55599999 4292399305
-0.0090675149 0.028199023 0.55599999 4292136134
-0.0080137169 0.028198889 0.55599999 4292333512
-0.0069474108 0.028148053 0.55500001 4292465099
-0.0058955275 0.028147949 0.55500001 4292661458
-0.0048349248 0.028097138 0.55400002 4292529872
-0.0037849529 0.028097058 0.55400002 4292397770
-0.0027349871 0.028096987 0.55400002 4292595150
-0.0016850269 0.028096927 0.55400002 4292463050
-0.00063163298 0.027944732 0.551 4292397257
0.00041263204 0.027944695 0.551 4292333260
0.0014568936 0.027944671 0.551 4292399054
0.0025011529 0.027944665 0.551 4292070343
0.0035647135 0.028096814 0.55400002 4292070343
0.0046146554 0.028096827 0.55400002 4292266439
0.0056645968 0.028096851 0.55400002 4292266439
0.0067145382 0.028096884 0.55400002 4291938501
0.0077644824 0.028096937 0.55400002 4291872707
0.0088144271 0.028096996 0.55400002 4292200648
0.0098643759 0.028097067 0.55400002 4292397770
0.010914329 0.028097149 0.55400002 4292331202
-0.01227314 0.029358586 0.55800003 4292726740
-0.011195404 0.029305799 0.55699998 4293055705
-0.010139675 0.029305641 0.55699998 4292530123
-0.0090839602 0.029305497 0.55699998 4292398538
-0.0080138426 0.029252749 0.55599999 4292530123
-0.0069600418 0.029252626 0.55599999 4292595917
-0.0059062517 0.029252522 0.55599999 4292595917
-0.0048437421 0.029199814 0.55500001 4292530123
-0.0037850302 0.029147118 0.55400002 4292266187
-0.0027350523 0.029147044 0.55400002 4292463565
-0.0016881218 0.029199591 0.55500001 4292397768
0.0014700966 0.029252097 0.55599999 4292595403
0.0025147651 0.029146865 0.55400002 4292266952
0.00356472 0.029146863 0.55400002 4292266952
0.004614674 0.029146878 0.55400002 4292266693
0.0056646275 0.0291469 0.55400002 4292200644
0.0067145806 0.029146934 0.55400002 4292134599
0.007764536 0.029146984 0.55400002 4292068805
0.0088144932 0.029147044 0.55400002 4292135114
0.0098644542 0.029147118 0.55400002 4292200907
0.010914418 0.029147204 0.55400002 4292069059
-0.012273317 0.030416287 0.55800003 4292595150
-0.01121567 0.030416114 0.55800003 4292726992
-0.010139829 0.03036144 0.55699998 4292529610
-0.0090841018 0.030361293 0.55699998 4292529610
-0.0080283843 0.030361153 0.55699998 4292595403
-0.0069726771 0.030361028 0.55699998 4292661197
-0.0059169782 0.030360917 0.55699998 4292595150
-0.0048525608 0.030306309 0.55599999 4292595150
-0.0037919416 0.030251717 0.55500001 4291872711
-0.0027400565 0.030251643 0.55500001 4291938505
-0.0016912187 0.030306086 0.55599999 4292463817
0.001470078 0.030305974 0.55599999 4292397768
0.0025238374 0.030305961 0.55599999 4292069573
0.0035711604 0.030251456 0.55500001 4292135366
0.0046146917 0.030196961 0.55400002 4292529095
0.0056646583 0.030196987 0.55400002 4292463302
0.0067146239 0.030197021 0.55400002 4292265666
0.0077645918 0.030197073 0.55400002 4292199873
0.0088145612 0.030197134 0.55400002 4291872196
-0.01121584 0.031473849 0.55800003 4292661197
-0.010139988 0.031417277 0.55699998 4292529610
-0.0090842471 0.03141712 0.55699998 4292529610
-0.0080285175 0.031416982 0.55699998 4292595152
-0.0069727958 0.031416852 0.55699998 4292595152
-0.0059170853 0.031416737 0.55699998 4292595403
-0.0048613828 0.031416636 0.55699998 4292595403
-0.0038056881 0.03141655 0.55699998 4291938251
0.0046147108 0.031247085 0.55400002 4292397509
0.005664689 0.031247109 0.55400002 4292529095
0.0067146672 0.031247143 0.55400002 4292266693
0.0077646477 0.031247195 0.55400002 4292266693
0.0088146292 0.031247253 0.55400002 4292135364
-0.011276314 0.032706518 0.56099999 4292595401
-0.010176558 0.032589749 0.55900002 4292529610
-0.0091170147 0.032589596 0.55900002 4292529610
-0.0080574807 0.03258945 0.55900002 4292529356
-0.0069979574 0.032589316 0.55900002 4292529356
-0.0059384429 0.032589201 0.55900002 4292529610
-0.0048789363 0.032589093 0.55900002 4292529610
-0.011276494 0.033770014 0.56099999 4292529608
-0.010213135 0.033769846 0.56099999 4292267465
-0.0091334749 0.033709485 0.56 4292267465
-0.0080720345 0.03370934 0.56 4292463817
0.15588072 0.048954118 0.787 4293519345
0.15617697 0.048582502 0.78100002 4293914103
0.15766172 0.048584126 0.78100002 4293783539
0.1532093 0.050061412 0.78100002 4293781738
0.15469392 0.05006304 0.78100002 4293584877
0.15617859 0.050064676 0.78100002 4293716206
0.15766336 0.050066322 0.78100002 4293585390
0.15321092 0.051543579 0.78100002 4293979635
0.15469557 0.051545233 0.78100002 4293716206
0.15618026 0.051546898 0.78100002 4293848048
0.15766501 0.051548567 0.78100002 4293978864
0.15914986 0.051550262 0.78100002 4293715693
0.13715294 0.050910071 0.75 4279045376
0.13857821 0.050911605 0.75 4281940249
0.14000356 0.050913163 0.75 4288842089
0.14124037 0.05084683 0.74900001 4294961865
0.14228299 0.050712619 0.74699998 4294966269
0.14351043 0.050646301 0.74599999 4294967295
0.14492843 0.050647888 0.74599999 4294964735
0.14634648 0.050649486 0.74599999 4294372342
0.14776456 0.050651088 0.74599999 4293979116
0.15618195 0.053029176 0.78100002 4293847787
0.15766671 0.053030867 0.78100002 4293781742
0.15915157 0.053032581 0.78100002 4293781742
0.13572925 0.052331775 0.75 4278190095
0.13697162 0.05226355 0.74900001 4278190080
0.138395 0.052265108 0.74900001 4278583296
0.14000511 0.052336462 0.75 4284288000
0.14124194 0.052268263 0.74900001 4293301364
0.14228457 0.052130289 0.74699998 4294960857
0.14351203 0.052062105 0.74599999 4294964455
0.14454146 0.051924121 0.74400002 4294966527
0.14595571 0.051925734 0.74400002 4294898168
0.14776619 0.052066945 0.74599999 4294175731
0.15698355 0.054790676 0.78500003 4293846765
0.15847595 0.054792415 0.78500003 4293386214
0.15996842 0.054794159 0.78500003 4293649387
0.1571416 0.053330034 0.764 4293649387
0.15859424 0.053331744 0.764 4293846765
0.16004698 0.053333476 0.764 4293517800
0.13573083 0.053755067 0.75 4289901232
0.13660742 0.053541608 0.74699998 4286548862
0.13802701 0.053543195 0.74699998 4278190080
0.13944668 0.053544786 0.74699998 4278190080
0.14086638 0.053546384 0.74699998 4280951074
0.1420957 0.053476315 0.74599999 4288776003
0.14351365 0.053477943 0.74599999 4294237078
0.1445431 0.053336192 0.74400002 4294304752
0.14536881 0.053122759 0.741 4294967295
0.14638129 0.052981019 0.73900002 4294966013
0.14778617 0.052982662 0.73900002 4294504947
0.1491911 0.052984323 0.73900002 4294044655
0.15059614 0.052985992 0.73900002 4293978862
0.15714331 0.054780211 0.764 4293649387
0.15859599 0.054781951 0.764 4293846765
0.16004869 0.054783706 0.764 4293583593
0.13233343 0.055541508 0.755 4294967290
0.1335908 0.055469509 0.75400001 4294967290
0.13430722 0.055176817 0.75 4294967295
0.13555144 0.055104841 0.74900001 4293914105
0.13660902 0.054959286 0.74699998 4288067032
0.13802862 0.054960888 0.74699998 4280895595
0.13944829 0.054962493 0.74699998 4278190082
0.14086802 0.054964133 0.74699998 4278190080
0.14209732 0.054892182 0.74599999 4280420352
0.14313053 0.054746661 0.74400002 4288118370
0.14415616 0.054601137 0.74199998 4293314482
0.14537047 0.054529216 0.741 4294963676
0.14638294 0.054383695 0.73900002 4294966527
0.14778784 0.054385364 0.73900002 4294833145
0.1491928 0.054387044 0.73900002 4294176498
0.15714508 0.056230441 0.764 4293386984
0.15859774 0.056232207 0.764 4293321191
0.16005047 0.056233976 0.764 4293386214
0.16086909 0.056014936 0.76099998 4293517800
0.028161528 0.045899056 0.60900003 4291608495
0.029316075 0.045899414 0.60900003 4291147944
0.030520666 0.045975145 0.61000001 4291147957
0.031781003 0.046126273 0.61199999 4291147957
0.1309005 0.056972735 0.755 4289040047
0.13233501 0.056974322 0.755 4293382798
0.13288371 0.0565986 0.75 4294966456
0.13377157 0.056373779 0.74699998 4294967295
0.13519107 0.056375388 0.74699998 4294966527
0.13642775 0.05630153 0.74599999 4290889467
0.13784546 0.056303158 0.74599999 4286086578
0.13926324 0.056304794 0.74599999 4278190167
0.14086965 0.056381915 0.74699998 4278190154
0.14209896 0.056308094 0.74599999 4278190336
0.14313218 0.0561588 0.74400002 4282204723
0.14415784 0.056009509 0.74199998 4290882389
0.14537212 0.055935703 0.741 4294962069
0.14638463 0.055786416 0.73900002 4294967295
0.14778951 0.055788111 0.73900002 4294966270
0.14919449 0.055789821 0.73900002 4294834682
0.15652977 0.057454225 0.76099998 4293978864
0.15797675 0.057456002 0.76099998 4293123556
0.15942378 0.057457797 0.76099998 4293188836
0.16044812 0.057308599 0.759 4293649387
0.02700733 0.047053631 0.60900003 4291281594
0.028161878 0.047053974 0.60900003 4291149239
0.029316438 0.047054339 0.60900003 4290754481
0.03052105 0.047131978 0.61000001 4290950576
0.031781401 0.047286909 0.61199999 4290753198
0.13093437 0.057788305 0.74699998 4290749586
0.13235372 0.057789896 0.74699998 4294697422
0.13359411 0.057714146 0.74599999 4293914355
0.1350117 0.057715777 0.74599999 4293124839
0.13606362 0.057562675 0.74400002 4289644753
0.13747755 0.057564314 0.74400002 4286026139
0.13889152 0.057565972 0.74400002 4283849853
0.14030556 0.05756763 0.74400002 4282139234
0.1417197 0.057569321 0.74400002 4283325016
0.14313385 0.057570994 0.74400002 4284706669
0.1445481 0.0575727 0.74400002 4291468437
0.14537384 0.057342257 0.741 4294957008
0.14638631 0.057189193 0.73900002 4294637814
0.14779124 0.05719091 0.73900002 4294703607
0.15797853 0.058900662 0.76099998 4293519084
0.1594256 0.05890248 0.76099998 4293058283
0.16044992 0.058749504 0.759 4293321198
0.16146669 0.058596522 0.75700003 4293253862
0.1613999 0.058056496 0.75 4293385449
0.027007671 0.048208594 0.60900003 4290688688
0.028162234 0.048208948 0.60900003 4290621361
0.029316813 0.048209317 0.60900003 4290095017
0.030521438 0.048288859 0.61000001 4289436567
0.031729877 0.04836842 0.611 4289305238
0.13041013 0.058968261 0.74400002 4287793827
0.13182382 0.058969866 0.74400002 4287596192
0.13287941 0.05881298 0.74199998 4288185503
0.13428943 0.058814615 0.74199998 4287856538
0.1356995 0.058816269 0.74199998 4291017110
0.13710964 0.058817927 0.74199998 4292004005
0.13833313 0.058740325 0.741 4292333279
0.13936433 0.058583464 0.73900002 4293254381
0.14076895 0.058585145 0.73900002 4293188836
0.1425584 0.058745407 0.741 4293452007
0.14396693 0.058747124 0.741 4291475164
0.144787 0.058511 0.73799998 4290751442
0.14618994 0.058512732 0.73799998 4288844950
0.14779297 0.058593761 0.73900002 4288318606
0.15756519 0.060186774 0.759 4294967039
0.15900844 0.060188618 0.759 4294965757
0.16002896 0.060031865 0.75700003 4294175985
0.16104195 0.059875101 0.755 4293517550
0.16183215 0.059639033 0.75199997 4293254379
0.027008018 0.049363613 0.60900003 4290096549
0.028162593 0.049363967 0.60900003 4289898656
0.029365331 0.049445398 0.61000001 4289503898
0.030571867 0.04952684 0.611 4289502353
0.031730291 0.04952725 0.611 4289304718
0.13182545 0.060381994 0.74400002 4286221453
0.1323438 0.059977848 0.73900002 4288318386
0.13374813 0.059979495 0.73900002 4289173695
0.13515252 0.059981156 0.73900002 4293444537
0.13655697 0.059982844 0.73900002 4293905088
0.13796146 0.059984528 0.73900002 4294037971
0.13917743 0.059905048 0.73799998 4294037971
0.14058016 0.059906758 0.73799998 4293120712
0.14217535 0.059989665 0.73900002 4291870901
0.14358009 0.05999139 0.73900002 4289703089
0.14478873 0.059911955 0.73799998 4284702822
0.14619169 0.059913702 0.73799998 4282658069
0.14759474 0.059915479 0.73799998 4282263311
0.14899783 0.059917249 0.73799998 4288833837
0.15612383 0.061625883 0.759 4294963950
0.15859133 0.061467208 0.75700003 4294967039
0.15939662 0.061225466 0.75400001 4294898938
0.16083048 0.061227333 0.75400001 4293649648
0.1614036 0.060904391 0.75 4293320939
0.16217867 0.060662638 0.74699998 4293386214
0.027008368 0.050518684 0.60900003 4289568658
0.02816296 0.050519042 0.60900003 4289239949
0.029365711 0.050602373 0.61000001 4288976520
0.030522229 0.05060276 0.61000001 4289239695
0.031730708 0.050686132 0.611 4289173902
0.032889158 0.050686557 0.611 4289107598
0.12379842 0.060624927 0.73000002 4290821555
0.12518534 0.060626511 0.73000002 4293582280
0.12657234 0.06062812 0.73000002 4294832604
0.12813467 0.060712788 0.73100001 4293387736
0.12952368 0.060714416 0.73100001 4293782494
0.13145003 0.060965247 0.73400003 4290559457
0.13320683 0.061133031 0.736 4290098907
0.13460553 0.061134718 0.736 4288515506
0.13637386 0.061302532 0.73799998 4288252591
0.13422936 0.059725944 0.71899998 4286804318
0.13559595 0.05972762 0.71899998 4278583296
0.13696258 0.059729312 0.71899998 4279509760
0.13832925 0.05973101 0.71899998 4278190080
0.14358185 0.061394274 0.73900002 4278190080
0.14498669 0.06139604 0.73900002 4278715141
0.14219666 0.059073236 0.71100003 4278190080
0.16218056 0.062080991 0.74699998 4293847015
0.027008716 0.051673807 0.60900003 4289764756
0.028163327 0.051674169 0.60900003 4289370252
0.029366098 0.051759396 0.61000001 4289238410
0.030522639 0.051759802 0.61000001 4289239697
0.031679194 0.051760208 0.61000001 4289107855
0.032889605 0.051845502 0.611 4288843917
0.12241311 0.062008884 0.73000002 4293837259
0.12346081 0.06184059 0.72799999 4294429396
0.12484396 0.061842199 0.72799999 4294959845
0.12622716 0.06184382 0.72799999 4294959588
0.12796101 0.062015366 0.73000002 4293714648
0.12934816 0.062017016 0.73000002 4292727753
0.13091442 0.062103648 0.73100001 4287674032
0.13067463 0.061340678 0.722 4287213481
0.13149807 0.061087452 0.71899998 4284775847
0.13286453 0.061089139 0.71899998 4285367984
0.13423108 0.061090827 0.71899998 4283726195
0.13559765 0.061092526 0.71899998 4279647286
0.1365833 0.060924295 0.71700001 4279652381
0.13794619 0.060926005 0.71700001 4280902447
0.13930914 0.060927738 0.71700001 4284306510
0.139495 0.060419604 0.71100003 4285885799
0.14084667 0.06042134 0.71100003 4285228689
0.14219837 0.060423072 0.71100003 4279570490
0.14522538 0.060003404 0.70599997 4284294144
0.0086066611 0.053259227 0.61400002 4291016115
0.0097706178 0.053259306 0.61400002 4290818993
0.010863342 0.052912433 0.61000001 4290489771
0.012019724 0.052912556 0.61000001 4290555055
0.027053425 0.052915726 0.61000001 4289304207
0.028209947 0.052916091 0.61000001 4289304972
0.029366489 0.052916475 0.61000001 4288647043
0.030523045 0.052916881 0.61000001 4288779146
0.031679623 0.052917298 0.61000001 4288910475
0.032890048 0.0530045 0.611 4288711304
0.034048561 0.05300495 0.611 4287987325
0.12207932 0.063220799 0.72799999 4290094013
0.12329285 0.063135572 0.727 4288317602
0.12467412 0.063137203 0.727 4282780035
0.12605542 0.06313885 0.727 4281139307
0.12708621 0.062966801 0.72500002 4278452237
0.12846383 0.062968455 0.72500002 4278190084
0.12984155 0.062970132 0.72500002 4279975742
0.13067633 0.062711246 0.722 4288068538
0.13149975 0.062452354 0.71899998 4289837267
0.13286622 0.062454049 0.71899998 4289705681
0.13423276 0.062455747 0.71899998 4285696433
0.13522218 0.062283743 0.71700001 4284643745
0.13639453 0.062198605 0.71600002 4289836683
0.13717833 0.061939724 0.713 4294901720
0.1385337 0.06194146 0.713 4294966778
0.13949673 0.061769456 0.71100003 4294967035
0.14084841 0.06177121 0.71100003 4294966009
0.14220013 0.061772972 0.71100003 4289307039
0.14274433 0.06142721 0.70700002 4286612073
0.14388476 0.061342094 0.70599997 4278190080
0.14522716 0.061343867 0.70599997 4278386688
0.14553158 0.060911208 0.70099998 4280093198
0.14665507 0.0608261 0.69999999 4285618738
0.14756343 0.060654104 0.69800001 4292395417
0.14889084 0.060655896 0.69800001 4292925663
0.15021828 0.060657695 0.69800001 4294965503
0.15154578 0.060659505 0.69800001 4294242289
0.0086067319 0.054423891 0.61400002 4290817959
0.0097229676 0.054158058 0.611 4290752166
0.010863451 0.054069519 0.61000001 4290620580
0.012019851 0.054069635 0.61000001 4290292899
0.013176255 0.054069769 0.61000001 4289766554
0.014332666 0.054069925 0.61000001 4289701013
0.025897257 0.054072477 0.61000001 4289238927
0.027053783 0.054072835 0.61000001 4289238927
0.028210323 0.054073207 0.61000001 4289173902
0.029366888 0.054073609 0.61000001 4288713351
0.030523464 0.054074012 0.61000001 4288909962
0.031680055 0.054074444 0.61000001 4288647047
0.032890499 0.054163534 0.611 4288447878
0.034049023 0.054163996 0.611 4288118913
0.12053212 0.064512305 0.727 4289834428
0.12191325 0.064513922 0.727 4280120171
0.12329447 0.064515553 0.727 4279330398
0.12467575 0.0645172 0.727 4278190153
0.12571028 0.064341366 0.72500002 4278190142
0.1262114 0.063899301 0.72000003 4278190080
0.12757957 0.06390097 0.72000003 4278190080
0.12894778 0.063902646 0.72000003 4282793984
0.13067803 0.064081855 0.722 4290228579
0.13150147 0.063817292 0.71899998 4290229443
0.13286793 0.063819006 0.71899998 4289571770
0.13423447 0.063820735 0.71899998 4284776097
0.13409233 0.063112356 0.71100003 4285236648
0.13544378 0.063114092 0.71100003 4292326070
0.13679528 0.063115828 0.71100003 4294964728
0.13795254 0.063028805 0.70999998 4294967295
0.13930227 0.063030563 0.70999998 4294967295
0.14025585 0.062854789 0.708 4294967295
0.14140192 0.062767796 0.70700002 4292594652
0.14274611 0.062769584 0.70700002 4289438135
0.14388655 0.062682591 0.70599997 4281279546
0.14522895 0.062684387 0.70599997 4278190080
0.14553335 0.062242236 0.70099998 4278190080
0.14665689 0.062155262 0.69999999 4278191104
0.14756522 0.061979476 0.69800001 4286815363
0.14867932 0.061892506 0.69700003 4289573802
0.14978966 0.061805524 0.69599998 4293850347
0.15111338 0.061807349 0.69599998 4294702840
0.0085927872 0.055498071 0.61299998 4290685858
0.0097230598 0.055317085 0.611 4290621082
0.010863562 0.05522665 0.61000001 4290357910
0.01201998 0.055226773 0.61000001 4290095504
0.013176402 0.055226915 0.61000001 4289701002
0.01433283 0.05522706 0.61000001 4289635470
0.015489265 0.055227242 0.61000001 4289108870
0.025897607 0.055229653 0.61000001 4288976522
0.02705415 0.055230014 0.61000001 4289042316
0.028210711 0.05523039 0.61000001 4288910473
0.029367294 0.055230796 0.61000001 4288515971
0.030523881 0.055231202 0.61000001 4288581001
0.031680498 0.055231642 0.61000001 4288120450
0.032890953 0.055322628 0.611 4288317062
0.0340495 0.055323094 0.611 4288185219
0.12053373 0.065892294 0.727 4281278992
0.12157952 0.065712668 0.72500002 4286349872
0.12295692 0.065714307 0.72500002 4287665989
0.12433441 0.065715984 0.72500002 4286087600
0.12536517 0.065536365 0.72299999 4285495207
0.1255119 0.064903527 0.71600002 4282665817
0.12687245 0.064905196 0.71600002 4282073679
0.12877037 0.065178856 0.71899998 4283713137
0.13013674 0.065180562 0.71899998 4288910785
0.1309545 0.064910322 0.71600002 4291346093
0.1312065 0.064368092 0.70999998 4291609008
0.13218255 0.064188495 0.708 4291282896
0.13352825 0.064190231 0.708 4291151567
0.13487403 0.064191982 0.708 4290951105
0.13621981 0.064193733 0.708 4290688190
0.1375657 0.064195506 0.708 4293053613
0.13891165 0.064197287 0.708 4294303680
0.13986142 0.064017721 0.70599997 4293648355
0.14080368 0.063838162 0.704 4291740358
0.14093073 0.063295864 0.69800001 4288585138
0.14225788 0.063297652 0.69800001 4281150529
0.14420225 0.06357152 0.70099998 4281087521
0.14491235 0.063301265 0.69800001 4282798138
0.14623967 0.063303091 0.69800001 4283517041
0.14735562 0.063214228 0.69700003 4288254138
0.14804119 0.062943973 0.69400001 4290950063
0.14936106 0.062945805 0.69400001 4294766057
0.15111521 0.063129053 0.69599998 4294967036
0.0085928617 0.05666095 0.61299998 4290488224
0.009723153 0.056476176 0.611 4290226072
0.010863672 0.056383841 0.61000001 4290160279
0.012020108 0.056383956 0.61000001 4289634964
0.013176549 0.056384098 0.61000001 4289634964
0.014332997 0.056384258 0.61000001 4289766291
0.01548945 0.056384433 0.61000001 4289305740
0.025897959 0.056386877 0.61000001 4288779144
0.027054522 0.056387242 0.61000001 4288449922
0.028211102 0.056387626 0.61000001 4288383618
0.029415842 0.056480464 0.611 4288449411
0.030574353 0.056480888 0.611 4288515456
0.031732876 0.056481328 0.611 4288120698
0.032891423 0.05648179 0.611 4288120198
0.033994254 0.056389816 0.61000001 4288054405
0.035150949 0.056390312 0.61000001 4288186496
0.12007187 0.066256113 0.71600002 4289171603
0.12143222 0.06625776 0.71600002 4292461253
0.12433611 0.067092292 0.72500002 4291481815
0.12363289 0.065983474 0.713 4290692042
0.12446179 0.06570752 0.70999998 4287537065
0.12581097 0.065709196 0.70999998 4287668651
0.12733929 0.065803446 0.71100003 4289962160
0.12796649 0.065434948 0.70700002 4291607241
0.12931013 0.065436669 0.70700002 4293317594
0.13065383 0.065438397 0.70700002 4293251801
0.13218428 0.065532699 0.708 4292795093
0.1333414 0.065441899 0.70700002 4290558387
0.13468529 0.065443665 0.70700002 4287338655
0.13602921 0.065445423 0.70700002 4283522661
0.13737321 0.065447226 0.70700002 4285684277
0.13871725 0.065449022 0.70700002 4289566320
0.13986324 0.065358251 0.70599997 4290424750
0.14060546 0.065082327 0.70300001 4289832613
0.14093255 0.064621247 0.69800001 4283857816
0.1422597 0.064623065 0.69800001 4282673285
0.14358692 0.064624883 0.69800001 4284374622
0.14470658 0.064534128 0.69700003 4286216826
0.1458225 0.06444338 0.69599998 4291075766
0.14714603 0.064445212 0.69599998 4291338938
0.14804304 0.064261883 0.69400001 4293643980
0.14936291 0.064263739 0.69400001 4294961896
0.0086069526 0.057918224 0.61400002 4289501851
0.0097232442 0.057635315 0.611 4289172616
0.010863784 0.057541087 0.61000001 4289238410
0.01202024 0.057541214 0.61000001 4289304468
0.0131767 0.057541352 0.61000001 4289436054
0.014333166 0.057541512 0.61000001 4289502351
0.015489637 0.057541691 0.61000001 4289502351
0.016646121 0.057541896 0.61000001 4289370763
0.025940774 0.057638492 0.611 4288647810
0.027099252 0.057638861 0.611 4288253052
0.028257746 0.057639252 0.611 4288187266
0.029416254 0.057639655 0.611 4288187266
0.030574778 0.057640072 0.611 4288187007
0.031733323 0.057640523 0.611 4287858042
0.032891888 0.057640988 0.611 4287790212
0.033994745 0.057547137 0.61000001 4287658625
0.035151452 0.057547633 0.61000001 4287658360
0.0363677 0.057642486 0.611 4287921531
0.11973811 0.067426488 0.71399999 4289893568
0.12109467 0.067428149 0.71399999 4294696447
0.12176528 0.067052066 0.70999998 4294173916
0.12311435 0.06705375 0.70999998 4293779158
0.12411287 0.066866554 0.708 4292335579
0.12545827 0.066868268 0.708 4292137944
0.12662461 0.066775531 0.70700002 4292792796
0.12742521 0.066493891 0.704 4292989919
0.12876315 0.066495627 0.704 4292857306
0.13047077 0.06668628 0.70599997 4291278273
0.13199936 0.066782504 0.70700002 4286544776
0.13334318 0.066784278 0.70700002 4278190080
0.13468705 0.066786066 0.70700002 4278190165
0.13583858 0.066693395 0.70599997 4278190158
0.13718069 0.066695184 0.70599997 4284765757
0.13871905 0.066791475 0.70700002 4288121200
0.13986507 0.066698834 0.70599997 4291211663
0.14020728 0.066228285 0.70099998 4292066716
0.14073244 0.065852202 0.69700003 4293450449
0.14185391 0.065759555 0.69599998 4294965230
0.14317733 0.065761395 0.69599998 4294241257
0.14450079 0.065763235 0.69599998 4294636015
0.14477673 0.065292642 0.69099998 4292265459
0.14609082 0.065294497 0.69099998 4291804909
0.14847153 0.06576883 0.69599998 4288974533
0.14979523 0.065770723 0.69599998 4288053431
0.0062789284 0.059082996 0.61400002 4290225307
0.0074429773 0.059083045 0.61400002 4289766043
0.0085930089 0.058986884 0.61299998 4288713099
0.0097551653 0.058986969 0.61299998 4288974211
0.010863896 0.05869839 0.61000001 4288908417
0.012020372 0.058698516 0.61000001 4288581501
0.013176851 0.05869865 0.61000001 4289304968
0.014333337 0.058698814 0.61000001 4289370511
0.015489828 0.058698997 0.61000001 4289041802
0.016646329 0.058699198 0.61000001 4289041032
0.017802835 0.058699414 0.61000001 4289041032
0.018897189 0.058507197 0.60799998 4288909447
0.020049918 0.05850745 0.60799998 4288843654
0.025941133 0.058797725 0.611 4288317825
0.027099632 0.058798101 0.611 4288317825
0.028258143 0.058798488 0.611 4288319108
0.029416677 0.058798913 0.611 4288187266
0.03052518 0.058703102 0.61000001 4287990394
0.031681851 0.058703557 0.61000001 4287595892
0.032892361 0.05880025 0.611 4287592567
0.034050964 0.058800738 0.611 4287724409
0.035209589 0.058801241 0.611 4287459702
0.036368228 0.05880177 0.611 4288183425
0.11973979 0.068782002 0.71399999 4287723664
0.12041795 0.068398342 0.70999998 4292987361
0.12073794 0.067821994 0.704 4292399051
0.12207565 0.067823686 0.704 4291412156
0.1241146 0.068210766 0.708 4289966257
0.12528279 0.068116136 0.70700002 4289308584
0.12590994 0.067732476 0.70300001 4290423717
0.12724593 0.067734212 0.70300001 4292002749
0.12858202 0.06773597 0.70300001 4292134850
0.12991811 0.067737713 0.70300001 4290161060
0.1312543 0.067739494 0.70300001 4285496421
0.13315636 0.068030357 0.70599997 4284443733
0.13449834 0.068032153 0.70599997 4285032579
0.1358404 0.068033963 0.70599997 4286151061
0.13718249 0.068035789 0.70599997 4289697709
0.13852467 0.068037629 0.70599997 4290026673
0.13986689 0.068039477 0.70599997 4293903041
0.14000909 0.067463078 0.69999999 4294626508
0.14053236 0.06707941 0.69599998 4294959334
0.14144811 0.066888496 0.69400001 4294960106
0.14276776 0.066890366 0.69400001 4294239198
0.14201126 0.065928362 0.68400002 4292660165
0.14331195 0.065930195 0.68400002 4290623951
0.14609268 0.066606797 0.69099998 4289505726
0.0062789652 0.060247939 0.61400002 4289963418
0.0074430327 0.060247991 0.61400002 4289897107
0.0085930843 0.060149927 0.61299998 4288778626
0.0097552594 0.060150009 0.61299998 4288778376
0.010864009 0.059855748 0.61000001 4287923067
0.012020503 0.059855871 0.61000001 4288119926
0.013155404 0.059757892 0.60900003 4289501579
0.014310012 0.059758052 0.60900003 4289305742
0.015490019 0.059856363 0.61000001 4288713349
0.016646538 0.059856568 0.61000001 4288909449
0.017773882 0.059758667 0.60900003 4288843656
0.018897435 0.059660763 0.60799998 4288778626
0.020050187 0.059661027 0.60799998 4288647297
0.021272702 0.05985757 0.61000001 4288513921
0.022429267 0.059857868 0.61000001 4288579714
0.023624513 0.059956316 0.611 4288449663
0.024783 0.059956655 0.611 4288449663
0.025941502 0.059957013 0.611 4287858305
0.027100015 0.059957385 0.611 4287529341
0.028258551 0.059957791 0.611 4287725693
0.029417098 0.059958201 0.611 4287988608
0.030525621 0.059860509 0.61000001 4287463270
0.031682305 0.059860967 0.61000001 4287529063
0.032839011 0.059861433 0.61000001 4288251253
0.033995736 0.059861936 0.61000001 4288777597
0.03515248 0.059862439 0.61000001 4289237396
0.036309239 0.05986296 0.61000001 4289368726
0.11957377 0.070039324 0.713 4278190080
0.11889318 0.068862222 0.70099998 4279502596
0.12005363 0.06876567 0.69999999 4280352768
0.1206901 0.06837441 0.69599998 4279304192
0.12166203 0.068179615 0.69400001 4279504128
0.12298086 0.068181336 0.69400001 4279175424
0.12501614 0.068576038 0.69800001 4286937101
0.12634265 0.068577774 0.69800001 4288450596
0.12766922 0.068579532 0.69800001 4291341714
0.12936546 0.068777807 0.69999999 4291604629
0.13069595 0.068779603 0.69999999 4293583552
0.1322151 0.068879634 0.70099998 4294899412
0.13392866 0.069077983 0.70300001 4294440701
0.13526501 0.069079809 0.70300001 4294901247
0.13679573 0.069179907 0.704 4292135673
0.13852653 0.069378302 0.70599997 4291741171
0.13947253 0.069183625 0.704 4291409095
0.14001094 0.06879238 0.69999999 4289698220
0.14053421 0.06840115 0.69599998 4284949392
0.14144997 0.068206467 0.69400001 4283567739
0.14276962 0.068208344 0.69400001 4281270272
0.1420131 0.067227371 0.68400002 4279566336
0.14331381 0.067229234 0.68400002 4278190084
0.0062790001 0.061412949 0.61400002 4289438616
0.0074430886 0.061413001 0.61400002 4289305490
0.0085931597 0.061313037 0.61299998 4288779146
0.0097553553 0.061313126 0.61299998 4288909962
0.010899744 0.061213199 0.61199999 4288120446
0.012020638 0.061013289 0.61000001 4288185975
0.013155558 0.060913421 0.60900003 4289107077
0.014310187 0.060913578 0.60900003 4289107598
0.01546482 0.06091376 0.60900003 4288844169
0.016619463 0.060913961 0.60900003 4288778376
0.017774113 0.060914181 0.60900003 4288647047
0.018928772 0.060914431 0.60900003 4288581251
0.020083442 0.060914699 0.60900003 4288581251
0.021238118 0.060914978 0.60900003 4288186496
0.022392808 0.060915276 0.60900003 4288317825
0.023624843 0.061115656 0.611 4287990909
0.024783351 0.061115995 0.611 4287925116
0.025941871 0.061116364 0.611 4287595899
0.027100407 0.06111674 0.611 4287595899
0.028258961 0.06111715 0.611 4287724918
0.029417528 0.061117567 0.611 4287856761
0.030476024 0.060917947 0.60900003 4287790202
0.031630833 0.060918402 0.60900003 4288053118
0.032839496 0.061018918 0.61000001 4288973188
0.033996239 0.061019413 0.61000001 4289631119
0.035153005 0.061019931 0.61000001 4289764767
0.036309782 0.061020464 0.61000001 4289567645
0.037466593 0.061021022 0.61000001 4288910492
0.038813375 0.061321702 0.61299998 4289371043
0.039975908 0.06132229 0.61299998 4289371810
0.04113847 0.061322901 0.61299998 4289371810
0.11211292 0.068486013 0.68400002 4285495429
0.11341243 0.068487644 0.68400002 4278190093
0.11471196 0.068489276 0.68400002 4278190080
0.11635077 0.068691187 0.68599999 4278190080
0.11936928 0.069694206 0.69599998 4278190080
0.11982476 0.069195226 0.69099998 4278980114
0.12096252 0.069096789 0.69 4283120457
0.12227374 0.06909851 0.69 4284633697
0.123585 0.069100231 0.69 4289430925
0.12489634 0.069101982 0.69 4289759890
0.12620769 0.069103725 0.69 4293047478
0.12751916 0.069105498 0.69 4293771201
0.13069774 0.070108823 0.69999999 4294764773
0.13221693 0.0702108 0.70099998 4294698980
0.13393047 0.070412956 0.70300001 4293651435
0.13526684 0.070414796 0.70300001 4293059298
0.13679759 0.070516825 0.704 4289773269
0.13852839 0.070719026 0.70599997 4289246925
0.13947441 0.07052058 0.704 4284975249
0.1408129 0.070522465 0.704 4281093206
0.0062790359 0.062578008 0.61400002 4288845714
0.007443144 0.06257806 0.61400002 4289107855
0.0085932352 0.062476199 0.61299998 4288910475
0.0097554494 0.062476277 0.61299998 4288975755
0.010899859 0.062374465 0.61199999 4288844169
0.012020773 0.062170763 0.61000001 4288713603
0.013155711 0.062068984 0.60900003 4288713603
0.014310363 0.062069163 0.60900003 4288581001
0.015465016 0.062069342 0.60900003 4288514952
0.016619677 0.062069546 0.60900003 4288646020
0.017774349 0.062069781 0.60900003 4288580227
0.018929025 0.062070016 0.60900003 4288317312
0.020083716 0.062070288 0.60900003 4288317312
0.021238415 0.062070571 0.60900003 4287724668
0.022393122 0.062070876 0.60900003 4287658875
0.023586512 0.062173128 0.61000001 4287989371
0.024743143 0.062173471 0.61000001 4288055420
0.025899788 0.062173843 0.61000001 4287925116
0.027056446 0.062174223 0.61000001 4288385667
0.028213121 0.062174633 0.61000001 4289107594
0.029369814 0.062175058 0.61000001 4289765523
0.030476475 0.06207357 0.60900003 4289896103
0.031631302 0.062074035 0.60900003 4289830310
0.032786153 0.062074527 0.60900003 4289897122
0.03399675 0.06217695 0.61000001 4290160295
0.035153531 0.062177479 0.61000001 4289897370
0.03631033 0.062178016 0.61000001 4289634455
0.037467159 0.062178578 0.61000001 4289371295
0.038687326 0.062281091 0.611 4289305501
0.039911304 0.062383622 0.61199999 4289371810
0.041071981 0.062384237 0.61199999 4289371810
0.11211455 0.069784701 0.68400002 4289966789
0.11341406 0.069786355 0.68400002 4288650929
0.11471359 0.069787994 0.68400002 4289505447
0.11601322 0.069789663 0.68400002 4290426549
0.11731288 0.069791339 0.68400002 4291938501
0.11982646 0.070507288 0.69099998 4293846754
0.12061362 0.070202895 0.68800002 4293517550
0.12192105 0.07020463 0.68800002 4294438652
0.12322852 0.070206366 0.68800002 4292792296
0.12453607 0.070208125 0.68800002 4292397539
0.12620948 0.070413992 0.69 4292198858
0.12752092 0.070415772 0.69 4290751412
0.0062790713 0.063743129 0.61400002 4288647821
0.0074431999 0.063743182 0.61400002 4288648591
0.0085933106 0.063639417 0.61299998 4288517005
0.0097555472 0.063639507 0.61299998 4288713353
0.010899976 0.063535802 0.61199999 4288647304
0.012040616 0.063432112 0.611 4288778626
0.013177471 0.063328452 0.61000001 4288778626
0.014334035 0.063328616 0.61000001 4288382586
0.015490606 0.063328803 0.61000001 4288645759
0.016592603 0.063121371 0.60799998 4288317821
0.017745398 0.063121602 0.60799998 4288054905
0.018898198 0.06312184 0.60799998 4287659895
0.020051012 0.063122116 0.60799998 4287988860
0.021238711 0.063226223 0.60900003 4287724157
0.022393439 0.063226536 0.60900003 4288118915
0.023586851 0.063330688 0.61000001 4288317062
0.024743499 0.063331038 0.61000001 4288448648
0.025900165 0.063331403 0.61000001 4288056202
0.027056843 0.063331798 0.61000001 4288450960
0.028213536 0.0633322 0.61000001 4289173400
0.029370248 0.063332632 0.61000001 4290094502
0.030426888 0.063125432 0.60799998 4290225838
0.031579833 0.063125893 0.60799998 4290028459
0.032786645 0.063230217 0.60900003 4289832100
0.03394153 0.063230716 0.60900003 4289766050
0.03509644 0.063231252 0.60900003 4289634464
0.036251362 0.063231803 0.60900003 4289568671
0.037467729 0.063336194 0.61000001 4289437601
0.038687918 0.063440613 0.611 4289437601
0.0398467 0.063441217 0.611 4289437351
0.041005507 0.06344185 0.611 4289371558
0.11211619 0.071083449 0.68400002 4291347149
0.1134157 0.071085103 0.68400002 4291544528
0.11471526 0.071086772 0.68400002 4292529870
0.11601489 0.071088456 0.68400002 4292529870
0.11731457 0.071090162 0.68400002 4292531907
0.11896114 0.071299739 0.68599999 4292597700
0.12061535 0.071509346 0.68800002 4292464597
0.12192278 0.071511097 0.68800002 4291609288
0.12323028 0.071512856 0.68800002 4290883012
0.12453783 0.071514629 0.68800002 4290027703
0.12584545 0.071516417 0.68800002 4287795604
0.12715311 0.071518205 0.68800002 4283914073
0.0051149572 0.064908296 0.61400002 4288909712
0.0062791067 0.064908318 0.61400002 4288909712
0.0074311327 0.064802639 0.61299998 4288713101
0.008593387 0.064802706 0.61299998 4288054914
0.0097556449 0.064802796 0.61299998 4288185990
0.010900095 0.064697191 0.61199999 4288185990
0.012021049 0.064485893 0.61000001 4288580481
0.013177629 0.064486034 0.61000001 4288777861
0.014334214 0.064486213 0.61000001 4288843908
0.015490805 0.064486399 0.61000001 4289106823
0.016538244 0.06406375 0.60600001 4289041800
0.017687261 0.064063974 0.60600001 4289107594
0.018867377 0.064169951 0.60699999 4289436306
0.020051293 0.064275928 0.60799998 4289831064
0.021239012 0.064381942 0.60900003 4289962150
0.022393761 0.064382255 0.60900003 4290291115
0.023587193 0.064488307 0.61000001 4290290861
0.024743868 0.064488657 0.61000001 4290290861
0.025900546 0.064489029 0.61000001 4290226351
0.027057245 0.064489424 0.61000001 4290358194
0.028167706 0.064384118 0.60900003 4290423467
0.029322546 0.064384557 0.60900003 4290028709
0.030427346 0.064279273 0.60799998 4290093998
0.031580318 0.06427975 0.60799998 4290357169
0.032733303 0.064280242 0.60799998 4289766052
0.033886313 0.064280748 0.60799998 4289568417
0.035039347 0.0642813 0.60799998 4289437603
0.036251925 0.064387582 0.60900003 4289437603
0.03746831 0.064493872 0.61000001 4289437603
0.038688518 0.064600192 0.611 4289503396
0.039847322 0.06460081 0.611 4289634986
0.041006152 0.064601444 0.611 4289568937
0.11065636 0.072274782 0.68300003 4292136651
0.11195394 0.072276436 0.68300003 4291741641
0.11325157 0.072278105 0.68300003 4290622904
0.11454926 0.072279796 0.68300003 4290622906
0.11567736 0.072175652 0.68199998 4287793807
0.11697326 0.072177365 0.68199998 4285625680
0.11826919 0.072179094 0.68199998 4278190080
0.1206171 0.07281585 0.68800002 4278190080
0.12192455 0.072817616 0.68800002 4278190080
0.12323205 0.072819397 0.68800002 4278190080
0.12453964 0.0728212 0.68800002 4278648832
0.12584725 0.072823003 0.68800002 4282004224
0.12715492 0.072824813 0.68800002 4281872384
0.0039508007 0.066073529 0.61400002 4289830560
0.0051066396 0.065965898 0.61299998 4289895070
0.0062586879 0.065858327 0.61199999 4289566361
0.007419066 0.065858372 0.61199999 4289238423
0.0085654277 0.06575083 0.611 4289041300
0.0096920831 0.065535687 0.60900003 4289042066
0.01082897 0.065428182 0.60799998 4288778894
0.011981774 0.065428317 0.60799998 4288646795
0.013134583 0.065428466 0.60799998 4288843917
0.014263898 0.065321021 0.60699999 4288975503
0.015414822 0.065321207 0.60699999 4289041552
0.016538462 0.065213814 0.60600001 4289370000
0.017687503 0.065214038 0.60600001 4289764758
0.018836556 0.065214299 0.60600001 4290093216
0.019985616 0.065214567 0.60600001 4290159010
0.021134688 0.065214857 0.60600001 4290028198
0.022283768 0.06521517 0.60600001 4290751664
0.023432866 0.065215521 0.60600001 4290883768
0.024581971 0.065215856 0.60600001 4290883768
0.025858473 0.065539092 0.60900003 4290817457
0.027013298 0.065539487 0.60900003 4290620078
0.028168133 0.065539911 0.60900003 4290357421
0.029322987 0.065540351 0.60900003 4289962664
0.030427814 0.065433182 0.60799998 4289765802
0.031580802 0.065433659 0.60799998 4289897389
0.032733809 0.065434158 0.60799998 4289569189
0.033886839 0.065434679 0.60799998 4289569189
0.035039891 0.065435208 0.60799998 4289503396
0.036252487 0.065543398 0.60900003 4289503396
0.037468899 0.065651603 0.61000001 4289438116
0.038689122 0.06575983 0.611 4289503909
0.039913166 0.065868072 0.61199999 4289568937
0.041073911 0.065868713 0.61199999 4289568937
0.10806299 0.073568411 0.68300003 4292925398
0.10936048 0.073570058 0.68300003 4293056986
0.11049598 0.073463991 0.68199998 4292399056
0.11179167 0.073465668 0.68199998 4292004559
0.11308744 0.073467359 0.68199998 4291083457
0.11438322 0.07346905 0.68199998 4289572787
0.11567907 0.073470764 0.68199998 4287335825
0.11697499 0.073472492 0.68199998 4285364079
0.11827095 0.073474236 0.68199998 4278190080
0.12044355 0.074014664 0.68699998 4278190080
0.12174911 0.074016459 0.68699998 4278190080
0.12305472 0.07401824 0.68699998 4278190080
0.0027956765 0.067457862 0.616 4290753459
0.0039507933 0.067238823 0.61400002 4290358957
0.0051066545 0.067129321 0.61299998 4290489008
0.0062587229 0.067019835 0.61199999 4290423215
0.0074191224 0.067019887 0.61199999 4290489521
0.0085655041 0.066910438 0.611 4290621107
0.0096762674 0.066582002 0.60799998 4290753202
0.010811276 0.06647259 0.60699999 4290950324
0.011962205 0.066472732 0.60699999 4290883504
0.013113141 0.066472873 0.60699999 4290883504
0.014264078 0.066473044 0.60699999 4290817972
0.015389628 0.06636373 0.60600001 4290817972
0.016538685 0.066363946 0.60600001 4290818224
0.017687745 0.066364169 0.60600001 4290884018
0.01883682 0.06636443 0.60600001 4290948525
0.019985905 0.066364706 0.60600001 4290948525
0.021134995 0.066365004 0.60600001 4290751149
0.022284094 0.066365317 0.60600001 4290751149
0.023433212 0.066365652 0.60600001 4290751412
0.024582338 0.066366009 0.60600001 4290685619
0.025731478 0.066366389 0.60600001 4290423467
0.026969345 0.066585824 0.60799998 4290094502
0.02812231 0.066586241 0.60799998 4290028970
0.029275287 0.066586681 0.60799998 4289831848
0.030378236 0.066477627 0.60699999 4289568937
0.031529352 0.066478118 0.60699999 4289568937
0.032734323 0.066588134 0.60799998 4289569189
0.033887375 0.066588663 0.60799998 4289569189
0.035098076 0.06669873 0.60900003 4289700005
0.036253061 0.066699289 0.60900003 4289766054
0.037469491 0.066809401 0.61000001 4289766566
0.038689736 0.06691952 0.611 4289832359
0.039913796 0.06702967 0.61199999 4289635496
0.041074563 0.067030318 0.61199999 4289503909
0.10806464 0.074865386 0.68300003 4291938239
0.10936213 0.074867047 0.68300003 4292069319
0.11049765 0.074759103 0.68199998 4292135112
0.11179335 0.074760787 0.68199998 4292069839
0.11275749 0.074543245 0.68000001 4292267217
0.1140495 0.074544951 0.68000001 4291084990
0.11534157 0.074546687 0.68000001 4289374629
0.1166337 0.074548431 0.68000001 4287863212
0.1182727 0.074769452 0.68199998 4286349973
0.12044533 0.075319394 0.68699998 4282537322
0.12175089 0.07532119 0.68699998 4278190872
0.12305653 0.075322993 0.68699998 4278191360
0.0016329223 0.068849877 0.61799997 4290427580
0.0027956467 0.068627015 0.616 4290425784
0.0039572199 0.068515599 0.61500001 4290557113
0.0051149987 0.06840419 0.61400002 4290622904
0.0062689846 0.068292812 0.61299998 4290557111
0.0074313018 0.068292864 0.61299998 4290622393
0.0085515641 0.067958705 0.61000001 4290688186
0.0096763643 0.067735963 0.60799998 4290951609
0.010811397 0.067624666 0.60699999 4290885560
0.011962347 0.0676248 0.60699999 4290818743
0.013091696 0.06751354 0.60600001 4290950072
0.014240761 0.067513712 0.60600001 4291015867
0.015389832 0.067513913 0.60600001 4290818489
0.016538909 0.067514129 0.60600001 4290883764
0.017687991 0.06751436 0.60600001 4290883764
0.018837087 0.067514621 0.60600001 4290817961
0.019986192 0.067514904 0.60600001 4290949548
0.0211353 0.067515202 0.60600001 4290751151
0.022284424 0.067515515 0.60600001 4290685358
0.023433559 0.067515858 0.60600001 4290292145
0.024582708 0.067516215 0.60600001 4290160558
0.025731869 0.067516603 0.60600001 4290160556
0.026881043 0.067517005 0.60600001 4290094763
0.028030232 0.06751743 0.60600001 4290094763
0.029179445 0.067517877 0.60600001 4289766054
0.030328665 0.067518339 0.60600001 4289306533
0.031477902 0.067518815 0.60600001 4289240740
0.032734837 0.067742169 0.60799998 4289503398
0.033887908 0.067742698 0.60799998 4289634984
0.035098635 0.067854665 0.60900003 4290028198
0.036253639 0.067855239 0.60900003 4290225320
0.037531514 0.068078667 0.611 4290028970
0.038690351 0.068079278 0.611 4289831848
0.039849218 0.068079911 0.611 4289635496
0.041008111 0.068080567 0.611 4289635496
0.042443074 0.068526946 0.61500001 4289569189
0.043609589 0.068527639 0.61500001 4289569189
0.10790808 0.076050892 0.68199998 4291346365
0.10888344 0.075829551 0.68000001 4291608770
0.11017531 0.075831234 0.68000001 4291872198
0.11146722 0.075832926 0.68000001 4292397255
0.11259338 0.075723119 0.67900002 4292660426
0.11371578 0.075613312 0.67799997 4291807696
0.11500405 0.075615056 0.67799997 4289965492
0.11663545 0.075839877 0.68000001 4289702324
0.14071357 0.072314493 0.648 4287265932
0.14194617 0.072316438 0.648 4288384413
0.14317875 0.07231836 0.648 4292455373
0.00046104391 0.070022956 0.61799997 4289308847
0.0016328699 0.070022896 0.61799997 4289572019
0.0027956164 0.069796249 0.616 4290424246
0.0039636451 0.069796227 0.616 4290687418
0.0051150122 0.069569625 0.61400002 4290622395
0.0062690196 0.069456331 0.61299998 4290951103
0.0074313581 0.069456384 0.61299998 4290556600
0.0085516414 0.06911654 0.61000001 4290490806
0.0096605476 0.068776704 0.60699999 4290688438
0.010793705 0.068663508 0.60600001 4290556852
0.011942781 0.068663642 0.60600001 4290686389
0.01309186 0.068663791 0.60600001 4290883768
0.014240945 0.068663955 0.60600001 4290752698
