# .PCD v0.7 - Point Cloud Data file format
VERSION 0.7
FIELDS x y z rgba
SIZE 4 4 4 4
TYPE F F F U
COUNT 1 1 1 1
WIDTH 1053
HEIGHT 1
VIEWPOINT 0 0 0 1 0 0 0
POINTS 1053
DATA ascii
-0.035074472 0.048124135 0.75199997 4293255898
-0.033559225 0.047995649 0.75 4293190101
-0.03213729 0.047995169 0.75 4293058514
-0.030674428 0.047930706 0.74900001 4293189587
-0.029254448 0.047930267 0.74900001 4293386966
-0.02787165 0.047993831 0.75 4293452757
-0.026449822 0.047993425 0.75 4293452757
-0.025028022 0.047993027 0.75 4293189839
-0.023606244 0.047992665 0.75 4293058253
-0.02215491 0.047928326 0.74900001 4293057999
-0.020735074 0.047927991 0.74900001 4293057999
-0.019341044 0.047991656 0.75 4292992206
-0.01791935 0.047991358 0.75 4292795084
-0.016541669 0.048119053 0.75199997 4292794834
-0.015156426 0.048246767 0.75400001 4292729040
-0.013727204 0.048246522 0.75400001 4292729288
-0.012314308 0.04831028 0.755 4292663495
-0.01088322 0.048310075 0.755 4292401091
-0.0094521455 0.048309889 0.755 4292269505
-0.0080423327 0.048437681 0.75700003 4292137664
-0.0066074906 0.048437536 0.75700003 4291874493
-0.0051863254 0.048565377 0.759 4291742402
-0.0037477126 0.048565265 0.759 4291676609
-0.0023091072 0.04856516 0.759 4291742395
-0.00087050884 0.048565082 0.759 4291808188
0.00056958053 0.048692994 0.76099998 4291742391
0.002011959 0.048692957 0.76099998 4291545012
0.0034588734 0.048756916 0.76200002 4291610040
0.0049031409 0.048756909 0.76200002 4291676089
0.0063640662 0.048884898 0.764 4291478969
0.0078121233 0.048884925 0.764 4291281590
0.0092844209 0.049012952 0.76599997 4291348151
0.010750287 0.049077008 0.76700002 4291348151
0.012235859 0.049205068 0.76899999 4291348149
0.013764629 0.04946113 0.773 4291413942
0.015288864 0.04965321 0.77600002 4291216312
0.016759688 0.049653359 0.77600002 4291084983
0.018277504 0.049781505 0.778 4291084983
0.019802907 0.049909662 0.77999997 4290953141
0.021363191 0.050101828 0.78299999 4291018938
0.022964031 0.050358005 0.787 4290821303
0.024517901 0.050486226 0.78899997 4290164142
0.026112335 0.050678454 0.792 4292006346
0.02761356 0.050678737 0.792 4292862698
-0.094935887 0.05189136 0.787 4293781206
-0.092966832 0.051626392 0.78299999 4294307807
-0.091246732 0.051493317 0.78100002 4294110689
-0.089649208 0.051426191 0.77999997 4294176739
-0.087716438 0.0511613 0.77600002 4294374633
-0.086021177 0.051028285 0.77399999 4294308584
-0.084442832 0.050961237 0.773 4294242793
-0.082975678 0.050960112 0.773 4294308586
-0.081086814 0.05069533 0.76899999 4294505962
-0.07962738 0.050694253 0.76899999 4294505962
-0.077863045 0.050495427 0.76599997 4294505962
-0.076409422 0.050494388 0.76599997 4294505962
-0.074760132 0.050361533 0.764 4294571756
-0.073118515 0.0502287 0.76200002 4294505962
-0.071578577 0.050161798 0.76099998 4294374379
-0.070134655 0.050160833 0.76099998 4294374379
-0.068690792 0.050159886 0.76099998 4294505708
-0.067070246 0.050027139 0.759 4294505708
-0.065457352 0.049894411 0.75700003 4294309101
-0.063852087 0.049761698 0.755 4294309101
-0.062419806 0.049760826 0.755 4294178029
-0.060987584 0.049759973 0.755 4294112236
-0.059476536 0.049693238 0.75400001 4294243306
-0.058046293 0.049692407 0.75400001 4294177513
-0.056616116 0.049691621 0.75400001 4293980389
-0.055185977 0.049690828 0.75400001 4293914595
-0.053755876 0.049690064 0.75400001 4293979618
-0.052187022 0.049557514 0.75199997 4293979618
-0.050760813 0.049556796 0.75199997 4293848287
-0.049334634 0.04955608 0.75199997 4293782494
-0.047908511 0.049555395 0.75199997 4293716701
-0.046482407 0.049554717 0.75199997 4293716701
-0.045056358 0.049554061 0.75199997 4293716447
-0.043630343 0.049553428 0.75199997 4293519067
-0.042204361 0.049552802 0.75199997 4293386966
-0.040778417 0.049552202 0.75199997 4293452759
-0.039352514 0.049551625 0.75199997 4293452761
-0.03792664 0.049551059 0.75199997 4293386712
-0.0365008 0.049550515 0.75199997 4293255644
-0.03507499 0.049549982 0.75199997 4293189851
-0.033559725 0.049417697 0.75 4293190101
-0.032137766 0.049417209 0.75 4292927185
-0.030674886 0.049350839 0.74900001 4292992460
-0.029254885 0.049350392 0.74900001 4293189839
-0.027872071 0.049415849 0.75 4293190101
-0.026450228 0.049415424 0.75 4293190101
-0.025028408 0.04941503 0.75 4293058512
-0.02360661 0.04941465 0.75 4292861390
-0.022184838 0.049414303 0.75 4292597702
-0.020763088 0.049413957 0.75 4292663495
-0.019341357 0.049413633 0.75 4292992206
-0.017967427 0.049545087 0.75199997 4292729290
-0.016541947 0.049544796 0.75199997 4292466632
-0.015156684 0.049676307 0.75400001 4292597961
-0.013745647 0.049741931 0.755 4292664010
-0.012314527 0.049741708 0.755 4292466632
-0.010912251 0.049873255 0.75700003 4292072641
-0.0094773686 0.049873069 0.75700003 4292006848
-0.0080424966 0.049872894 0.75700003 4291874756
-0.0066250917 0.050004493 0.759 4291677634
-0.0051864521 0.050004367 0.759 4291545534
-0.0037478204 0.05000424 0.759 4291545534
-0.0023152807 0.050135903 0.76099998 4291545532
-0.00087287306 0.050135825 0.76099998 4291676861
0.00056952907 0.050135769 0.76099998 4291545784
0.0020145702 0.050201602 0.76200002 4291413942
0.0034588596 0.050201584 0.76200002 4291412658
0.0049160151 0.050333332 0.764 4291478451
0.0063640913 0.050333351 0.764 4291412660
0.0078326166 0.05046514 0.76599997 4291412660
0.0092844833 0.050465196 0.76599997 4291282103
0.01075037 0.050531156 0.76700002 4291282103
0.012235958 0.050663002 0.76899999 4291282357
0.013782558 0.050992534 0.77399999 4291348151
0.015289006 0.05112442 0.77600002 4291084979
0.016759848 0.051124576 0.77600002 4291019186
0.018277684 0.051256511 0.778 4291150006
0.019879272 0.051586118 0.78299999 4291083957
0.021417977 0.05171809 0.78500003 4290887348
0.023022631 0.051981851 0.78899997 4290361004
0.024549237 0.052047987 0.79000002 4289704884
0.026112618 0.052180022 0.792 4293981685
0.027613858 0.052180313 0.792 4294967295
-0.094937131 0.053384289 0.787 4292597702
-0.092968076 0.05311171 0.78299999 4293979355
-0.091247946 0.052974816 0.78100002 4294045409
-0.089765348 0.052973606 0.78100002 4293979616
-0.088169754 0.052904576 0.77999997 4294177252
-0.086244628 0.052632101 0.77600002 4294308838
-0.084553212 0.05249529 0.77399999 4294373607
-0.083084136 0.052494153 0.77399999 4294176485
-0.081298798 0.052289575 0.77100003 4294308584
-0.079628453 0.052152839 0.76899999 4294505962
-0.077965744 0.052016124 0.76700002 4294505962
-0.07641045 0.051947247 0.76599997 4294571756
-0.07476116 0.051810585 0.764 4294505962
-0.073119514 0.051673934 0.76200002 4294242791
-0.071673632 0.051672943 0.76200002 4294308586
-0.070227794 0.051671952 0.76200002 4294374379
-0.068691738 0.051603176 0.76099998 4294308584
-0.067247912 0.051602229 0.76099998 4294374633
-0.065631196 0.051465686 0.759 4294243304
-0.064022116 0.051329166 0.75700003 4293914595
-0.062586039 0.051328279 0.75700003 4293914343
-0.061149999 0.051327404 0.75700003 4293914343
-0.059556238 0.051190954 0.755 4294046182
-0.05804712 0.051122319 0.75400001 4294046182
-0.056616906 0.051121499 0.75400001 4294045409
-0.055186752 0.051120702 0.75400001 4294045409
-0.053756639 0.05111992 0.75400001 4294110689
-0.052326564 0.05111916 0.75400001 4294044896
-0.050761528 0.050982829 0.75199997 4293848285
-0.049335338 0.050982106 0.75199997 4293716699
-0.047909193 0.050981406 0.75199997 4293847515
-0.046483081 0.050980713 0.75199997 4293518550
-0.04505701 0.050980046 0.75199997 4293255644
-0.043630976 0.050979394 0.75199997 4293189851
-0.042317223 0.051114347 0.75400001 4293124055
-0.040887475 0.05111374 0.75400001 4293058262
-0.039457757 0.051113151 0.75400001 4293189589
-0.037927195 0.05097698 0.75199997 4292926161
-0.036501344 0.050976433 0.75199997 4292861142
-0.035075512 0.050975893 0.75199997 4292926935
-0.03364972 0.050975367 0.75199997 4292927183
-0.032138251 0.050839297 0.75 4292927183
-0.030716311 0.050838824 0.75 4292992458
-0.02929439 0.050838359 0.75 4292663493
-0.027872499 0.050837919 0.75 4292663495
-0.026521169 0.050973054 0.75199997 4292663495
-0.025095541 0.050972652 0.75199997 4292729290
-0.023669936 0.050972264 0.75199997 4292729290
-0.022244351 0.050971895 0.75199997 4292597450
-0.020874161 0.051107112 0.75400001 4292597450
-0.019444827 0.051106781 0.75400001 4292597702
-0.018015515 0.051106464 0.75400001 4292597702
-0.016586224 0.051106166 0.75400001 4292202692
-0.015177048 0.051173683 0.755 4292202692
-0.013745892 0.051173422 0.755 4292137412
-0.012347373 0.051308744 0.75700003 4292137412
-0.010912457 0.051308528 0.75700003 4291940540
-0.0094775548 0.05130833 0.75700003 4291479989
-0.0080639124 0.0514437 0.759 4291479487
-0.0066252416 0.05144354 0.759 4291413694
-0.005186582 0.051443405 0.759 4291347388
-0.0037578067 0.051578835 0.76099998 4291215545
-0.0023153725 0.051578734 0.76099998 4291281590
-0.00087294535 0.05157866 0.76099998 4291478969
0.00057022437 0.051646367 0.76200002 4291479217
0.0020145364 0.051646326 0.76200002 4291216301
0.0034679228 0.051781852 0.764 4291412660
0.0049160202 0.051781852 0.764 4291478453
0.0063807745 0.051917404 0.76599997 4291412406
0.0078326603 0.051917441 0.76599997 4291412406
0.0092966678 0.051985286 0.76700002 4291216564
0.010806517 0.052256461 0.77100003 4291084979
0.012299707 0.05239211 0.773 4291085492
0.013782676 0.052459992 0.77399999 4291019699
0.015289147 0.05259569 0.77600002 4291150254
0.016803203 0.052731398 0.778 4291084461
0.018324848 0.052867122 0.77999997 4290953395
0.019828698 0.052935101 0.78100002 4290624430
0.021363629 0.053070866 0.78299999 4290032806
0.02302287 0.053477768 0.78899997 4290427308
0.024549499 0.05354581 0.79000002 4290888674
0.02604696 0.053546086 0.79000002 4294967295
-0.094938412 0.054877263 0.787 4291480754
-0.092969321 0.054597072 0.78299999 4293388751
-0.091249175 0.054456361 0.78100002 4293650656
-0.089766555 0.05445512 0.78100002 4293716449
-0.088170953 0.054384179 0.77999997 4293848033
-0.086245805 0.054104105 0.77600002 4294045411
-0.084554359 0.053963475 0.77399999 4294176998
-0.083085284 0.053962328 0.77399999 4294111205
-0.081510805 0.053891458 0.773 4294176485
-0.079836637 0.05375091 0.77100003 4294176485
-0.078170128 0.053610381 0.76899999 4294111203
-0.076511264 0.053469881 0.76700002 4294111203
-0.074957907 0.053399105 0.76599997 4294307814
-0.073312446 0.05325865 0.764 4294307814
-0.07186275 0.053257633 0.764 4294111207
-0.070413105 0.05325662 0.764 4294045157
-0.068782978 0.053116225 0.76200002 4293848035
-0.06733723 0.05311526 0.76200002 4294111207
-0.065805063 0.053044613 0.76099998 4294243306
-0.064192176 0.052904274 0.759 4293848548
-0.062752269 0.052903365 0.759 4293716708
-0.061312426 0.052902479 0.759 4293914343
-0.059714861 0.052762203 0.75700003 4294046697
-0.05812493 0.052621964 0.755 4293717732
-0.056692809 0.052621126 0.755 4293322202
-0.055187546 0.052550621 0.75400001 4293519838
-0.053757414 0.052549832 0.75400001 4293913056
-0.052327324 0.052549057 0.75400001 4293584347
-0.050897278 0.052548304 0.75400001 4293386966
-0.049467277 0.052547567 0.75400001 4293584345
-0.048037317 0.052546848 0.75400001 4293716188
-0.04660739 0.052546147 0.75400001 4293518552
-0.045177512 0.052545466 0.75400001 4293190103
-0.043747663 0.052544799 0.75400001 4293255896
-0.042317856 0.052544158 0.75400001 4293124307
-0.040888082 0.052543528 0.75400001 4293058514
-0.039458346 0.052542921 0.75400001 4293124309
-0.038028643 0.052542336 0.75400001 4292861138
-0.036598977 0.05254177 0.75400001 4292992210
-0.035076048 0.052401856 0.75199997 4292794832
-0.033650231 0.052401319 0.75199997 4292729290
-0.032138746 0.052261446 0.75 4292992206
-0.030716784 0.052260958 0.75 4293057999
-0.029294847 0.052260485 0.75 4292531655
-0.027947264 0.052399397 0.75199997 4292596419
-0.02659213 0.052538324 0.75400001 4292728005
-0.025162688 0.052537903 0.75400001 4292859593
-0.023733271 0.052537505 0.75400001 4292793800
-0.022303879 0.052537136 0.75400001 4292465862
-0.020874508 0.052536782 0.75400001 4292531655
-0.019445153 0.052536439 0.75400001 4292597702
-0.018015822 0.052536123 0.75400001 4292466116
-0.016608506 0.052605491 0.755 4292006333
-0.01521752 0.052744564 0.75700003 4292137662
-0.013782554 0.05274431 0.75700003 4292006594
-0.012380224 0.052883416 0.759 4291875008
-0.010941499 0.052883193 0.759 4291940542
-0.0095027853 0.052882992 0.759 4291348149
-0.0080640838 0.052882809 0.759 4291543995
-0.0066428515 0.053021982 0.76099998 4291543995
-0.0052003809 0.053021833 0.76099998 4291478715
-0.0037579201 0.053021725 0.76099998 4291150006
-0.0023154663 0.053021617 0.76099998 4291215538
-0.0008741669 0.053091209 0.76200002 4291215538
0.00057016959 0.053091142 0.76200002 4291149741
0.0020197886 0.053230435 0.764 4291215534
0.0034679072 0.053230412 0.764 4291346865
0.0049288929 0.053369753 0.76599997 4291412658
0.0063807978 0.053369764 0.76599997 4291150002
0.0078429291 0.053439472 0.76700002 4291150002
0.0093209734 0.053578883 0.76899999 4290953908
0.010834632 0.053857639 0.773 4290756530
0.012315723 0.05392741 0.77399999 4290887859
0.013818416 0.05406687 0.77600002 4290953908
0.015328695 0.054206353 0.778 4291019186
0.016803371 0.054206517 0.778 4291019186
0.018325035 0.054346036 0.77999997 4290690990
0.019828903 0.054415911 0.78100002 4290164390
0.021363853 0.054555472 0.78299999 4289442219
0.022848038 0.054555703 0.78299999 4291613387
-0.092970602 0.056082491 0.78299999 4293913308
-0.091250427 0.055937968 0.78100002 4294373607
-0.089767791 0.05593672 0.78100002 4294176485
-0.088172175 0.05586385 0.77999997 4293848035
-0.08624699 0.055576157 0.77600002 4293650656
-0.084555529 0.05543172 0.77399999 4293913310
-0.083086438 0.055430554 0.77399999 4294308068
-0.081511952 0.05535778 0.773 4294176739
-0.080044873 0.05535664 0.773 4294044896
-0.078374542 0.055212297 0.77100003 4294110691
-0.076711856 0.055067968 0.76899999 4294176485
-0.075056814 0.054923661 0.76700002 4294307814
-0.073505402 0.054851007 0.76599997 4294373607
-0.071863763 0.054706752 0.764 4294045159
-0.070414104 0.054705735 0.764 4293848037
-0.068964489 0.054704733 0.764 4293848037
-0.067514926 0.054703735 0.764 4293848037
-0.065892488 0.054559585 0.76200002 4293782757
-0.064362243 0.054487031 0.76099998 4293782757
-0.062918536 0.054486107 0.76099998 4293585379
-0.061313309 0.054341994 0.759 4293716708
-0.05971574 0.054197934 0.75700003 4293585633
-0.058279745 0.054197062 0.75700003 4293519584
-0.056693647 0.054053031 0.755 4293518813
-0.055261541 0.054052185 0.755 4293518813
-0.053829502 0.054051396 0.755 4293387484
-0.052328095 0.053979013 0.75400001 4293255898
-0.05089803 0.053978242 0.75400001 4293386714
-0.049468007 0.053977493 0.75400001 4293386714
-0.048038028 0.053976759 0.75400001 4293386966
-0.04660809 0.053976052 0.75400001 4293255637
-0.04517819 0.053975355 0.75400001 4293255637
-0.043748323 0.053974681 0.75400001 4293255637
-0.042318493 0.053974021 0.75400001 4293124561
-0.040942933 0.054044969 0.755 4292795597
-0.039511282 0.054044351 0.755 4292861392
-0.038029227 0.053972173 0.75400001 4292927185
-0.036599539 0.053971589 0.75400001 4292795084
-0.035076588 0.053827867 0.75199997 4292597448
-0.033650752 0.05382733 0.75199997 4292466886
-0.032224953 0.053826813 0.75199997 4292335044
-0.03079918 0.053826313 0.75199997 4292465864
-0.029373433 0.053825829 0.75199997 4292465864
-0.027947713 0.053825367 0.75199997 4292465862
-0.026592562 0.053968083 0.75400001 4292597448
-0.025163097 0.053967658 0.75400001 4292597702
-0.023733661 0.053967249 0.75400001 4292268737
-0.022333831 0.054038446 0.755 4292268739
-0.020902542 0.054038078 0.755 4292268739
-0.019471275 0.054037731 0.755 4292202946
-0.018040027 0.0540374 0.755 4292137153
-0.016608799 0.054037105 0.755 4292071356
-0.015217794 0.054179966 0.75700003 4291939770
-0.013782809 0.054179695 0.75700003 4291742906
-0.012413083 0.054465741 0.76099998 4291479991
-0.010970546 0.054465506 0.76099998 4291479739
-0.0095280204 0.054465301 0.76099998 4291216310
-0.0080855088 0.054465111 0.76099998 4291281590
-0.0066430075 0.05446494 0.76099998 4291347383
-0.0052073514 0.054536361 0.76200002 4291346867
-0.0037629746 0.054536242 0.76200002 4291149489
-0.0023186051 0.054536127 0.76200002 4291149491
-0.00087424292 0.054536041 0.76200002 4291149491
0.00057160965 0.054679107 0.764 4291215534
0.002019752 0.054679058 0.764 4291215534
0.003476969 0.05482218 0.76599997 4291215536
0.0049288967 0.054822169 0.76599997 4291412658
0.0063891527 0.054893758 0.76700002 4291150002
0.0078429729 0.054893788 0.76700002 4291084209
0.0093452791 0.055180121 0.77100003 4290953141
0.010848734 0.05539491 0.77399999 4290887348
0.012315826 0.055395003 0.77399999 4290887861
0.013818542 0.055538259 0.77600002 4290887861
0.015368248 0.055824675 0.77999997 4290887346
0.016846731 0.055824827 0.77999997 4290755759
0.018348714 0.05589658 0.78100002 4290230439
0.019879887 0.056039918 0.78299999 4289835682
0.021418653 0.056183282 0.78500003 4290098386
0.02290665 0.056183524 0.78500003 4294967295
-0.093209378 0.057715017 0.78500003 4294569707
-0.091251701 0.057419632 0.78100002 4294965744
-0.08976905 0.05741835 0.78100002 4294373350
-0.088173404 0.057343572 0.77999997 4293913562
-0.086470492 0.057195306 0.778 4293716184
-0.084775232 0.057047058 0.77600002 4293978590
-0.083087608 0.056898821 0.77399999 4293978590
-0.081618547 0.056897644 0.77399999 4293978590
-0.080046006 0.056822974 0.773 4294109919
-0.07837566 0.056674819 0.77100003 4293847265
-0.076712959 0.056526683 0.76899999 4293913058
-0.075057909 0.056378577 0.76700002 4294110691
-0.07350646 0.056303989 0.76599997 4294044898
-0.072052926 0.056302927 0.76599997 4293716449
-0.070599452 0.056301888 0.76599997 4293716449
-0.06914603 0.05630086 0.76599997 4293782244
-0.067692667 0.056299869 0.76599997 4293848037
-0.066066384 0.056151889 0.764 4293716708
-0.064447783 0.056003936 0.76200002 4293716708
-0.062919468 0.055929489 0.76099998 4293716962
-0.061475784 0.055928566 0.76099998 4293585633
-0.059874386 0.055780675 0.759 4293585631
-0.058434591 0.055779792 0.759 4293454044
-0.05684467 0.055631954 0.75700003 4293519584
-0.055408772 0.055631109 0.75700003 4293387997
-0.053972907 0.055630285 0.75700003 4293387482
-0.052398279 0.055482503 0.755 4293321689
-0.050966304 0.055481717 0.755 4293386966
-0.049534369 0.055480961 0.755 4292992208
-0.048038755 0.055406727 0.75400001 4292991695
-0.046608798 0.055406008 0.75400001 4293057488
-0.045178883 0.0554053 0.75400001 4292926413
-0.043748993 0.055404607 0.75400001 4292926413
-0.042319145 0.05540394 0.75400001 4292926413
-0.040943567 0.05547677 0.755 4292795084
-0.039511897 0.05547614 0.755 4292663243
-0.03802982 0.055402052 0.75400001 4292597450
-0.036600113 0.055401467 0.75400001 4292400839
-0.035170436 0.055400893 0.75400001 4292466632
-0.033740792 0.055400349 0.75400001 4292466632
-0.032225464 0.055252858 0.75199997 4292269253
-0.030799674 0.055252347 0.75199997 4292334535
-0.029373908 0.055251863 0.75199997 4292202692
-0.028022498 0.055398345 0.75400001 4292267969
-0.026628263 0.055471361 0.755 4292465349
-0.025196886 0.055470932 0.755 4292465862
-0.023765534 0.055470515 0.755 4292268739
-0.022334205 0.055470135 0.755 4292202946
-0.020958271 0.055616699 0.75700003 4292071104
-0.01947161 0.055469401 0.755 4292070843
-0.018040344 0.055469077 0.755 4292070843
-0.016609097 0.05546876 0.755 4292005563
-0.015258278 0.055762347 0.759 4291939770
-0.013819481 0.055762075 0.759 4291546297
-0.012413322 0.055908751 0.76099998 4291283126
-0.010970767 0.055908523 0.76099998 4291544760
-0.0095407413 0.055981781 0.76200002 4291150002
-0.008096314 0.055981595 0.76200002 4291215284
-0.006651897 0.05598142 0.76200002 4291215284
-0.0052074902 0.055981267 0.76200002 4291018418
-0.0037630931 0.055981141 0.76200002 4291018418
-0.0023247895 0.056127958 0.764 4291083696
-0.00087661593 0.056127869 0.764 4291149489
0.00057304784 0.056274727 0.76599997 4291150002
0.0020250017 0.056274682 0.76599997 4291084209
0.0034814912 0.056348123 0.76700002 4290886314
0.004935334 0.056348111 0.76700002 4290952107
0.0064058364 0.056495052 0.76899999 4291083696
0.0078634685 0.056495093 0.76899999 4291083696
0.0093695847 0.056789003 0.773 4290821555
0.010876852 0.057009481 0.77600002 4290821555
0.012347757 0.057009574 0.77600002 4290953141
0.013854285 0.057156626 0.778 4290887348
0.015388098 0.057377163 0.78100002 4290690736
0.016868498 0.057377324 0.78100002 4290427308
0.018395891 0.057524435 0.78299999 4290032552
0.019930877 0.057671569 0.78500003 4290690739
0.021418884 0.057671797 0.78500003 4292794593
-0.091252998 0.058901351 0.78100002 4289111970
-0.089770325 0.058900055 0.78100002 4288519833
-0.088287726 0.058898773 0.78100002 4290620092
-0.086471744 0.058671277 0.778 4294765051
-0.084994942 0.058670025 0.778 4294307555
-0.083303519 0.058517996 0.77600002 4293912797
-0.081619725 0.058365967 0.77399999 4293913308
-0.080150716 0.058364786 0.77399999 4293979101
-0.078580096 0.05828822 0.773 4293649888
-0.076714076 0.057985466 0.76899999 4293584095
-0.075254716 0.057984345 0.76899999 4293847265
-0.073603496 0.057832442 0.76700002 4293913058
-0.072148062 0.057831373 0.76700002 4293847263
-0.070600502 0.057754915 0.76599997 4293715934
-0.069147058 0.057753872 0.76599997 4293782494
-0.067693658 0.057752844 0.76599997 4293848287
-0.066067383 0.057601061 0.764 4293519838
-0.064448729 0.057449292 0.76200002 4293322202
-0.063003086 0.057448339 0.76200002 4293387995
-0.061476696 0.057371996 0.76099998 4293454044
-0.060033049 0.057371076 0.76099998 4293387482
-0.058435477 0.057219408 0.759 4293321689
-0.056995708 0.057218526 0.759 4293124057
-0.055555996 0.057217665 0.759 4293058264
-0.053973723 0.057066057 0.75700003 4293189591
-0.052537881 0.057065245 0.75700003 4293386714
-0.051102102 0.057064448 0.75700003 4293255633
-0.049666349 0.057063665 0.75700003 4292926667
-0.048103213 0.056912147 0.755 4292992208
-0.046671338 0.056911401 0.755 4292992208
-0.045239501 0.056910679 0.755 4292729550
-0.043807704 0.056909978 0.755 4292663756
-0.042375937 0.0569093 0.755 4292729804
-0.040944211 0.056908641 0.755 4292729804
-0.039512523 0.056908 0.755 4292466636
-0.038080856 0.056907374 0.755 4292400587
-0.036649242 0.056906778 0.755 4292400841
-0.035217647 0.056906205 0.755 4292400841
-0.033786081 0.056905638 0.755 4292203205
-0.0323117 0.056829728 0.75400001 4292006083
-0.030882092 0.05682921 0.75400001 4292202692
-0.029491577 0.056904078 0.755 4292136899
-0.028060129 0.056903593 0.755 4292071104
-0.026628708 0.056903139 0.755 4292137153
-0.025197314 0.056902695 0.755 4292137153
-0.02376594 0.056902278 0.755 4292071104
-0.022393756 0.057052616 0.75700003 4292004800
-0.020958638 0.057052244 0.75700003 4292004800
-0.019523539 0.057051875 0.75700003 4292005050
-0.018040668 0.056900807 0.755 4292005050
-0.016609401 0.056900494 0.755 4292070324
-0.015258563 0.057201657 0.759 4291938995
-0.013819749 0.057201385 0.759 4291611057
-0.012413567 0.057351846 0.76099998 4291347885
-0.010985407 0.057426974 0.76200002 4291478965
-0.0095409453 0.057426758 0.76200002 4291018414
-0.0081177466 0.05757729 0.764 4291084211
-0.0066695176 0.057577111 0.764 4291084211
-0.0052213008 0.057576958 0.764 4291083696
-0.0037730918 0.057576828 0.764 4291017902
-0.0023248906 0.057576708 0.764 4290887086
-0.00087899138 0.057727344 0.76599997 4290887086
0.00057373609 0.057802629 0.76700002 4291018416
0.0020276061 0.057802584 0.76700002 4291018416
0.0034905507 0.057953279 0.76899999 4290821039
0.0049482062 0.057953272 0.76899999 4290821039
0.0064225192 0.058104008 0.77100003 4290755759
0.0078839641 0.058104046 0.77100003 4290755759
0.009381772 0.058330186 0.77399999 4290624945
0.010904972 0.058631707 0.778 4290690739
0.012379688 0.058631808 0.778 4290690485
0.013890027 0.058782652 0.77999997 4290624691
0.015388249 0.058858156 0.78100002 4290295979
0.016868671 0.058858313 0.78100002 4290493357
0.018396085 0.05900922 0.78299999 4290560195
0.019981872 0.059310876 0.787 4294967295
0.021473691 0.059311107 0.787 4294967295
-0.089656673 0.060304496 0.77999997 4278915082
-0.088175952 0.060303196 0.77999997 4290085120
-0.086472996 0.060147304 0.778 4294958411
-0.084996186 0.060146041 0.778 4294568664
-0.083304726 0.059990183 0.77600002 4294239699
-0.081620924 0.05983435 0.77399999 4293782240
-0.080151893 0.05983315 0.77399999 4293716447
-0.078581266 0.059754673 0.773 4293518813
-0.076914728 0.059598908 0.77100003 4293584606
-0.075255834 0.059443165 0.76899999 4293650140
-0.073796518 0.059442043 0.76899999 4293650140
-0.072149135 0.059286356 0.76700002 4293518813
-0.070693716 0.059285276 0.76700002 4293650656
-0.069148086 0.059206922 0.76599997 4293716708
-0.067694686 0.059205893 0.76599997 4293585379
-0.066241316 0.059204869 0.76599997 4293257181
-0.064618871 0.059049301 0.764 4293257181
-0.063169412 0.059048317 0.764 4293387995
-0.061558433 0.058892783 0.76200002 4293322202
-0.06011286 0.058891851 0.76200002 4293386712
-0.058590353 0.05881365 0.76099998 4293189589
-0.056996584 0.058658179 0.759 4293123542
-0.055556856 0.058657315 0.759 4292991956
-0.054117166 0.058656447 0.759 4292992210
-0.052677512 0.058655627 0.759 4293058003
-0.051237907 0.058654808 0.759 4292927185
-0.04966712 0.058499452 0.75700003 4292861392
-0.048231389 0.058498684 0.75700003 4292795858
-0.046795707 0.058497928 0.75700003 4292664529
-0.045240212 0.058342643 0.755 4292598734
-0.043808397 0.058341932 0.755 4292532940
-0.042376611 0.058341242 0.755 4292466632
-0.040944867 0.058340579 0.755 4292466632
-0.039617825 0.058494464 0.75700003 4292400587
-0.038182359 0.058493834 0.75700003 4292334794
-0.036746919 0.058493219 0.75700003 4292268999
-0.035311513 0.058492627 0.75700003 4292203205
-0.033876143 0.058492057 0.75700003 4292006083
-0.0324408 0.058491509 0.75700003 4292006083
-0.031005489 0.05849098 0.75700003 4292137412
-0.029570201 0.05849047 0.75700003 4292006083
-0.028134938 0.058489982 0.75700003 4292006083
-0.026699699 0.058489501 0.75700003 4291940290
-0.025264498 0.058489054 0.75700003 4292071358
-0.023829311 0.058488626 0.75700003 4292071358
-0.022394149 0.05848822 0.75700003 4291939516
-0.020959008 0.058487833 0.75700003 4291676600
-0.019523893 0.058487475 0.75700003 4291676087
-0.018088792 0.058487128 0.75700003 4291544501
-0.016653711 0.058486812 0.75700003 4291609519
-0.015258853 0.05864102 0.759 4291741362
-0.01385643 0.058795251 0.76099998 4291347635
-0.01243013 0.05887226 0.76200002 4291347635
-0.010985636 0.058872014 0.76200002 4291347383
-0.0095661944 0.059026305 0.764 4291084211
-0.0081391856 0.059180636 0.76599997 4291083698
-0.0066871438 0.059180453 0.76599997 4291083698
-0.0052351146 0.059180297 0.76599997 4290821289
-0.0037830931 0.059180155 0.76599997 4290821289
-0.0023310799 0.05918004 0.76599997 4290821291
-0.00088022137 0.059257206 0.76700002 4290887084
0.00057367468 0.059257139 0.76700002 4290887084
0.0020328527 0.0594116 0.76899999 4290887084
0.0034905314 0.059411567 0.76899999 4290821806
0.0049610771 0.059566081 0.77100003 4290821806
0.0064392034 0.059720606 0.773 4290690988
0.0079044597 0.059720639 0.773 4290690988
0.0094060786 0.059952468 0.77600002 4290756532
0.010933093 0.060261581 0.77999997 4290690739
0.012411622 0.060261678 0.77999997 4290624945
0.013907968 0.060339067 0.78100002 4290427310
0.015427808 0.060493723 0.78299999 4290033324
0.016912041 0.060493883 0.78299999 4290888633
0.018443272 0.06064859 0.78500003 4292335325
0.019982088 0.060803313 0.787 4294967295
-0.089657992 0.061784416 0.77999997 4278190080
-0.088177249 0.061783105 0.77999997 4285884672
-0.086251974 0.061464965 0.77600002 4292003403
-0.08477895 0.061463688 0.77600002 4294044105
-0.08330597 0.061462432 0.77600002 4293780677
-0.081622146 0.061302789 0.77399999 4293255644
-0.080153093 0.061301567 0.77399999 4293255644
-0.078582451 0.061221167 0.773 4293386714
-0.076915883 0.061061595 0.77100003 4293650142
-0.075452708 0.06106044 0.77100003 4293584345
-0.073797636 0.060900904 0.76899999 4293584345
-0.07233835 0.060899787 0.76899999 4293255644
-0.070694789 0.060740314 0.76700002 4293255644
-0.069149144 0.060660042 0.76599997 4293255644
-0.067695715 0.060658991 0.76599997 4293189851
-0.066242345 0.060657959 0.76599997 4293059035
-0.06478902 0.060656942 0.76599997 4293059035
-0.063170381 0.060497575 0.764 4293059033
-0.061720952 0.060496602 0.764 4293059033
-0.060271576 0.060495637 0.764 4293190101
-0.058668256 0.060336351 0.76200002 4293058514
-0.057147671 0.060256258 0.76099998 4293123796
-0.055704124 0.060255367 0.76099998 4293058003
-0.054260619 0.060254496 0.76099998 4292991956
-0.052817155 0.060253642 0.76099998 4292991956
-0.051238716 0.060094453 0.759 4292663504
-0.049799137 0.060093656 0.759 4292597711
-0.048359592 0.060092859 0.759 4292597963
-0.046920095 0.060092095 0.759 4292466634
-0.045360785 0.05993301 0.75700003 4292203980
-0.043925155 0.05993228 0.75700003 4292203980
-0.042489555 0.059931576 0.75700003 4292335048
-0.041162461 0.060089231 0.759 4292006083
-0.039723143 0.060088556 0.759 4292202953
-0.038283862 0.060087912 0.759 4292269003
-0.036844611 0.060087297 0.759 4292268737
-0.035405394 0.060086686 0.759 4292202944
-0.033966213 0.060086109 0.759 4291874245
-0.032527056 0.06008555 0.759 4291742402
-0.031006007 0.059926674 0.75700003 4291808448
-0.029570702 0.059926163 0.75700003 4291808448
-0.028135421 0.059925675 0.75700003 4291939518
-0.026700165 0.059925187 0.75700003 4291808188
-0.025264939 0.059924737 0.75700003 4291940022
-0.023829732 0.059924297 0.75700003 4292005815
-0.022394547 0.059923876 0.75700003 4291939254
-0.020959388 0.059923489 0.75700003 4291610546
-0.019524246 0.059923112 0.75700003 4291544247
-0.018089127 0.059922773 0.75700003 4291478453
-0.016654028 0.059922438 0.75700003 4291544501
-0.015299355 0.060238756 0.76099998 4291544501
-0.013874915 0.060317628 0.76200002 4291150002
-0.012463008 0.06047567 0.764 4291018416
-0.011043536 0.060633738 0.76599997 4291018418
-0.0095914491 0.060633514 0.76599997 4290821039
-0.0081393765 0.060633302 0.76599997 4290821039
-0.0066873147 0.060633127 0.76599997 4290755246
-0.0052420981 0.060712125 0.76700002 4290689703
-0.0037881599 0.060711987 0.76700002 4290755496
-0.0023342296 0.060711872 0.76700002 4290755498
-0.00088030595 0.060711771 0.76700002 4290821291
0.00057361164 0.060711697 0.76700002 4290756009
0.0020328113 0.060869947 0.76899999 4290821802
0.0034995894 0.061028231 0.77100003 4290821804
0.0049610781 0.06102822 0.77100003 4290756011
0.0064475564 0.061265692 0.77399999 4290756011
0.0079351822 0.06142405 0.77600002 4290887598
0.0094546303 0.061740704 0.77999997 4290690739
0.01093318 0.061740786 0.77999997 4290558896
0.012427647 0.061820049 0.78100002 4290164906
0.013943715 0.061978474 0.78299999 4290428334
0.015427963 0.06197862 0.78299999 4290559943
0.016912216 0.061978783 0.78299999 4294836223
0.018396476 0.06197897 0.78299999 4294967295
-0.087500267 0.062776424 0.77399999 4289886807
-0.086030953 0.062775113 0.77399999 4294360730
-0.08456172 0.062773824 0.77399999 4294503653
-0.083307236 0.062934756 0.77600002 4293977308
-0.081834294 0.06293349 0.77600002 4293255396
-0.080154315 0.062770054 0.77399999 4293123554
-0.078583643 0.06268774 0.773 4293189587
-0.07691706 0.062524348 0.77100003 4293452759
-0.075453863 0.062523179 0.77100003 4293387736
-0.07399071 0.062522024 0.77100003 4293256150
-0.072339468 0.0623587 0.76899999 4293255383
-0.070880234 0.062357586 0.76899999 4293189589
-0.069240488 0.062194321 0.76700002 4293189337
-0.067785151 0.062193252 0.76700002 4293255131
-0.066243373 0.062111106 0.76599997 4293255385
-0.064790033 0.062110074 0.76599997 4293189591
-0.063336745 0.062109061 0.76599997 4293058262
-0.061721925 0.061945908 0.764 4293124055
-0.060272526 0.061944935 0.764 4293124055
-0.058669187 0.061781831 0.76200002 4292926933
-0.057223678 0.061780903 0.76200002 4292927187
-0.055705003 0.061698921 0.76099998 4292927187
-0.05426148 0.061698038 0.76099998 4292795345
-0.052818 0.061697174 0.76099998 4292729552
-0.051374558 0.061696324 0.76099998 4292466634
-0.049799945 0.061533369 0.759 4292466634
-0.048360385 0.061532557 0.759 4292663243
-0.046920855 0.061531778 0.759 4292465864
-0.045481373 0.061531022 0.759 4292465864
-0.044041928 0.061530285 0.759 4292465864
-0.042602513 0.061529566 0.759 4292334533
-0.041163143 0.061528865 0.759 4292202946
-0.039723806 0.061528187 0.759 4292202692
-0.038284503 0.061527532 0.759 4292071106
-0.036845237 0.061526898 0.759 4292136386
-0.03540599 0.061526287 0.759 4292136386
-0.033966783 0.061525695 0.759 4291742656
-0.032527611 0.061525129 0.759 4291742656
-0.031088458 0.06152457 0.759 4291939520
-0.029571213 0.06136192 0.75700003 4291676348
-0.028135912 0.061361417 0.75700003 4291676089
-0.026700633 0.061360933 0.75700003 4291676089
-0.025265388 0.061360475 0.75700003 4291676085
-0.02383016 0.061360035 0.75700003 4291544499
-0.02245412 0.061521724 0.759 4291478453
-0.021015149 0.061521322 0.759 4291412660
-0.019576196 0.061520949 0.759 4291478453
-0.018137261 0.061520588 0.759 4291478453
-0.016742349 0.061682358 0.76099998 4291478451
-0.015319763 0.061763097 0.76200002 4291346865
-0.013911611 0.061924912 0.764 4291018416
-0.01246327 0.061924644 0.764 4290887086
-0.011058193 0.062167551 0.76700002 4290887086
-0.0096041886 0.062167317 0.76700002 4290887086
-0.0081501985 0.062167112 0.76700002 4290756011
-0.0066962186 0.062166926 0.76700002 4290756011
-0.0052422499 0.062166765 0.76700002 4290624680
-0.0037981677 0.062328715 0.76899999 4290624680
-0.0023404243 0.062328596 0.76899999 4290559402
-0.00088268792 0.062328491 0.76899999 4290625195
0.00057653803 0.062490523 0.77100003 4290625447
0.0020459851 0.06273362 0.77399999 4290625447
0.0035222629 0.062895693 0.77600002 4290755759
0.004993252 0.062895678 0.77600002 4290755759
0.0064975591 0.06321989 0.77999997 4290558887
0.0079761287 0.063219935 0.77999997 4290821802
0.0094546974 0.063219987 0.77999997 4290559150
0.010947286 0.063301116 0.78100002 4290427308
0.012459583 0.063463323 0.78299999 4289903022
0.013943846 0.063463442 0.78299999 4290560695
-0.087501615 0.064245068 0.77399999 4293651711
-0.086032279 0.064243734 0.77399999 4292730613
-0.084563009 0.064242415 0.77399999 4294308588
-0.08330851 0.064407125 0.77600002 4294703090
-0.081835568 0.064405851 0.77600002 4294570491
-0.08036267 0.064404584 0.77600002 4293978353
-0.078889839 0.06440334 0.77600002 4293650392
-0.077217549 0.064236142 0.77399999 4293584599
-0.075650766 0.064151943 0.773 4293387218
-0.074183807 0.064150773 0.773 4293124046
-0.072528742 0.063983634 0.77100003 4293123796
-0.071065687 0.063982502 0.77100003 4293123796
-0.069422133 0.063815415 0.76899999 4293189589
-0.067786217 0.063648358 0.76700002 4293189589
-0.066330902 0.063647293 0.76700002 4293189587
-0.064875647 0.063646242 0.76700002 4293058001
-0.063337743 0.063562229 0.76599997 4292926933
-0.061884485 0.063561231 0.76599997 4292861140
-0.060273495 0.063394286 0.764 4292927187
-0.058824122 0.063393325 0.764 4292663758
-0.057374787 0.063392378 0.764 4292861138
-0.055779114 0.063225515 0.76200002 4292927187
-0.054333679 0.063224614 0.76200002 4292795597
-0.052888267 0.063223727 0.76200002 4292664010
-0.0513754 0.063139901 0.76099998 4292466634
-0.049931984 0.063139066 0.76099998 4292466634
-0.048488613 0.063138254 0.76099998 4292531655
-0.047045272 0.063137457 0.76099998 4292465862
-0.045601979 0.063136697 0.76099998 4292334533
-0.044158716 0.063135937 0.76099998 4292334533
-0.04271549 0.063135199 0.76099998 4292334531
-0.041272301 0.063134484 0.76099998 4292202944
-0.03982915 0.063133799 0.76099998 4292137153
-0.038386036 0.063133128 0.76099998 4292071104
-0.036942944 0.063132472 0.76099998 4292071108
-0.035499897 0.063131854 0.76099998 4292071108
-0.034056876 0.063131258 0.76099998 4291807938
-0.032528177 0.062964767 0.759 4291742145
-0.031089004 0.062964201 0.759 4291742141
-0.029649865 0.062963672 0.759 4291676348
-0.028210746 0.06296315 0.759 4291610555
-0.026771655 0.062962659 0.759 4291610555
-0.025332596 0.062962189 0.759 4291347385
-0.023893554 0.062961735 0.759 4291347385
-0.022454536 0.062961295 0.759 4291281590
-0.021070918 0.063126802 0.76099998 4291281590
-0.01962815 0.063126415 0.76099998 4291281590
-0.018209299 0.063208997 0.76200002 4291347383
-0.016764678 0.063208662 0.76200002 4291282094
-0.01540049 0.063540131 0.76599997 4291084459
-0.013948317 0.06353984 0.76599997 4290887086
-0.012496159 0.063539557 0.76599997 4290887086
-0.011058436 0.063622259 0.76700002 4290887084
-0.0096294554 0.06378793 0.76899999 4290821291
-0.0081716487 0.063787706 0.76899999 4290821291
-0.0067138569 0.063787512 0.76899999 4290821291
-0.005256074 0.063787349 0.76899999 4290624682
-0.0038081792 0.063953102 0.77100003 4290624682
-0.0023466225 0.063952975 0.77100003 4290756263
-0.00088736846 0.064118765 0.773 4291019436
0.00057871453 0.064201638 0.77399999 4290559398
0.002051227 0.064367473 0.77600002 4290559398
0.0035313184 0.064533338 0.778 4290755759
0.005006121 0.064533338 0.778 4290624430
0.006497582 0.06469924 0.77999997 4290558889
0.0079864003 0.064782217 0.78100002 4290558889
0.0094668875 0.064782277 0.78100002 4290230701
0.010947377 0.064782359 0.78100002 4290691252
0.012427867 0.064782456 0.78100002 4291020492
-0.083846591 0.06630405 0.78100002 4294046975
-0.082364142 0.066302732 0.78100002 4294374127
-0.080881745 0.066301458 0.78100002 4293847783
-0.079297736 0.066215284 0.77999997 4293716697
-0.077617824 0.066044271 0.778 4293585110
-0.075945564 0.065873273 0.77600002 4293256150
-0.074472889 0.065872073 0.77600002 4293058514
-0.072812118 0.06570112 0.77399999 4293058262
-0.071343347 0.065699957 0.77399999 4293058262
-0.069784351 0.065613948 0.773 4292927187
-0.06814082 0.065443069 0.77100003 4293058516
-0.066677906 0.065441981 0.77100003 4292926163
-0.065045871 0.065271154 0.76899999 4292729040
-0.063421465 0.065100349 0.76700002 4292729040
-0.061966285 0.065099329 0.76700002 4292729040
-0.060432259 0.065013453 0.76599997 4292927187
-0.058979064 0.065012462 0.76599997 4292861138
-0.057525929 0.065011509 0.76599997 4292598736
-0.056072842 0.065010577 0.76599997 4292532942
-0.054619789 0.065009646 0.76599997 4292597963
-0.053027969 0.064839028 0.764 4292597963
-0.051443763 0.064668417 0.76200002 4292466632
-0.049998425 0.06466756 0.76200002 4292466632
-0.048553135 0.064666741 0.76200002 4292465862
-0.047107883 0.064665928 0.76200002 4292268739
-0.045602746 0.064580277 0.76099998 4292333762
-0.044159461 0.064579509 0.76099998 4292333762
-0.04271622 0.064578764 0.76099998 4292202944
-0.041273005 0.064578056 0.76099998 4292202944
-0.039829835 0.064577341 0.76099998 4292137151
-0.038386699 0.064576671 0.76099998 4292071358
-0.036943592 0.064576015 0.76099998 4291939520
-0.035500512 0.064575374 0.76099998 4291939520
-0.034057472 0.064574771 0.76099998 4291742141
-0.032614458 0.064574167 0.76099998 4291676348
-0.031089555 0.064403906 0.759 4291676348
-0.029650398 0.064403355 0.759 4291676348
-0.028211253 0.064402826 0.759 4291479739
-0.026772145 0.064402334 0.759 4291347897
-0.02539981 0.064571545 0.76099998 4291347385
-0.023956956 0.06457109 0.76099998 4291281592
-0.022514129 0.064570658 0.76099998 4291216051
-0.021099009 0.064655088 0.76200002 4291216051
-0.019654322 0.0646547 0.76200002 4291084979
-0.018257452 0.064824022 0.764 4291019186
-0.016853016 0.064993367 0.76599997 4291019186
-0.01542091 0.065077886 0.76700002 4290953393
-0.01396682 0.065077581 0.76700002 4290756011
-0.012512743 0.065077297 0.76700002 4290756011
-0.011087519 0.065246731 0.76899999 4290821039
-0.0096296789 0.065246485 0.76899999 4290821039
-0.0081718536 0.065246277 0.76899999 4290755498
-0.0067314995 0.065415785 0.77100003 4290887084
-0.0052835732 0.065585293 0.773 4290821291
-0.0038231334 0.065669984 0.77399999 4290887084
-0.0023558668 0.065669857 0.77399999 4290756780
-0.00088860741 0.065669753 0.77399999 4290756780
0.00058014126 0.065839373 0.77600002 4290625193
0.0020564678 0.066009 0.778 4290559400
0.0035312956 0.066008955 0.778 4290755759
0.0050189896 0.066178635 0.77999997 4290821552
0.0064976057 0.066178657 0.77999997 4290559139
0.007986444 0.066263527 0.78100002 4290361503
0.0094669564 0.066263586 0.78100002 4290362289
0.010947469 0.066263661 0.78100002 4291217342
0.012427982 0.066263758 0.78100002 4292730335
-0.08278729 0.068131872 0.78500003 4283589648
-0.081297286 0.068130568 0.78500003 4283787028
-0.079807326 0.068129279 0.78500003 4286149820
-0.078117907 0.067954428 0.78299999 4292729087
-0.076436125 0.067779616 0.78100002 4292992987
-0.074857965 0.067691602 0.77999997 4292927194
-0.073189586 0.067516834 0.778 4292861651
-0.071344495 0.067168526 0.77399999 4292664529
-0.069875769 0.067167379 0.77399999 4292927185
-0.068318695 0.067079462 0.773 4293058514
-0.066678986 0.066904798 0.77100003 4292926165
-0.065216102 0.066903718 0.77100003 4292794580
-0.063587889 0.066729106 0.76899999 4292728786
-0.061967302 0.066554524 0.76700002 4292662993
-0.060512159 0.066553511 0.76700002 4292795597
-0.059057057 0.066552512 0.76700002 4292861390
-0.057601992 0.066551529 0.76700002 4292795084
-0.056073766 0.066463798 0.76599997 4292531655
-0.054620694 0.066462867 0.76599997 4292400841
-0.053028852 0.066288427 0.764 4292400841
-0.05157965 0.066287547 0.764 4292531909
-0.050130509 0.066286676 0.764 4292597702
-0.04855397 0.066112325 0.76200002 4292466114
-0.047108691 0.066111505 0.76200002 4292268991
-0.04566345 0.066110693 0.76200002 4292202946
-0.044160224 0.066023163 0.76099998 4292202946
-0.042716954 0.066022404 0.76099998 4292267969
-0.041273728 0.066021673 0.76099998 4292136640
-0.039830528 0.066020958 0.76099998 4292136636
-0.038387366 0.066020273 0.76099998 4292070843
-0.03694424 0.066019602 0.76099998 4291808188
-0.035501149 0.066018969 0.76099998 4291808188
-0.034058079 0.066018343 0.76099998 4291742395
-0.032615043 0.066017732 0.76099998 4291610553
-0.031172041 0.066017166 0.76099998 4291610555
-0.029729065 0.066016614 0.76099998 4291610555
-0.028286111 0.066016071 0.76099998 4291347899
-0.026843186 0.066015556 0.76099998 4291216312
-0.025400287 0.06601508 0.76099998 4291084983
-0.023957413 0.06601461 0.76099998 4291084983
-0.022544142 0.06610091 0.76200002 4291085492
-0.021154793 0.06627398 0.764 4291019699
-0.019706294 0.066273585 0.764 4290756532
-0.018257814 0.066273198 0.764 4290558896
-0.016853357 0.066446327 0.76599997 4290624945
-0.01542123 0.066532753 0.76700002 4290558896
-0.013967117 0.066532448 0.76700002 4290558635
-0.012513018 0.066532157 0.76700002 4290624428
-0.011087771 0.066705361 0.76899999 4290821039
-0.009654955 0.066878617 0.77100003 4290755246
-0.0081933131 0.066878393 0.77100003 4290755759
-0.0067491452 0.067051671 0.773 4290755759
-0.0052905702 0.067138247 0.77399999 4290755759
-0.0038232722 0.067138083 0.77399999 4290821552
-0.0023620708 0.067311443 0.77600002 4290821804
-0.00089099689 0.067311339 0.77600002 4290756011
0.00058156595 0.067484744 0.778 4290756011
0.0020617067 0.067658164 0.77999997 4290624682
0.0035403485 0.067658126 0.77999997 4290559150
0.0050189886 0.067658119 0.77999997 4290756530
0.0064976267 0.067658119 0.77999997 4290296735
0.0079864906 0.067744903 0.78100002 4290954408
0.0094670234 0.067744963 0.78100002 4291941587
0.010947561 0.067745045 0.78100002 4294967295
-0.081091464 0.069442801 0.78299999 4278190080
-0.079605281 0.06944149 0.78299999 4282665472
-0.078119174 0.069440208 0.78299999 4292139645
-0.076437376 0.069261581 0.78100002 4292927957
-0.074955158 0.069260329 0.78100002 4292927957
-0.073378935 0.069170423 0.77999997 4292795858
-0.071714379 0.06899187 0.778 4292664529
-0.070057467 0.068813339 0.77600002 4292795858
-0.068408206 0.068634838 0.77399999 4292664529
-0.066853069 0.068545029 0.773 4292795093
-0.065386362 0.068543941 0.773 4292729300
-0.063754335 0.068365507 0.77100003 4292794580
-0.062129918 0.068187103 0.76899999 4292662993
-0.060670957 0.068186074 0.76899999 4292597450
-0.059058048 0.06800773 0.76700002 4292729036
-0.057602961 0.068006732 0.76700002 4292597963
-0.056074716 0.067917094 0.76599997 4292335048
-0.054621629 0.067916155 0.76599997 4292400841
-0.053029753 0.067737907 0.764 4292268999
-0.051580537 0.067737006 0.764 4292071104
-0.050131373 0.067736119 0.764 4292334533
-0.048682235 0.067735277 0.764 4292268739
-0.047233149 0.067734443 0.764 4292268739
-0.04578409 0.067733623 0.764 4292333762
-0.044219028 0.067555524 0.76200002 4292333762
-0.042773835 0.067554757 0.76200002 4292137153
-0.041328687 0.067554004 0.76200002 4292005311
-0.039883576 0.067553289 0.76200002 4292005565
-0.038438499 0.067552596 0.76200002 4291939516
-0.036993451 0.067551903 0.76200002 4291676602
-0.035548441 0.067551263 0.76200002 4291676602
-0.034058698 0.067461975 0.76099998 4291742395
-0.032615639 0.067461371 0.76099998 4291544760
-0.031172607 0.067460775 0.76099998 4291478967
-0.029729608 0.067460209 0.76099998 4291281844
-0.028286636 0.067459665 0.76099998 4291215799
-0.026843691 0.067459159 0.76099998 4291215799
-0.025400771 0.067458659 0.76099998 4290953654
-0.023957869 0.067458183 0.76099998 4290953654
-0.022603752 0.067723662 0.764 4291019701
-0.021155208 0.06772323 0.764 4290953908
-0.019758275 0.067900114 0.76599997 4290624943
-0.018305982 0.067899726 0.76599997 4290559150
-0.016853707 0.067899376 0.76599997 4290558896
-0.015461766 0.068164952 0.76899999 4290558896
-0.014003839 0.068164632 0.76899999 4290493607
-0.012545926 0.068164349 0.76899999 4290559400
-0.011116865 0.068341352 0.77100003 4290624432
-0.009680233 0.068518378 0.773 4290624432
-0.0082147792 0.068518162 0.773 4290755759
-0.0067580645 0.068606593 0.77399999 4290755759
-0.0053044059 0.0687837 0.77600002 4290624943
-0.0038332937 0.068783544 0.77600002 4290690736
-0.0023621898 0.068783417 0.77600002 4290821552
-0.00089338899 0.068960577 0.778 4290821552
0.00058149389 0.068960488 0.778 4290756009
0.0020616581 0.069137707 0.77999997 4290624680
0.0035403236 0.069137663 0.77999997 4290230949
0.0050189863 0.069137648 0.77999997 4290428584
0.0064976481 0.06913767 0.77999997 4290428847
0.0079865362 0.069226339 0.78100002 4291349949
0.0094670933 0.069226399 0.78100002 4293979116
-0.078120455 0.070926048 0.78299999 4288918716
-0.076634377 0.070924774 0.78299999 4292269782
-0.074956395 0.070742346 0.78100002 4293519849
-0.073380157 0.070650525 0.77999997 4292598988
-0.071899928 0.070649303 0.77999997 4292006594
-0.070239201 0.070466958 0.778 4292072391
-0.068586119 0.070284657 0.77600002 4292401100
-0.066940673 0.070102356 0.77399999 4292729300
-0.065472059 0.070101246 0.77399999 4292663506
-0.063920788 0.070009567 0.773 4292597713
-0.062454164 0.070008501 0.773 4292466384
-0.060987581 0.070007443 0.773 4292597452
-0.059367049 0.069825269 0.77100003 4292729038
-0.057754148 0.069643132 0.76899999 4292597961
-0.056148894 0.069461033 0.76700002 4292269253
-0.054693885 0.069460072 0.76700002 4292269001
-0.053169489 0.069368564 0.76599997 4292269001
-0.051716454 0.069367647 0.76599997 4292202440
-0.050132245 0.069185652 0.764 4292465612
-0.048683085 0.069184773 0.764 4292333760
-0.047357619 0.069365032 0.76599997 4292333760
-0.045904756 0.069364205 0.76599997 4292202942
-0.044335864 0.069182299 0.764 4292071356
-0.042886868 0.069181532 0.764 4291939520
-0.041437902 0.069180764 0.764 4291676348
-0.039988972 0.069180034 0.764 4291742654
-0.038540084 0.069179326 0.764 4291742654
-0.037091218 0.069178626 0.764 4291677113
-0.035642385 0.069177963 0.764 4291545784
-0.034104079 0.068996236 0.76200002 4291413946
-0.032659106 0.068995617 0.76200002 4291347897
-0.031214157 0.068995014 0.76200002 4291347635
-0.029769236 0.06899444 0.76200002 4291216049
-0.028324345 0.068993896 0.76200002 4291216058
-0.026879475 0.06899336 0.76200002 4291216058
-0.025434637 0.068992861 0.76200002 4290887863
-0.023989815 0.068992376 0.76200002 4290887863
-0.022663366 0.06935408 0.76599997 4290756278
-0.021211009 0.06935364 0.76599997 4290690485
-0.019784469 0.06944377 0.76700002 4290755761
-0.018330256 0.069443382 0.76700002 4290624432
-0.016876062 0.06944301 0.76700002 4290624430
-0.015462098 0.069623746 0.76899999 4290624430
-0.014004147 0.069623411 0.76899999 4290493092
-0.01254621 0.06962312 0.76899999 4290558885
-0.011117128 0.069803923 0.77100003 4290558637
-0.0096929949 0.070075274 0.77399999 4290624430
-0.0082256198 0.070075043 0.77399999 4290821552
-0.00677572 0.07025592 0.77600002 4290755759
-0.005304575 0.070255734 0.77600002 4290755761
