# .PCD v0.7 - Point Cloud Data file format
VERSION 0.7
FIELDS x y z rgba
SIZE 4 4 4 4
TYPE F F F U
COUNT 1 1 1 1
WIDTH 1062
HEIGHT 1
VIEWPOINT 0 0 0 1 0 0 0
POINTS 1062
DATA ascii
0.06665086 -0.16248803 0.65799999 4291017641
0.067899771 -0.16248885 0.65799999 4291148459
0.069148712 -0.16248968 0.65799999 4291214252
0.070290677 -0.1622436 0.65700001 4291017387
0.07131999 -0.16175057 0.65499997 4290820008
0.072452515 -0.16150448 0.65399998 4290819497
0.073693946 -0.16150534 0.65399998 4290819497
0.075049996 -0.16175319 0.65499997 4290688421
0.076293379 -0.1617541 0.65499997 4290491043
0.079075694 -0.16496541 0.66799998 4290491043
0.08034382 -0.16496637 0.66799998 4290359457
0.081611969 -0.16496733 0.66799998 4290227621
0.082880139 -0.16496831 0.66799998 4290096035
0.08414834 -0.1649693 0.66799998 4290161310
0.085416555 -0.16497025 0.66799998 4290161310
0.087074108 -0.16571213 0.671 4290095517
0.088479772 -0.16596013 0.67199999 4290161310
0.089755654 -0.16596115 0.67199999 4290095519
0.091302529 -0.1664561 0.67400002 4289898141
0.092719644 -0.1667041 0.67500001 4289832863
0.094419099 -0.16744606 0.67799997 4289898656
0.095706508 -0.16744712 0.67799997 4289898654
-0.022858161 -0.16759701 0.68400002 4291739576
-0.021434281 -0.16661635 0.68000001 4291871163
-0.020144084 -0.16661578 0.68000001 4291740345
-0.018909359 -0.1671053 0.68199998 4291937723
-0.01764123 -0.16734983 0.68300003 4291937469
-0.016345385 -0.16734932 0.68300003 4292069055
-0.015049553 -0.16734886 0.68300003 4292200125
-0.013753735 -0.16734843 0.68300003 4292265918
-0.012239048 -0.16440776 0.671 4292069309
-0.010966015 -0.16440737 0.671 4292266689
-0.0096496586 -0.16367193 0.66799998 4292201148
-0.0083697932 -0.16342658 0.667 4292201148
-0.0070937281 -0.16318123 0.66600001 4292266943
-0.0058302199 -0.16318092 0.66600001 4292398272
-0.0045530056 -0.16269061 0.66399997 4292135618
-0.0032833873 -0.16220032 0.662 4292267204
-0.0020274876 -0.16220008 0.662 4292136388
-0.0007704288 -0.16195485 0.66100001 4292070595
0.00048356294 -0.16195464 0.66100001 4292136134
0.00173755 -0.16195448 0.66100001 4292070341
0.0029824821 -0.16146429 0.65899998 4292070595
0.0042326688 -0.16146415 0.65899998 4292070595
0.0054828529 -0.16146404 0.65899998 4292070341
0.0067228181 -0.16121893 0.65799999 4292070341
0.0079711033 -0.1612189 0.65799999 4292004546
0.0092053767 -0.16097385 0.65700001 4291938752
0.010419944 -0.16048376 0.65499997 4292068796
0.011644735 -0.16023877 0.65399998 4292200125
0.012885432 -0.16023877 0.65399998 4292069309
0.01412613 -0.16023883 0.65399998 4292069309
0.015366835 -0.16023889 0.65399998 4291938493
0.01660754 -0.16023897 0.65399998 4291938493
0.017875539 -0.16048408 0.65499997 4292069309
0.019118147 -0.16048418 0.65499997 4292135102
0.020360766 -0.16048434 0.65499997 4292200125
0.021603389 -0.16048451 0.65499997 4292003003
0.022846017 -0.1604847 0.65499997 4291806138
0.024088651 -0.16048491 0.65499997 4291806138
0.025292618 -0.1602401 0.65399998 4291872700
0.026533371 -0.16024035 0.65399998 4291740858
0.027731666 -0.15999563 0.653 4291478455
0.028926177 -0.15975089 0.65200001 4291478455
0.030163158 -0.15975119 0.65200001 4291477940
0.031303834 -0.15926148 0.64999998 4291477940
0.032537047 -0.15926181 0.64999998 4291346613
0.033666365 -0.15877216 0.648 4291215284
0.034895804 -0.15877253 0.648 4291346613
0.036125258 -0.15877295 0.648 4291215284
0.037412368 -0.15901837 0.64899999 4291346867
0.038643744 -0.1590188 0.64899999 4291215538
0.03993658 -0.1592643 0.64999998 4291280307
0.04129656 -0.1597548 0.65200001 4291346100
0.042533673 -0.1597553 0.65200001 4291477172
0.043770798 -0.15975583 0.65200001 4291477172
0.045007944 -0.15975636 0.65200001 4291477172
0.046245106 -0.15975691 0.65200001 4291477172
0.047482286 -0.15975748 0.65200001 4291345587
0.048719473 -0.15975803 0.65200001 4291345587
0.049956691 -0.15975867 0.65200001 4291345587
0.051193919 -0.15975928 0.65200001 4291279794
0.052431174 -0.15975992 0.65200001 4291280309
0.053668443 -0.15976056 0.65200001 4291214516
0.054905731 -0.15976122 0.65200001 4291214516
0.056143042 -0.15976192 0.65200001 4291214516
0.057380367 -0.15976262 0.65200001 4291214514
0.058617726 -0.15976334 0.65200001 4291280307
0.059855089 -0.15976407 0.65200001 4291214514
0.061279885 -0.1602549 0.65399998 4290951598
0.0625211 -0.16025566 0.65399998 4291082153
0.064054824 -0.16099155 0.65700001 4291147946
0.065301776 -0.16099235 0.65700001 4291016617
0.06665004 -0.16123821 0.65799999 4291016617
0.067898937 -0.16123903 0.65799999 4291016617
0.069147848 -0.16123986 0.65799999 4290950824
0.07028982 -0.16099568 0.65700001 4290688942
0.071101353 -0.16001636 0.653 4290688942
0.072230086 -0.15977217 0.65200001 4290688170
0.073467702 -0.15977305 0.65200001 4290688170
0.074705355 -0.15977395 0.65200001 4290491560
0.077806674 -0.16369571 0.66799998 4290425511
0.079074763 -0.16369665 0.66799998 4290425765
0.080342874 -0.1636976 0.66799998 4290162594
0.081611 -0.16369854 0.66799998 4290030496
0.082879156 -0.16369952 0.66799998 4290030496
0.084147342 -0.16370051 0.66799998 4289964701
0.085415564 -0.16370149 0.66799998 4289964701
0.087202884 -0.16468276 0.67199999 4290095517
0.088478751 -0.16468377 0.67199999 4290029724
0.090021767 -0.16517495 0.67400002 4290029470
0.091301493 -0.16517599 0.67400002 4290029470
0.092718601 -0.1654221 0.67500001 4289832861
0.094418041 -0.16615833 0.67799997 4289898654
0.095705442 -0.16615942 0.67799997 4289898654
-0.022857573 -0.16629767 0.68400002 4292265153
-0.021559801 -0.16629711 0.68400002 4292067774
-0.020262036 -0.16629656 0.68400002 4291740597
-0.018964291 -0.16629602 0.68400002 4291806390
-0.017640729 -0.1660524 0.68300003 4292003001
-0.016344909 -0.16605191 0.68300003 4292003001
-0.015049098 -0.16605143 0.68300003 4292068542
-0.012329839 -0.16434872 0.676 4292069309
-0.010965631 -0.16313273 0.671 4292266689
-0.0096926354 -0.16313237 0.671 4292135102
-0.0083694551 -0.16215955 0.667 4292069309
-0.0070934128 -0.16191612 0.66600001 4292200896
-0.0058299261 -0.16191579 0.66600001 4292266689
-0.0045733042 -0.16215864 0.667 4292200898
-0.0033029758 -0.16191526 0.66600001 4292266691
-0.0020333852 -0.16142879 0.66399997 4292135618
-0.00077371881 -0.16142856 0.66399997 4292135618
0.00048447851 -0.16094214 0.662 4292004546
0.0017403413 -0.16094197 0.662 4292004546
0.0029916745 -0.1606987 0.66100001 4292135616
0.0042456337 -0.16069858 0.66100001 4292135616
0.0054829498 -0.16021222 0.65899998 4292135616
0.0067331106 -0.16021214 0.65899998 4292135616
0.0079711564 -0.15996897 0.65799999 4292135616
0.0092054075 -0.15972582 0.65700001 4292069822
0.010419957 -0.15923958 0.65499997 4291938239
0.011644724 -0.15899645 0.65399998 4291938239
0.012885402 -0.15899648 0.65399998 4291938493
0.01412608 -0.15899651 0.65399998 4291938493
0.01536676 -0.15899658 0.65399998 4291938491
0.016607445 -0.15899666 0.65399998 4291938491
0.017875426 -0.15923989 0.65499997 4292069561
0.019118015 -0.15924001 0.65499997 4292003512
0.02036061 -0.15924014 0.65499997 4291937723
0.021603208 -0.15924032 0.65499997 4291740345
0.022845816 -0.15924051 0.65499997 4291674813
0.024088435 -0.15924074 0.65499997 4291674813
0.025331054 -0.15924093 0.65499997 4291675067
0.026573684 -0.15924121 0.65499997 4291675067
0.027773857 -0.15899836 0.65399998 4291478453
0.028925875 -0.15851241 0.65200001 4291412660
0.030162841 -0.15851271 0.65200001 4291346867
0.031303503 -0.1580268 0.64999998 4291346867
0.032536697 -0.15802716 0.64999998 4291346867
0.033717945 -0.15778439 0.64899999 4291215538
0.034949262 -0.15778477 0.64899999 4291215538
0.036180593 -0.15778518 0.64899999 4291215538
0.037469588 -0.15802874 0.64999998 4291280561
0.038821928 -0.15851542 0.65200001 4291280561
0.040058993 -0.15851587 0.65200001 4291148469
0.041296072 -0.15851635 0.65200001 4291017139
0.0425984 -0.15875998 0.653 4291214514
0.043837406 -0.15876049 0.653 4291346100
0.04507643 -0.15876104 0.653 4291280559
0.046244547 -0.15851846 0.65200001 4291214766
0.047481701 -0.15851903 0.65200001 4291410864
0.048718877 -0.15851961 0.65200001 4291345070
0.04995608 -0.15852022 0.65200001 4291148467
0.051271804 -0.15876397 0.653 4291148467
0.05251094 -0.1587646 0.653 4291148720
0.053750094 -0.15876526 0.653 4291017391
0.054989267 -0.15876596 0.653 4291017137
0.056228451 -0.15876661 0.653 4291017137
0.057467658 -0.15876733 0.653 4291280046
0.058706898 -0.15876806 0.653 4291345839
0.059946157 -0.15876879 0.653 4291214252
0.061279129 -0.15901269 0.65399998 4291016617
0.062520325 -0.15901342 0.65399998 4291016367
0.064151525 -0.15998679 0.65799999 4291016367
0.065400369 -0.15998758 0.65799999 4290950826
0.066750504 -0.16023155 0.65899998 4290950826
0.068001293 -0.16023238 0.65899998 4290688170
0.069147021 -0.15999009 0.65799999 4290556840
0.070288964 -0.15974779 0.65700001 4290688167
0.070991613 -0.15853292 0.65200001 4290688167
0.072229199 -0.1585338 0.65200001 4290491045
0.073466823 -0.15853468 0.65200001 4290096287
0.074704461 -0.15853558 0.65200001 4290096549
0.078038685 -0.16291323 0.67000002 4290030755
0.079073817 -0.16242787 0.66799998 4289964960
0.080341905 -0.16242884 0.66799998 4289899167
0.081610039 -0.16242981 0.66799998 4289832861
0.08287818 -0.16243079 0.66799998 4289964447
0.084398292 -0.16291811 0.67000002 4290029724
0.0856703 -0.1629191 0.67000002 4289898395
0.087461397 -0.16389276 0.67400002 4289898395
0.088741049 -0.16389379 0.67400002 4289898395
0.090020739 -0.16389482 0.67400002 4289898395
0.091435894 -0.16413903 0.67500001 4289898395
0.093129605 -0.16486959 0.67799997 4289832859
0.094556235 -0.16511384 0.67900002 4289832859
0.095845535 -0.16511489 0.67900002 4290029470
-0.02285699 -0.1649984 0.68400002 4292855228
-0.021559237 -0.16499783 0.68400002 4292592312
-0.020261496 -0.16499728 0.68400002 4291674549
-0.018963769 -0.16499673 0.68400002 4291674549
-0.017640229 -0.164755 0.68300003 4291871161
-0.016344432 -0.16475452 0.68300003 4291937210
-0.015048643 -0.16475405 0.68300003 4291937210
-0.013652188 -0.1635475 0.67799997 4292200125
-0.012329432 -0.16306464 0.676 4291938491
-0.011046958 -0.16306424 0.676 4292135614
-0.009692275 -0.16185778 0.671 4291873211
-0.0084193088 -0.16185746 0.671 4291873211
-0.0071463496 -0.16185711 0.671 4292069309
-0.0058471407 -0.16113316 0.66799998 4292069309
-0.0045730332 -0.16089167 0.667 4292068542
-0.0033076857 -0.1608914 0.667 4292200127
-0.0020423443 -0.16089116 0.667 4292135104
-0.00077700894 -0.16089095 0.667 4292135104
0.0004883217 -0.16089076 0.667 4292069822
0.001751019 -0.16064936 0.66600001 4292069822
0.0029963402 -0.15968436 0.662 4292069820
0.0042521749 -0.15968423 0.662 4292069820
0.0054996875 -0.15944292 0.66100001 4292069822
0.0067331856 -0.15896037 0.65899998 4292069822
0.0079712095 -0.15871912 0.65799999 4291938754
0.0092054391 -0.15847784 0.65700001 4291872961
0.010419966 -0.1579954 0.65499997 4291872959
0.011662519 -0.15799542 0.65499997 4291872959
0.012905069 -0.15799542 0.65499997 4291872700
0.014147625 -0.15799546 0.65499997 4291872700
0.015390182 -0.15799552 0.65499997 4291872700
0.016632743 -0.15799561 0.65499997 4291872700
0.017875308 -0.15799573 0.65499997 4291937721
0.019117875 -0.15799585 0.65499997 4291806392
0.020360449 -0.15799598 0.65499997 4291675067
0.021603031 -0.15799615 0.65499997 4291675067
0.022845618 -0.15799636 0.65499997 4291675065
0.024088208 -0.15799657 0.65499997 4291675065
0.025330815 -0.1579968 0.65499997 4291478455
0.026573423 -0.15799706 0.65499997 4291478455
0.027773578 -0.15775611 0.65399998 4291478453
0.028969938 -0.15751517 0.653 4291412660
0.030208783 -0.1575155 0.653 4291346867
0.031447638 -0.15751581 0.653 4291215538
0.032636449 -0.15727496 0.65200001 4291215538
0.033873428 -0.15727532 0.65200001 4291149489
0.035002712 -0.15679325 0.64999998 4291083698
0.036235925 -0.15679365 0.64999998 4291083698
0.037469152 -0.15679409 0.64999998 4291149489
0.038821474 -0.15727699 0.65200001 4291149489
0.040119957 -0.15751868 0.653 4291017391
0.041422255 -0.15776037 0.65399998 4291148720
0.042663127 -0.15776087 0.65399998 4291345068
0.043904014 -0.15776141 0.65399998 4291345068
0.045144912 -0.15776193 0.65399998 4291214252
0.046314903 -0.15752126 0.653 4291214252
0.047553945 -0.15752184 0.653 4291148720
0.048793007 -0.15752243 0.653 4290951598
0.050032075 -0.15752304 0.653 4291147694
0.051349685 -0.1577649 0.65399998 4291147694
0.052590709 -0.15776554 0.65399998 4291082414
0.053831745 -0.15776621 0.65399998 4291082414
0.055072788 -0.15776686 0.65399998 4291016621
0.056313861 -0.15776756 0.65399998 4291082414
0.057554957 -0.15776826 0.65399998 4291082414
0.058796063 -0.15776899 0.65399998 4291016621
0.060037211 -0.15776974 0.65399998 4291016367
0.06137206 -0.15801172 0.65499997 4291016367
0.062615141 -0.15801251 0.65499997 4290950826
0.064443216 -0.15946077 0.66100001 4290950826
0.06569773 -0.15946154 0.66100001 4290820008
0.066952266 -0.15946238 0.66100001 4290754215
0.068206832 -0.15946321 0.66100001 4290491558
0.069251247 -0.15898158 0.65899998 4290425765
0.070502058 -0.15898241 0.65899998 4290424998
0.070990734 -0.15729456 0.65200001 4290359205
0.072228327 -0.15729545 0.65200001 4290293414
0.073465928 -0.15729633 0.65200001 4290096035
0.07653676 -0.16115727 0.66799998 4290227105
0.078037746 -0.16164073 0.67000002 4290161312
0.079072855 -0.16115914 0.66799998 4289964447
0.080340952 -0.16116013 0.66799998 4289898654
0.081609055 -0.16116109 0.66799998 4289832859
0.082877196 -0.16116206 0.66799998 4289767066
0.084397294 -0.16164559 0.67000002 4289767068
0.085669301 -0.1616466 0.67000002 4289832861
0.087460369 -0.16261268 0.67400002 4289832861
0.08887168 -0.16285495 0.67500001 4289767068
0.090286814 -0.16309728 0.676 4289832346
0.091570318 -0.16309834 0.676 4289832346
0.093265921 -0.16382319 0.67900002 4289767068
0.094555184 -0.16382428 0.67900002 4289767068
-0.022856407 -0.16369914 0.68400002 4290621598
-0.021558672 -0.16369858 0.68400002 4292463802
-0.020260954 -0.16369803 0.68400002 4292133817
-0.019018698 -0.16417614 0.68599999 4291739059
-0.017717212 -0.16417561 0.68599999 4291608504
-0.016415743 -0.16417512 0.68599999 4291740347
-0.015070222 -0.16369601 0.68400002 4291937719
-0.013651758 -0.16225965 0.67799997 4291937719
-0.012365504 -0.16225924 0.67799997 4292003766
-0.011046577 -0.16178021 0.676 4292135352
-0.0097641377 -0.16177984 0.676 4291938489
-0.0084189707 -0.16058289 0.671 4291938489
-0.0071460363 -0.16058257 0.671 4292068794
-0.0058818585 -0.16082157 0.67199999 4292068794
-0.0045796186 -0.15986402 0.66799998 4292199612
-0.0033123968 -0.15986377 0.66799998 4292199612
-0.0020421182 -0.1596242 0.667 4291938241
-0.00077680458 -0.15962401 0.667 4291938241
0.00048850419 -0.15962382 0.667 4291938493
0.0017511795 -0.15938434 0.66600001 4291872700
0.0029964778 -0.15842691 0.662 4292070074
0.0042522908 -0.15842678 0.662 4292135868
0.0054997816 -0.15818737 0.66100001 4292135354
0.0067332578 -0.15770863 0.65899998 4292069561
0.0079833744 -0.15770857 0.65899998 4292069570
0.0092194797 -0.15746923 0.65799999 4292069570
0.010451792 -0.15722989 0.65700001 4292003516
0.011662506 -0.15675128 0.65499997 4292003516
0.012905035 -0.15675128 0.65499997 4291806651
0.014190771 -0.15722997 0.65700001 4291740858
0.015390106 -0.15675139 0.65499997 4291806651
0.016632646 -0.1567515 0.65499997 4291806651
0.017875189 -0.15675159 0.65499997 4291806138
0.019117739 -0.15675174 0.65499997 4291740345
0.020422462 -0.15723051 0.65700001 4291740347
0.021668814 -0.15723068 0.65700001 4291674553
0.022915175 -0.15723088 0.65700001 4291609269
0.024161542 -0.15723108 0.65700001 4291609269
0.025330577 -0.15675269 0.65499997 4291412660
0.026573163 -0.15675293 0.65499997 4291346867
0.027773293 -0.15651388 0.65399998 4291346865
0.029014004 -0.1565142 0.65399998 4291412658
0.030254722 -0.1565145 0.65399998 4291347117
0.031495456 -0.15651482 0.65399998 4291215788
0.032736197 -0.15651518 0.65399998 4291083696
0.03397695 -0.15651554 0.65399998 4290952109
0.035217717 -0.15651594 0.65399998 4291017904
0.036347009 -0.15603772 0.65200001 4291017904
0.037584003 -0.15603814 0.65200001 4291148970
0.038940102 -0.15651724 0.65399998 4291148970
0.040242359 -0.15675701 0.65499997 4291017391
0.041485094 -0.1567575 0.65499997 4291017391
0.042727843 -0.15675801 0.65499997 4291148459
0.043970611 -0.15675855 0.65499997 4291148459
0.045213394 -0.15675908 0.65499997 4291148207
0.046385258 -0.15652031 0.65399998 4291148207
0.047553368 -0.15628156 0.653 4291148207
0.048792399 -0.15628214 0.653 4291016621
0.050108083 -0.1565221 0.65399998 4291016619
0.051427577 -0.15676206 0.65499997 4291016619
0.05259005 -0.15652335 0.65399998 4291016619
0.053831071 -0.15652403 0.65399998 4291016619
0.055072103 -0.1565247 0.65399998 4290950826
0.056313153 -0.15652539 0.65399998 4291016619
0.057642244 -0.15676543 0.65499997 4290818991
0.05879534 -0.15652683 0.65399998 4290818991
0.060036462 -0.15652758 0.65399998 4290753711
0.061277606 -0.15652834 0.65399998 4290885553
0.063379116 -0.15868318 0.66299999 4290950824
0.064637385 -0.15868399 0.66299999 4290950824
0.065796308 -0.15844545 0.662 4290687654
0.067052729 -0.15844628 0.662 4290556068
0.068412364 -0.15868647 0.66299999 4290293412
0.069775805 -0.15892667 0.66399997 4290293412
0.0710361 -0.15892753 0.66399997 4290227619
0.072514191 -0.15940714 0.66600001 4290096289
0.073889114 -0.15964738 0.667 4290161062
0.075267844 -0.15988764 0.66799998 4290095013
0.076535836 -0.15988855 0.66799998 4289898654
0.07780385 -0.15988949 0.66799998 4289898654
0.079308651 -0.16036919 0.67000002 4289832859
0.080580525 -0.16037016 0.67000002 4289832859
0.081852414 -0.16037111 0.67000002 4289832346
0.083124347 -0.16037211 0.67000002 4289766552
0.084522255 -0.16061246 0.671 4289569945
0.085924007 -0.16085283 0.67199999 4289569945
0.087718867 -0.16181132 0.676 4289569691
0.089002304 -0.16181237 0.676 4289569691
0.090285778 -0.16181342 0.676 4289635738
0.09184017 -0.1622932 0.67799997 4289635738
0.093264848 -0.16253363 0.67900002 4289503646
-0.022855822 -0.16239993 0.68400002 4289759304
-0.02155811 -0.16239935 0.68400002 4293970056
-0.020260412 -0.1623988 0.68400002 4292134850
-0.019018175 -0.1628731 0.68599999 4291608506
-0.017716715 -0.16287261 0.68599999 4291542963
-0.016415268 -0.16287212 0.68599999 4291740599
-0.015069769 -0.1623968 0.68400002 4291806392
-0.013752006 -0.16215895 0.68300003 4291806392
-0.012365099 -0.16097143 0.67799997 4291806390
-0.011078876 -0.16097102 0.67799997 4292003512
-0.0097637773 -0.16049583 0.676 4291938239
-0.0084688216 -0.16025805 0.67500001 4291872446
-0.0071883192 -0.16025774 0.67500001 4291806138
-0.0058815675 -0.15954517 0.67199999 4291937723
-0.0045930617 -0.15907006 0.67000002 4292133819
-0.0033071917 -0.15835753 0.667 4292133819
-0.0020418935 -0.15835729 0.667 4292068796
-0.00077660196 -0.15835708 0.667 4292068796
0.00048868509 -0.1583569 0.667 4291872698
0.0017513385 -0.15811932 0.66600001 4291806905
0.002996614 -0.15716951 0.662 4291872698
0.0042524054 -0.15716937 0.662 4291938491
0.0054998742 -0.15693188 0.66100001 4291740858
0.006753765 -0.15693179 0.66100001 4291675065
0.0079834238 -0.15645686 0.65899998 4291936956
0.0092195086 -0.15621942 0.65799999 4291871163
0.010451799 -0.155982 0.65700001 4291674551
0.011698103 -0.155982 0.65700001 4291806138
0.012944405 -0.15598203 0.65700001 4291740858
0.014212312 -0.15621948 0.65799999 4291740858
0.015437022 -0.15598215 0.65700001 4291740345
0.016683333 -0.15598224 0.65700001 4291608758
0.017929653 -0.15598235 0.65700001 4291608245
0.019175975 -0.15598248 0.65700001 4291739574
0.020422302 -0.15598263 0.65700001 4291608756
0.02166863 -0.15598279 0.65700001 4291608756
0.022914974 -0.15598299 0.65700001 4291477942
0.02416132 -0.15598321 0.65700001 4291412149
0.025407676 -0.15598343 0.65700001 4291346867
0.026654044 -0.15598372 0.65700001 4291346867
0.027773006 -0.15527171 0.65399998 4291215534
0.029013701 -0.15527201 0.65399998 4291215534
0.030254399 -0.15527231 0.65399998 4291149741
0.03154327 -0.15551005 0.65499997 4291018154
0.032785892 -0.15551044 0.65499997 4291082666
0.034028523 -0.15551081 0.65499997 4291082666
0.035217319 -0.15527377 0.65399998 4291017651
0.036458079 -0.1552742 0.65399998 4290951857
0.037756499 -0.15551203 0.65499997 4291017387
0.038999185 -0.1555125 0.65499997 4290951594
0.040364757 -0.1559878 0.65700001 4290950824
0.041611273 -0.15598832 0.65700001 4291082666
0.042857796 -0.15598881 0.65700001 4290951594
0.044104338 -0.15598935 0.65700001 4290885801
0.045350902 -0.15598989 0.65700001 4291082666
0.046455625 -0.1555156 0.65499997 4291082666
0.047625601 -0.15527874 0.65399998 4291016617
0.048866522 -0.15527934 0.65399998 4291016617
0.050184075 -0.15551738 0.65499997 4291016617
0.051426932 -0.15551801 0.65499997 4291016617
0.052669808 -0.15551865 0.65499997 4290950826
0.053912707 -0.15551932 0.65499997 4290819497
0.055155616 -0.15551999 0.65499997 4290819497
0.056398556 -0.15552069 0.65499997 4290819497
0.057817526 -0.15599629 0.65700001 4290884519
0.058884509 -0.15552215 0.65499997 4290884519
0.060127508 -0.15552288 0.65499997 4290622893
0.062026411 -0.15718576 0.662 4290557100
0.063282736 -0.15718652 0.662 4290753961
0.064539097 -0.15718733 0.662 4290556838
0.065696098 -0.1569507 0.66100001 4290293664
0.066950612 -0.15695153 0.66100001 4290293664
0.068308331 -0.15718982 0.662 4290358946
0.069774948 -0.15766557 0.66399997 4290358946
0.071035236 -0.15766644 0.66399997 4290096289
0.072295539 -0.15766732 0.66399997 4290030496
0.073888205 -0.15838058 0.667 4289898656
0.07526692 -0.15861894 0.66799998 4289832863
0.076534905 -0.1586199 0.66799998 4289898141
0.077802896 -0.1586208 0.66799998 4289766554
0.079307683 -0.15909669 0.67000002 4289701013
0.080579542 -0.15909766 0.67000002 4289701013
0.081851445 -0.15909867 0.67000002 4289701013
0.083123356 -0.15909964 0.67000002 4289701013
0.084521264 -0.15933812 0.671 4289634964
0.085922986 -0.15957658 0.67199999 4289701013
0.087717831 -0.16052745 0.676 4289504409
0.089264579 -0.16100346 0.67799997 4289504409
0.090551816 -0.1610045 0.67799997 4289570458
-0.021620581 -0.1615712 0.68599999 4292852608
-0.020319112 -0.16157065 0.68599999 4292724421
-0.019017657 -0.16157012 0.68599999 4292329663
-0.017716222 -0.16156964 0.68599999 4291542965
-0.016414793 -0.16156915 0.68599999 4291740345
-0.01506932 -0.16109766 0.68400002 4291740597
-0.013731445 -0.16062616 0.68199998 4291740597
-0.012437645 -0.16062574 0.68199998 4291609271
-0.011094836 -0.1599188 0.67900002 4291806651
-0.0097923046 -0.15968287 0.67799997 4291872448
-0.0084810322 -0.1592115 0.676 4291806655
-0.0071880054 -0.15897566 0.67500001 4291740347
-0.0059075328 -0.15897538 0.67500001 4291740347
-0.0045996481 -0.158033 0.671 4291871161
-0.0033069465 -0.15709066 0.667 4291871161
-0.0020416707 -0.15709043 0.667 4291937721
-0.00077640056 -0.15709022 0.667 4292003514
0.00048886455 -0.15709004 0.667 4292003766
0.0017514955 -0.15685435 0.66600001 4291806644
0.003014856 -0.1568542 0.66600001 4291872950
0.004252519 -0.15591203 0.662 4291872950
0.0055082859 -0.15591191 0.662 4291740345
0.0067538354 -0.15567632 0.66100001 4291674551
0.0080077024 -0.15567626 0.66100001 4291674300
0.0092335483 -0.15520521 0.65899998 4291674300
0.010483621 -0.15520519 0.65899998 4291674553
0.011733697 -0.15520516 0.65899998 4291806140
0.012983774 -0.15520519 0.65899998 4291806392
0.014233853 -0.15520525 0.65899998 4291806392
0.015483934 -0.15520531 0.65899998 4291740599
0.016734023 -0.15520541 0.65899998 4291542963
0.017929532 -0.15473451 0.65700001 4291542965
0.019175831 -0.15473463 0.65700001 4291542965
0.020422138 -0.15473479 0.65700001 4291478192
0.021668451 -0.15473495 0.65700001 4291346606
0.022914771 -0.15473516 0.65700001 4291083444
0.024161095 -0.15473536 0.65700001 4291017651
0.025407432 -0.15473558 0.65700001 4291280561
0.026653774 -0.15473588 0.65700001 4291412147
0.027815195 -0.15426511 0.65499997 4291477422
0.029057756 -0.15426537 0.65499997 4291346093
0.030300338 -0.1542657 0.65499997 4291280044
0.031542927 -0.15426604 0.65499997 4291148457
0.032785524 -0.15426637 0.65499997 4290885551
0.034028139 -0.15426677 0.65499997 4290885551
0.035270762 -0.15426716 0.65499997 4291148457
0.036513403 -0.15426759 0.65499997 4290951078
0.037871342 -0.15473907 0.65700001 4290819245
0.039117798 -0.1547395 0.65700001 4290819245
0.04036428 -0.15473999 0.65700001 4290951078
0.04161077 -0.15474047 0.65700001 4291082664
0.042922504 -0.15497652 0.65799999 4291016358
0.044103798 -0.15474153 0.65700001 4290818722
0.045350347 -0.15474208 0.65700001 4291017123
0.046596907 -0.15474264 0.65700001 4291082916
0.047843486 -0.15474322 0.65700001 4291016869
0.049164787 -0.15497933 0.65799999 4290951076
0.050413299 -0.15497996 0.65799999 4290950824
0.05166183 -0.15498058 0.65799999 4290819495
0.052829981 -0.15474571 0.65700001 4290951078
0.054076653 -0.1547464 0.65700001 4290753699
0.055323344 -0.15474705 0.65700001 4290884517
0.056570064 -0.15474777 0.65700001 4290950311
0.05790481 -0.15498404 0.65799999 4290753701
0.059063569 -0.15474924 0.65700001 4290753701
0.060310345 -0.15474997 0.65700001 4290425000
0.062025633 -0.15592846 0.662 4290359207
0.063281946 -0.15592924 0.662 4290293414
0.064538293 -0.15593006 0.662 4290096035
0.065695278 -0.15569532 0.66100001 4290227870
0.066949777 -0.15569615 0.66100001 4290227870
0.068307467 -0.15593253 0.662 4290161562
0.069563918 -0.1559334 0.662 4290029976
0.07103435 -0.15640537 0.66399997 4289767068
0.072294638 -0.15640627 0.66399997 4289767068
0.073887281 -0.15711381 0.667 4289767068
0.075265996 -0.15735029 0.66799998 4289635738
0.076533966 -0.15735123 0.66799998 4289635738
0.078034908 -0.15782331 0.67000002 4289569945
0.079306737 -0.15782426 0.67000002 4289504148
0.08057858 -0.15782523 0.67000002 4289504148
0.081972606 -0.15806176 0.671 4289570195
0.08337047 -0.15829831 0.67199999 4289438353
0.085150056 -0.15924159 0.676 4289438607
0.086689122 -0.15971375 0.67799997 4289570193
0.088106066 -0.15995036 0.67900002 4289504148
0.089395188 -0.15995142 0.67900002 4289438355
0.090684317 -0.15995246 0.67900002 4289569941
-0.020318573 -0.16026771 0.68599999 4292000421
-0.019017143 -0.16026719 0.68599999 4292724143
-0.017715724 -0.16026667 0.68599999 4291674553
-0.016414322 -0.16026622 0.68599999 4291674553
-0.015024808 -0.15933125 0.68199998 4291609269
-0.013731018 -0.15933082 0.68199998 4291609269
-0.012437238 -0.1593304 0.68199998 4291609271
-0.011110794 -0.15886278 0.68000001 4291740858
-0.0098063899 -0.15862878 0.67900002 4291740606
-0.0085057877 -0.1583948 0.67799997 4291674813
-0.0072196382 -0.1583945 0.67799997 4291740347
-0.0059072427 -0.15769333 0.67500001 4291740347
-0.0045993817 -0.15675858 0.671 4291740345
-0.0033116606 -0.15605745 0.66799998 4291740345
-0.0020414493 -0.1558236 0.667 4291740599
-0.00077620102 -0.15582339 0.667 4291740599
0.00048904255 -0.15582323 0.667 4291806392
0.0017516516 -0.15558943 0.66600001 4291740599
0.0030149904 -0.15558928 0.66600001 4291740599
0.0042783264 -0.15558916 0.66600001 4291740599
0.0055416599 -0.15558907 0.66600001 4291609271
0.0067641214 -0.1546545 0.662 4291609271
0.0080198636 -0.15465444 0.662 4291609017
0.009261596 -0.15442081 0.66100001 4291609017
0.010483624 -0.15395354 0.65899998 4291609271
0.01173368 -0.15395357 0.65899998 4291477942
0.013023141 -0.15442082 0.66100001 4291477170
0.014276993 -0.15442087 0.66100001 4291542963
0.015483852 -0.15395369 0.65899998 4291542963
0.016733916 -0.15395379 0.65899998 4291542963
0.017929407 -0.15348667 0.65700001 4291346100
0.019175688 -0.15348683 0.65700001 4291412149
0.020421972 -0.15348695 0.65700001 4291412660
0.021602301 -0.15301989 0.65499997 4291215538
0.022844806 -0.15302008 0.65499997 4291214512
0.024160868 -0.15348755 0.65700001 4291148718
0.025407182 -0.15348779 0.65700001 4291214514
0.026653506 -0.15348804 0.65700001 4291017391
0.027899833 -0.15348831 0.65700001 4291147944
0.02914618 -0.15348864 0.65700001 4291279273
0.030392529 -0.15348893 0.65700001 4291016617
0.031638894 -0.15348928 0.65700001 4291016617
0.032885268 -0.15348963 0.65700001 4291016619
0.034131654 -0.15349001 0.65700001 4291016619
0.035270356 -0.15302317 0.65499997 4291082412
0.036512975 -0.15302357 0.65499997 4290950826
0.037755609 -0.15302402 0.65499997 4290687654
0.039117344 -0.15349174 0.65700001 4290687654
0.040363792 -0.1534922 0.65700001 4290884517
0.041610274 -0.1534927 0.65700001 4290884517
0.04285676 -0.1534932 0.65700001 4290818209
0.044170391 -0.15372737 0.65799999 4290818209
0.045418814 -0.15372792 0.65799999 4290951078
0.046667244 -0.15372847 0.65799999 4290951078
0.047915701 -0.15372907 0.65799999 4290753701
0.049164183 -0.15372966 0.65799999 4290819495
0.050412674 -0.15373029 0.65799999 4290884517
0.0517397 -0.15396456 0.65899998 4290950311
0.052829314 -0.15349793 0.65700001 4290950824
0.054075975 -0.15349862 0.65700001 4290753701
0.055659469 -0.15443383 0.66100001 4290687908
0.056913763 -0.15443456 0.66100001 4290753701
0.058256079 -0.15466891 0.662 4290753701
0.059512302 -0.15466966 0.662 4290556066
0.060768563 -0.15467042 0.662 4290358692
0.062024843 -0.15467119 0.662 4290292899
0.06337674 -0.15490563 0.66299999 4290292899
0.064732455 -0.15514009 0.66399997 4290292899
0.065992609 -0.15514089 0.66399997 4290096541
0.067252778 -0.15514173 0.66399997 4289964699
0.068512976 -0.15514258 0.66399997 4289833113
0.070193537 -0.15607804 0.66799998 4289767320
0.07146138 -0.15607892 0.66799998 4289701013
0.072729237 -0.15607981 0.66799998 4289766806
0.074218698 -0.15654805 0.67000002 4289635484
0.075490423 -0.15654899 0.67000002 4289635484
0.076762162 -0.1565499 0.67000002 4289503898
0.078033946 -0.15655087 0.67000002 4289503898
0.07942412 -0.15678549 0.671 4289504148
0.080697857 -0.15678647 0.671 4289504148
0.082093775 -0.15702112 0.67199999 4289504148
0.084113844 -0.15842408 0.67799997 4289504148
0.085400932 -0.15842509 0.67799997 4289504402
0.086815961 -0.15865982 0.67900002 4289438353
0.08823479 -0.15889454 0.68000001 4289438357
0.08939413 -0.1586619 0.67900002 4289438357
0.090683267 -0.15866299 0.67900002 4289504150
-0.015024364 -0.15803598 0.68199998 4291412147
-0.013730594 -0.15803553 0.68199998 4291609269
-0.012436839 -0.15803511 0.68199998 4291609271
-0.011110415 -0.1575713 0.68000001 4291675065
-0.0098060323 -0.15733919 0.67900002 4291740347
-0.0085179992 -0.15733886 0.67900002 4291740347
-0.0072193262 -0.1571068 0.67799997 4291675065
-0.0059157046 -0.15664305 0.676 4291675065
-0.004626533 -0.15641107 0.67500001 4291740599
-0.0033461195 -0.15641083 0.67500001 4291740599
-0.0020504105 -0.15525199 0.67000002 4291674549
-0.00077716628 -0.15478835 0.66799998 4291674549
0.00048995233 -0.15478814 0.66799998 4291609017
0.0017544363 -0.15455626 0.667 4291477688
0.0030196495 -0.15455611 0.667 4291412149
0.004284861 -0.15455599 0.667 4291412149
0.0055417488 -0.15432417 0.66600001 4291674549
0.0068050595 -0.1543241 0.66600001 4291674549
0.0080683678 -0.15432404 0.66600001 4291609269
0.0092616202 -0.15316543 0.66100001 4291609269
0.010515445 -0.15316541 0.66100001 4291609523
0.011769272 -0.15316543 0.66100001 4291412145
0.013042802 -0.15339717 0.662 4291412147
0.014276931 -0.1531655 0.66100001 4291412147
0.015530765 -0.15316559 0.66100001 4291346354
0.016784603 -0.15316568 0.66100001 4291412147
0.018038442 -0.15316579 0.66100001 4291280307
0.019175544 -0.15223907 0.65700001 4291214514
0.020421809 -0.1522392 0.65700001 4291346093
0.021602118 -0.15177594 0.65499997 4291346093
0.0228446 -0.15177615 0.65499997 4291214250
0.024160642 -0.1522398 0.65700001 4291214250
0.025406934 -0.15224004 0.65700001 4291279273
0.026734374 -0.15270375 0.65899998 4291147944
0.027984479 -0.15270403 0.65899998 4291147692
0.029323317 -0.15316775 0.66100001 4291147692
0.030577237 -0.15316808 0.66100001 4290950826
0.031831171 -0.15316841 0.66100001 4290950826
0.033085112 -0.15316878 0.66100001 4290950574
0.035269953 -0.15177922 0.65499997 4290950824
0.03651255 -0.15177964 0.65499997 4290819495
0.037755169 -0.15178007 0.65499997 4290621863
0.039116874 -0.15224397 0.65700001 4290556070
0.040363308 -0.15224445 0.65700001 4290687395
0.041609775 -0.15224497 0.65700001 4290818724
0.042856235 -0.15224546 0.65700001 4290752418
0.044169847 -0.15247773 0.65799999 4290752418
0.045418255 -0.15247829 0.65799999 4290687395
0.046666671 -0.15247884 0.65799999 4290687395
0.047915109 -0.15247944 0.65799999 4290818211
0.049163569 -0.15248004 0.65799999 4290949797
0.050412044 -0.15248065 0.65799999 4290818722
0.051739048 -0.15271302 0.65899998 4290621600
0.053150296 -0.15317717 0.66100001 4290556066
0.054404523 -0.15317784 0.66100001 4290490273
0.055658769 -0.15317854 0.66100001 4290556320
0.056913048 -0.15317923 0.66100001 4290622113
0.058255345 -0.15341172 0.662 4290490273
0.059511557 -0.15341243 0.662 4290227357
0.060767803 -0.15341321 0.662 4290096035
0.062024068 -0.153414 0.662 4290030242
0.063375942 -0.15364651 0.66299999 4290161564
0.064731643 -0.15387906 0.66399997 4290227357
0.066190548 -0.1543434 0.66600001 4290095769
0.067454502 -0.15434422 0.66600001 4289766804
0.070402808 -0.15527296 0.67000002 4289767317
0.071674429 -0.15527382 0.67000002 4289504150
0.072946094 -0.15527475 0.67000002 4289504150
0.074328542 -0.1555074 0.671 4289438105
0.075602151 -0.15550834 0.671 4289438105
0.076875798 -0.15550929 0.671 4289438105
0.07826592 -0.15574199 0.67199999 4289438105
0.079541512 -0.15574296 0.67199999 4289438357
0.081177928 -0.15643923 0.67500001 4289438357
0.08282575 -0.15713552 0.67799997 4289438355
0.08423689 -0.1573683 0.67900002 4289438355
0.085525885 -0.15736933 0.67900002 4289438866
0.086942784 -0.15760212 0.68000001 4289307537
0.088493243 -0.1580667 0.68199998 4289438103
0.089524716 -0.15760423 0.68000001 4289438103
0.090815723 -0.15760529 0.68000001 4289569691
-0.015045948 -0.15697055 0.68300003 4291083696
-0.013750304 -0.15697011 0.68300003 4291346867
-0.012436437 -0.15673986 0.68199998 4291542963
-0.011142715 -0.15673949 0.68199998 4291608756
-0.0098201195 -0.15627946 0.68000001 4291608504
-0.0085302107 -0.15627912 0.68000001 4291608504
-0.007229663 -0.15604898 0.67900002 4291674553
-0.0059329178 -0.15581885 0.67799997 4291674553
-0.0046331217 -0.15535893 0.676 4291346100
-0.0033508334 -0.15535869 0.676 4291477942
-0.0020624311 -0.15489882 0.67400002 4291477170
-0.00078045862 -0.15420917 0.671 4291542963
0.00049159501 -0.15397914 0.67000002 4291608758
0.0017572198 -0.15351933 0.66799998 4291608758
0.0030243089 -0.15351918 0.66799998 4291608756
0.0043042437 -0.15397872 0.67000002 4291608756
0.0055584786 -0.15351896 0.66799998 4291412147
0.0068255612 -0.1535189 0.66799998 4291346354
0.0080805272 -0.15328903 0.667 4291345841
0.0092756543 -0.1521399 0.662 4291477170
0.010531356 -0.1521399 0.662 4291346100
0.011787057 -0.1521399 0.662 4291280307
0.013042759 -0.15213995 0.662 4291215284
0.014298468 -0.15214001 0.662 4291149491
0.015554175 -0.15214007 0.662 4291280557
0.016809888 -0.15214016 0.662 4291280557
0.018065607 -0.15214027 0.662 4291214252
0.019321328 -0.15214041 0.662 4291148459
0.020577058 -0.15214057 0.662 4291279275
0.021667894 -0.15099165 0.65700001 4291082153
0.022914149 -0.15099184 0.65700001 4291081127
0.024197184 -0.15122187 0.65799999 4291081127
0.025445351 -0.15122211 0.65799999 4291081129
0.026734101 -0.1514522 0.65899998 4291146922
0.027984185 -0.15145248 0.65899998 4291082153
0.029323008 -0.15191244 0.66100001 4291082153
0.030576905 -0.15191276 0.66100001 4290819497
0.031830821 -0.15191312 0.66100001 4290753447
0.033134792 -0.15214327 0.662 4290884266
0.035915706 -0.15329319 0.667 4290753447
0.03718105 -0.15329362 0.667 4290687654
0.038100567 -0.1519151 0.66100001 4290556068
0.039354555 -0.15191557 0.66100001 4290556068
0.040608566 -0.15191607 0.66100001 4290555553
0.041735925 -0.15145688 0.65899998 4290621602
0.042920947 -0.15122756 0.65799999 4290752418
0.044169303 -0.1512281 0.65799999 4290686625
0.045486718 -0.15145849 0.65899998 4290555807
0.046737015 -0.15145907 0.65899998 4290490014
0.047987334 -0.15145966 0.65899998 4290489246
0.049387101 -0.15191993 0.66100001 4290686625
0.05064125 -0.15192057 0.66100001 4290686625
0.051973928 -0.152151 0.662 4290620576
0.053230032 -0.1521517 0.662 4290555807
0.054486141 -0.15215237 0.662 4290555807
0.055742271 -0.15215306 0.662 4290490527
0.056998432 -0.15215378 0.662 4290293148
0.058342602 -0.15238436 0.66299999 4290096541
0.059510812 -0.15215527 0.662 4290030492
0.060767032 -0.15215601 0.662 4290096035
0.062023278 -0.15215679 0.662 4289898656
0.063470736 -0.15261729 0.66399997 4289766806
0.064925805 -0.15307778 0.66600001 4289766806
0.066189721 -0.15307862 0.66600001 4289701011
0.067453653 -0.15307945 0.66600001 4289701011
0.068304904 -0.15216088 0.662 4289570195
0.070507005 -0.15423043 0.671 4289570195
0.071780518 -0.15423134 0.671 4289438355
0.07305406 -0.15423223 0.671 4289438355
0.074659936 -0.15492271 0.67400002 4289372562
0.075939223 -0.15492365 0.67400002 4289306769
0.076989405 -0.15446489 0.67199999 4289437844
0.078264959 -0.15446584 0.67199999 4289372051
0.079777285 -0.15492654 0.67400002 4289306515
0.081537716 -0.15584695 0.67799997 4289306515
0.082946911 -0.15607783 0.67900002 4289372308
0.084235862 -0.15607885 0.67900002 4289438357
0.085524857 -0.15607989 0.67900002 4289307285
0.086941727 -0.15631078 0.68000001 4289241492
0.088621952 -0.15700147 0.68300003 4289241494
0.089918621 -0.15700252 0.68300003 4289438616
-0.016604319 -0.15818107 0.69400001 4292528062
-0.015287818 -0.15818061 0.69400001 4291544497
-0.0139512 -0.15795226 0.69300002 4291412910
-0.012454274 -0.15567258 0.68300003 4291542963
-0.011158675 -0.15567221 0.68300003 4291477170
-0.0098486459 -0.15544391 0.68199998 4291476918
-0.0085549662 -0.15544356 0.68199998 4291476918
-0.0072400011 -0.15498738 0.68000001 4291542965
-0.005932631 -0.15453124 0.67799997 4291674551
-0.0046465644 -0.15453097 0.67799997 4291542965
-0.0033505913 -0.15407488 0.676 4291477172
-0.0020652716 -0.15384674 0.67500001 4291477172
-0.00078491366 -0.15384652 0.67500001 4291542965
0.00049250317 -0.15293464 0.671 4291542963
0.0017626337 -0.15270658 0.67000002 4291608756
0.0030334939 -0.15270641 0.67000002 4291608758
0.0043107769 -0.15293425 0.671 4291674551
0.0055752075 -0.15270622 0.67000002 4291412147
0.0068460628 -0.15270615 0.67000002 4291280561
0.0081169158 -0.1527061 0.67000002 4291280309
0.0093877688 -0.15270606 0.67000002 4291280309
0.010658622 -0.15270606 0.67000002 4291214262
0.011822645 -0.15133853 0.66399997 4291214262
0.013082121 -0.15133856 0.66399997 4291148720
0.0143848 -0.15179448 0.66600001 4291148720
0.015648074 -0.15179457 0.66600001 4291214250
0.016911352 -0.15179466 0.66600001 4291214250
0.018311081 -0.15293434 0.671 4291148457
0.019583851 -0.15293449 0.671 4291016871
0.020732302 -0.15202299 0.667 4290950826
0.0219975 -0.15202317 0.667 4290950826
0.023053445 -0.15065584 0.66100001 4290950576
0.024307275 -0.15065606 0.66100001 4290950576
0.025561117 -0.1506563 0.66100001 4290950313
0.026855532 -0.15088449 0.662 4290950313
0.028068829 -0.15065685 0.66100001 4291016104
0.029322697 -0.15065716 0.66100001 4291016104
0.030622831 -0.1508854 0.662 4290884517
0.03187862 -0.15088576 0.662 4290621602
0.033134416 -0.15088609 0.662 4290621863
0.03718061 -0.15202695 0.667 4290556070
0.038445953 -0.15202738 0.667 4290621602
0.039413624 -0.15088822 0.662 4290621602
0.040669512 -0.15088871 0.662 4290555555
0.041925412 -0.1508892 0.662 4290555555
0.043181326 -0.15088971 0.662 4290555553
0.044370148 -0.15066232 0.66100001 4290555553
0.045624204 -0.15066288 0.66100001 4290489760
0.046878271 -0.15066345 0.66100001 4290489760
0.048132375 -0.15066406 0.66100001 4290489246
0.049461193 -0.15089259 0.662 4290489246
0.050717223 -0.15089321 0.662 4290489249
0.05197328 -0.15089387 0.662 4290489249
0.053229362 -0.15089452 0.662 4290556059
0.054485455 -0.15089521 0.662 4290621852
0.055741567 -0.15089589 0.662 4290293402
0.056997709 -0.15089662 0.662 4290161560
0.058341864 -0.1511253 0.66299999 4290030492
0.059510052 -0.1508981 0.662 4289833113
0.060766265 -0.15089886 0.662 4289766818
0.062022496 -0.15089963 0.662 4289569439
0.063374341 -0.15112837 0.66299999 4289634714
0.064730003 -0.15135713 0.66399997 4289700507
0.065791354 -0.15090206 0.662 4289634966
0.067047685 -0.15090288 0.662 4289569173
0.068304054 -0.15090376 0.662 4289569171
0.069560438 -0.15090461 0.662 4289437842
0.072314486 -0.15409686 0.676 4289438353
0.073597513 -0.15409777 0.676 4289372560
0.074880548 -0.15409869 0.676 4289306769
0.07605096 -0.15387169 0.67500001 4289306769
0.077217594 -0.15364468 0.67400002 4289175185
0.078496933 -0.15364565 0.67400002 4289175185
0.080013014 -0.15410253 0.676 4289175185
0.081656985 -0.15478741 0.67900002 4289306515
0.083068065 -0.15501638 0.68000001 4289372308
0.084358901 -0.15501739 0.68000001 4289372308
0.085901685 -0.15547436 0.68199998 4289241492
0.087452099 -0.15593134 0.68400002 4289175699
0.088620879 -0.15570444 0.68300003 4289175701
0.089917548 -0.15570551 0.68300003 4289570458
-0.016603848 -0.15686311 0.69400001 4291610542
-0.015287369 -0.15686265 0.69400001 4291478957
-0.013950774 -0.15663619 0.69300002 4291610544
-0.01247211 -0.15460154 0.68400002 4291346615
-0.011158299 -0.15437514 0.68300003 4291215286
-0.0098627359 -0.15437476 0.68300003 4291476918
-0.0085671796 -0.15437441 0.68300003 4291345589
-0.0072609857 -0.15414807 0.68199998 4291476657
-0.0059498455 -0.15369573 0.68000001 4291739572
-0.0046600085 -0.15369548 0.68000001 4291608756
-0.0033652196 -0.1534692 0.67900002 4291542963
-0.0020742312 -0.15324293 0.67799997 4291477172
-0.0007858802 -0.15279068 0.676 4291477172
0.00049634743 -0.1527905 0.676 4291410864
0.0017785706 -0.15279034 0.676 4291542450
0.0030426788 -0.15188612 0.67199999 4291477172
0.0043173083 -0.151886 0.67199999 4291477172
0.0055919355 -0.15188587 0.67199999 4291280307
0.0068563442 -0.15165979 0.671 4291280307
0.0081290714 -0.15165974 0.671 4291083444
0.0094018001 -0.15165971 0.671 4291083444
0.010674529 -0.15165971 0.671 4291148467
0.011947259 -0.15165974 0.671 4291148467
0.01321999 -0.15165976 0.671 4291148720
0.014492726 -0.15165982 0.671 4290951598
0.015765464 -0.15165989 0.671 4291016617
0.017038204 -0.15165998 0.671 4291148459
0.018310949 -0.1516601 0.671 4291082666
0.019583702 -0.15166026 0.671 4290950824
0.020825375 -0.15143438 0.67000002 4290950826
0.021997303 -0.15075649 0.667 4290950826
0.023227612 -0.15053068 0.66600001 4290950826
0.02430704 -0.1494008 0.66100001 4290950826
0.025560865 -0.14940105 0.66100001 4290819497
0.02685526 -0.14962734 0.662 4290687654
0.028110994 -0.14962763 0.662 4290752418
0.029366743 -0.14962792 0.662 4290884004
0.030622497 -0.14962827 0.662 4290818470
0.031878266 -0.14962861 0.662 4290621348
0.033134047 -0.14962897 0.662 4290621861
0.034597628 -0.15053345 0.66600001 4290621861
0.03586103 -0.15053387 0.66600001 4290490273
0.037180178 -0.15076031 0.667 4290556066
0.038445503 -0.15076075 0.667 4290621602
0.039651301 -0.15053521 0.66600001 4290555553
0.040791884 -0.15008362 0.66399997 4290358946
0.041988235 -0.14985809 0.66299999 4290358946
0.043246035 -0.14985862 0.66299999 4290489760
0.044436727 -0.14963314 0.662 4290489760
0.045692656 -0.14963368 0.662 4290424218
0.046948615 -0.14963426 0.662 4290490012
0.048204586 -0.14963484 0.662 4290423966
0.049460582 -0.14963546 0.662 4290358173
0.050716594 -0.1496361 0.662 4290358173
0.052051138 -0.14986278 0.66299999 4290423966
0.053309094 -0.14986344 0.66299999 4290490014
0.054567073 -0.14986414 0.66299999 4290358171
0.055825058 -0.14986482 0.66299999 4290029976
0.057083081 -0.14986552 0.66299999 4290095769
0.058341123 -0.14986625 0.66299999 4290095517
0.059599195 -0.14986701 0.66299999 4289832346
0.060765497 -0.14964174 0.662 4289832350
0.062021706 -0.1496425 0.662 4289700507
0.063373543 -0.14986935 0.66299999 4289634966
0.064729191 -0.15009621 0.66399997 4289569173
0.065790519 -0.14964493 0.662 4289569171
0.067046843 -0.14964578 0.662 4289437842
0.06830319 -0.14964662 0.662 4289437842
0.072313584 -0.15281315 0.676 4289372049
0.073596574 -0.15281406 0.676 4289372049
0.074879609 -0.15281498 0.676 4289306001
0.076162674 -0.15281594 0.676 4289306001
0.077445753 -0.15281688 0.676 4289175439
0.078728877 -0.15281786 0.676 4289175439
0.080012031 -0.15281883 0.676 4289175185
0.081655987 -0.15349802 0.67900002 4289306515
0.087451063 -0.15463248 0.68400002 4289044112
0.08874958 -0.15463355 0.68400002 4288978319
-0.016651226 -0.15599345 0.69599998 4287386450
-0.015286925 -0.15554474 0.69400001 4288846745
-0.013970479 -0.15554428 0.69400001 4291544258
-0.012635813 -0.15531975 0.69300002 4291346100
-0.011288619 -0.15487109 0.69099998 4291148720
-0.0098768231 -0.15330188 0.68400002 4291279542
-0.0085668489 -0.15307739 0.68300003 4291279542
-0.0072713257 -0.15307708 0.68300003 4291345587
-0.0059670601 -0.15285265 0.68199998 4291542965
-0.0046734503 -0.15285239 0.68199998 4291477170
-0.0033699353 -0.15240389 0.68000001 4291542963
-0.0020770733 -0.15217957 0.67900002 4291542702
-0.00078800996 -0.1519552 0.67799997 4291476909
0.00049798907 -0.15195501 0.67799997 4291279796
0.0017839839 -0.15195487 0.67799997 4291279796
0.0030428069 -0.15060997 0.67199999 4291214000
0.0043174145 -0.15060988 0.67199999 4291214000
0.0055920207 -0.15060978 0.67199999 4291214003
0.0068564066 -0.15038559 0.671 4291214003
0.0081291124 -0.15038553 0.671 4291279025
0.0094018197 -0.1503855 0.671 4291279025
0.010674526 -0.1503855 0.671 4291017137
0.011947236 -0.15038551 0.671 4291017137
0.013219945 -0.15038556 0.671 4290951344
0.014492658 -0.1503856 0.671 4290951344
0.015765375 -0.15038568 0.671 4291082666
0.017038094 -0.1503858 0.671 4291148459
0.018310821 -0.15038593 0.671 4291016617
0.019583549 -0.15038605 0.671 4290819495
0.020825204 -0.15016209 0.67000002 4290950313
0.022096047 -0.15016228 0.67000002 4290884519
0.023262275 -0.1494901 0.667 4290819495
0.024527447 -0.14949034 0.667 4290950824
0.025792627 -0.14949059 0.667 4290884519
0.026895553 -0.14859435 0.66299999 4290687141
0.0281107 -0.14837052 0.662 4290818213
0.029366424 -0.14837082 0.662 4290818213
0.030668417 -0.14859526 0.66299999 4290621350
0.031926066 -0.14859562 0.66299999 4290555557
0.033333875 -0.14926836 0.66600001 4290622115
0.03459724 -0.14926878 0.66600001 4290556066
0.035860613 -0.14926916 0.66600001 4290555807
0.037179738 -0.14949372 0.667 4290621600
0.038445044 -0.14949417 0.667 4290555553
0.039650824 -0.1492705 0.66600001 4290423966
0.04091426 -0.14927098 0.66600001 4290423969
0.042051055 -0.14882323 0.66399997 4290357919
0.043310728 -0.14882375 0.66399997 4290423964
0.044704668 -0.14927255 0.66600001 4290423964
0.045968175 -0.14927311 0.66600001 4290424216
0.047018945 -0.14860131 0.66299999 4290490010
0.048276793 -0.14860189 0.66299999 4290424218
0.049534675 -0.1486025 0.66299999 4290161047
0.05079256 -0.14860313 0.66299999 4290226844
0.052050475 -0.14860377 0.66299999 4290226844
0.05330842 -0.14860444 0.66299999 4290095004
0.054566372 -0.14860512 0.66299999 4290029211
0.055824358 -0.14860584 0.66299999 4290029209
0.057082355 -0.14860655 0.66299999 4290095002
0.058340382 -0.14860728 0.66299999 4289898393
0.059598438 -0.14860801 0.66299999 4289701013
0.060764723 -0.14838463 0.662 4289503898
0.06202092 -0.14838542 0.662 4289438105
0.063372731 -0.14861037 0.66299999 4289569171
0.064923331 -0.14928363 0.66600001 4289437842
0.066187203 -0.14928445 0.66600001 4289372049
0.067451112 -0.14928532 0.66600001 4289306255
0.068715036 -0.14928617 0.66600001 4289306001
0.072312675 -0.15152948 0.676 4289240208
0.073595665 -0.1515304 0.676 4289306001
0.074878678 -0.15153132 0.676 4289240208
0.076387055 -0.15198058 0.67799997 4289240208
0.077673927 -0.15198155 0.67799997 4289306255
0.078960814 -0.1519825 0.67799997 4289306255
0.08024776 -0.15198348 0.67799997 4289306255
-0.016650757 -0.15467176 0.69599998 4285358171
-0.015286477 -0.15422685 0.69400001 4289304720
-0.013970057 -0.15422644 0.69400001 4291673268
-0.012635416 -0.15400378 0.69300002 4291476668
-0.011288242 -0.15355892 0.69099998 4291213497
-0.0099342288 -0.15289189 0.68800002 4291213749
-0.0085790642 -0.15200266 0.68400002 4291279542
-0.0072816657 -0.15200236 0.68400002 4291279796
-0.0059755258 -0.15177982 0.68300003 4291279796
-0.0046731895 -0.15155733 0.68199998 4291344816
-0.003379608 -0.15155707 0.68199998 4291542452
-0.002076857 -0.15089019 0.67900002 4291346354
