# .PCD v0.7 - Point Cloud Data file format
VERSION 0.7
FIELDS x y z rgba
SIZE 4 4 4 4
TYPE F F F U
COUNT 1 1 1 1
WIDTH 1038
HEIGHT 1
VIEWPOINT 0 0 0 1 0 0 0
POINTS 1038
DATA ascii
-0.052453645 -0.15381117 0.69800001 4294967295
-0.051055778 -0.15358979 0.69700003 4294967295
-0.049733099 -0.1535888 0.69700003 4294967295
-0.048410438 -0.15358782 0.69700003 4294967295
-0.047087818 -0.15358688 0.69700003 4294967295
-0.045765225 -0.15358593 0.69700003 4294967295
-0.044442657 -0.15358502 0.69700003 4294967295
-0.04312012 -0.15358412 0.69700003 4294967295
-0.041797604 -0.15358323 0.69700003 4294967295
-0.040417045 -0.15336201 0.69599998 4294967295
-0.039096478 -0.15336116 0.69599998 4294967295
-0.03783023 -0.15358074 0.69700003 4294967295
-0.036507819 -0.15357992 0.69700003 4294967295
-0.03518543 -0.15357913 0.69700003 4294967295
-0.033863071 -0.15357837 0.69700003 4294967037
-0.032540735 -0.15357766 0.69700003 4294967295
-0.031263206 -0.15379725 0.69800001 4294967295
-0.029939018 -0.15379657 0.69800001 4294967295
-0.028696837 -0.15423658 0.69999999 4294967295
-0.027407989 -0.15445624 0.70099998 4294967295
-0.026078168 -0.15445563 0.70099998 4294967295
-0.024748363 -0.15445501 0.70099998 4294967295
-0.023485396 -0.15489507 0.70300001 4294967295
-0.022151835 -0.15489452 0.70300001 4294967295
-0.020818289 -0.15489396 0.70300001 4294967295
-0.01942933 -0.15445277 0.70099998 4294967295
-0.018099608 -0.15445226 0.70099998 4294967295
-0.016817752 -0.15489246 0.70300001 4294967295
-0.015484271 -0.154892 0.70300001 4294967295
-0.014170927 -0.15511189 0.704 4294967295
-0.012835573 -0.15511148 0.704 4294967295
-0.011500229 -0.15511107 0.704 4294967295
-0.010208215 -0.15577169 0.70700002 4294967295
-0.0088546611 -0.15555102 0.70599997 4294967295
-0.0075155566 -0.15555069 0.70599997 4294967295
-0.0062202034 -0.15665203 0.71100003 4294967295
-0.0048921867 -0.15731271 0.71399999 4294967295
-0.0035478435 -0.15775311 0.71600002 4294967295
-0.0021928612 -0.1579732 0.71700001 4294967295
-0.00083292992 -0.15797301 0.71700001 4294967295
0.00052920106 -0.15863377 0.72000003 4294967295
0.0019000759 -0.15907423 0.722 4294967295
0.0032694766 -0.15907411 0.722 4294967295
0.0046453001 -0.15929431 0.72299999 4294967295
0.006016592 -0.15929419 0.72299999 4294967295
0.0073878821 -0.15929413 0.72299999 4294967295
0.0087591726 -0.1592941 0.72299999 4292270590
-0.085185476 -0.15666521 0.71700001 4294963690
-0.08347322 -0.15600829 0.71399999 4294768633
-0.082002424 -0.15578839 0.713 4294967295
-0.080422342 -0.15535003 0.71100003 4294966783
-0.079072341 -0.15534866 0.71100003 4294967039
-0.077613048 -0.15512879 0.70999998 4294769400
-0.076050192 -0.1546905 0.708 4294966780
-0.074706003 -0.15468918 0.708 4294966269
-0.073361844 -0.15468788 0.708 4294967039
-0.072017737 -0.15468657 0.708 4294967039
-0.070573844 -0.15446684 0.70700002 4294967295
-0.068937942 -0.15381013 0.704 4294967295
-0.067601539 -0.15380892 0.704 4294967295
-0.066171043 -0.15358919 0.70300001 4294967295
-0.064836614 -0.15358801 0.70300001 4294967295
-0.063321568 -0.15314989 0.70099998 4294967295
-0.061991006 -0.15314874 0.70099998 4294967295
-0.060573936 -0.15292908 0.69999999 4294967295
-0.059245352 -0.15292796 0.69999999 4294967295
-0.057751331 -0.15248995 0.69800001 4294967295
-0.056426607 -0.15248886 0.69800001 4294967295
-0.055101901 -0.15248778 0.69800001 4294967295
-0.053700212 -0.15226829 0.69700003 4294967295
-0.052377474 -0.15226725 0.69700003 4294967295
-0.051054783 -0.15226623 0.69700003 4294967295
-0.049732115 -0.15226525 0.69700003 4294967295
-0.048340015 -0.1520458 0.69599998 4294967295
-0.046816647 -0.15138949 0.69300002 4294967295
-0.045501657 -0.15138856 0.69300002 4294967295
-0.044377983 -0.152043 0.69599998 4294967295
-0.04305736 -0.15204209 0.69599998 4294967295
-0.04173677 -0.15204126 0.69599998 4294967295
-0.040300064 -0.15160349 0.69400001 4294967295
-0.038983315 -0.15160267 0.69400001 4294967295
-0.03777514 -0.15203874 0.69599998 4294967295
-0.036507025 -0.15225638 0.69700003 4294967295
-0.035184667 -0.15225559 0.69700003 4294967295
-0.033862326 -0.15225486 0.69700003 4294967294
-0.032540012 -0.15225412 0.69700003 4294967295
-0.031217711 -0.1522534 0.69700003 4294967295
-0.029938335 -0.15247115 0.69800001 4294967295
-0.028614184 -0.15247048 0.69800001 4294967295
-0.027290057 -0.15246986 0.69800001 4294967295
-0.026040342 -0.15290608 0.69999999 4294967295
-0.02471246 -0.15290545 0.69999999 4294967295
-0.023418006 -0.15312332 0.70099998 4294967295
-0.022088261 -0.15312277 0.70099998 4294967295
-0.020728914 -0.15290377 0.69999999 4294967295
-0.0194011 -0.15290323 0.69999999 4294967295
-0.018099122 -0.15312119 0.70099998 4294967295
-0.016769437 -0.1531207 0.70099998 4294967295
-0.015439773 -0.15312026 0.70099998 4294967295
-0.014110118 -0.15311983 0.70099998 4294967295
-0.012780477 -0.15311942 0.70099998 4294967295
-0.011450845 -0.15311901 0.70099998 4294967295
-0.010164541 -0.15377393 0.704 4294967295
-0.0088543268 -0.15421046 0.70599997 4294967295
-0.0075152437 -0.15421014 0.70599997 4294967295
-0.0061936667 -0.15464669 0.708 4294967295
-0.0048645111 -0.15508325 0.70999998 4294967295
-0.0035228222 -0.15530144 0.71100003 4294967295
-0.0021804043 -0.15573807 0.713 4294967295
-0.00082808267 -0.15573783 0.713 4294967295
0.00052643922 -0.15639293 0.71600002 4294967295
0.0018870726 -0.1566112 0.71700001 4294967295
0.0032605531 -0.15726633 0.72000003 4294967295
0.0046389848 -0.15770307 0.722 4294967295
0.0060166782 -0.15792137 0.72299999 4294967295
0.0073879459 -0.15792131 0.72299999 4294967295
0.0088076731 -0.15879497 0.727 4294967295
-0.084827639 -0.15465382 0.71399999 4294966266
-0.083471812 -0.1546524 0.71399999 4294966013
-0.082001038 -0.15443444 0.713 4294966527
-0.080420986 -0.15399985 0.71100003 4294966527
-0.079070978 -0.15399848 0.71100003 4294967295
-0.077611715 -0.15378055 0.70999998 4294967037
-0.076048866 -0.15334603 0.708 4294967295
-0.074704684 -0.15334471 0.708 4294967294
-0.073360547 -0.15334341 0.708 4294967295
-0.071813017 -0.15290895 0.70599997 4294967295
-0.070273131 -0.15247454 0.704 4294967295
-0.068936698 -0.15247329 0.704 4294967295
-0.067504294 -0.15225548 0.70300001 4294967295
-0.065981597 -0.15182111 0.70099998 4294967295
-0.064650975 -0.15181993 0.70099998 4294967295
-0.063320398 -0.15181874 0.70099998 4294967295
-0.061901417 -0.151601 0.69999999 4294967295
-0.060399756 -0.15116674 0.69800001 4294967295
-0.059074968 -0.15116562 0.69800001 4294967295
-0.057667498 -0.15094796 0.69700003 4294967295
-0.056344688 -0.15094687 0.69700003 4294967295
-0.055021908 -0.1509458 0.69700003 4294967295
-0.053699169 -0.15094475 0.69700003 4294967295
-0.05237646 -0.15094373 0.69700003 4294967295
-0.051053781 -0.15094271 0.69700003 4294967295
-0.049731135 -0.15094174 0.69700003 4294967295
-0.048200157 -0.15029107 0.69400001 4294967295
-0.046815705 -0.15007357 0.69300002 4294967295
-0.045500744 -0.15007266 0.69300002 4294967295
-0.044185802 -0.15007174 0.69300002 4294967295
-0.042870894 -0.15007088 0.69300002 4294967295
-0.041556016 -0.15007001 0.69300002 4294967295
-0.040241156 -0.15006913 0.69300002 4294967295
-0.038982488 -0.15028484 0.69400001 4294967295
-0.037665792 -0.15028405 0.69400001 4294967295
-0.036349118 -0.15028326 0.69400001 4294967295
-0.035133414 -0.15071556 0.69599998 4294967295
-0.033813003 -0.15071484 0.69599998 4294967295
-0.032539286 -0.15093066 0.69700003 4294967295
-0.031217009 -0.15092993 0.69700003 4294967295
-0.029894764 -0.15092926 0.69700003 4294967295
-0.028613526 -0.15114513 0.69800001 4294967295
-0.027289419 -0.15114447 0.69800001 4294967295
-0.025965327 -0.15114385 0.69800001 4294967295
-0.024641259 -0.15114324 0.69800001 4294967295
-0.023417426 -0.15179226 0.70099998 4294967295
-0.022087704 -0.15179171 0.70099998 4294967295
-0.020728387 -0.15157464 0.69999999 4294967295
-0.019400591 -0.15157412 0.69999999 4294967295
-0.018098634 -0.15179016 0.70099998 4294967295
-0.016768973 -0.15178965 0.70099998 4294967295
-0.015439329 -0.1517892 0.70099998 4294967295
-0.014109698 -0.1517888 0.70099998 4294967295
-0.012780078 -0.15178837 0.70099998 4294967295
-0.011450469 -0.151788 0.70099998 4294967295
-0.01014975 -0.1522207 0.70300001 4294967295
-0.008828911 -0.15243687 0.704 4294967295
-0.0075149331 -0.1528696 0.70599997 4294967295
-0.006184631 -0.15308584 0.70700002 4294967295
-0.0048505422 -0.15330209 0.708 4294967295
-0.003517624 -0.15373489 0.70999998 4294967295
-0.0021740668 -0.1539512 0.71100003 4294967295
-0.00082788389 -0.15438405 0.713 4294967295
0.00052440923 -0.15438385 0.713 4294967295
0.0018793298 -0.15460022 0.71399999 4294967295
0.0032470971 -0.15524964 0.71700001 4294967295
0.004626242 -0.15589914 0.72000003 4294967295
0.0060084416 -0.15633208 0.722 4294967295
0.0073777894 -0.156332 0.722 4294967295
0.0087592509 -0.15654849 0.72299999 4294967295
-0.086423479 -0.15372881 0.71600002 4294701808
-0.084707409 -0.15308325 0.713 4294965751
-0.083353505 -0.15308185 0.713 4294834682
-0.081999637 -0.15308048 0.713 4294966011
-0.080419615 -0.15264973 0.71100003 4294966269
-0.079069629 -0.15264836 0.71100003 4294967295
-0.077610366 -0.15243229 0.70999998 4294966780
-0.07594014 -0.15178692 0.70700002 4294967037
-0.074597873 -0.1517856 0.70700002 4294966269
-0.073255658 -0.15178432 0.70700002 4294967039
-0.071811751 -0.15156834 0.70599997 4294967039
-0.070172057 -0.15092304 0.70300001 4294967295
-0.068837546 -0.15092178 0.70300001 4294967295
-0.067215011 -0.15027653 0.69999999 4294967295
-0.065886267 -0.1502753 0.69999999 4294967295
-0.064557575 -0.15027413 0.69999999 4294967295
-0.063228913 -0.15027298 0.69999999 4294967295
-0.061723426 -0.14984249 0.69800001 4294967295
-0.060312103 -0.14962669 0.69700003 4294967295
-0.058989245 -0.14962557 0.69700003 4294967295
-0.057666406 -0.14962445 0.69700003 4294967295
-0.056262776 -0.14940868 0.69599998 4294967295
-0.054784041 -0.14897834 0.69400001 4294967295
-0.053467009 -0.14897728 0.69400001 4294967295
-0.052150007 -0.14897627 0.69400001 4294967295
-0.050833043 -0.14897525 0.69400001 4294967295
-0.049444757 -0.1487596 0.69300002 4294967295
-0.048129752 -0.14875868 0.69300002 4294967295
-0.046814766 -0.14875771 0.69300002 4294967295
-0.045368504 -0.14832747 0.69099998 4294967295
-0.04405738 -0.14832656 0.69099998 4294967295
-0.042746294 -0.1483257 0.69099998 4294967295
-0.041555151 -0.14875413 0.69300002 4294967295
-0.040240318 -0.14875329 0.69300002 4294967295
-0.038925506 -0.14875247 0.69300002 4294967295
-0.037610725 -0.14875166 0.69300002 4294967295
-0.036295965 -0.14875087 0.69300002 4294967295
-0.035132661 -0.14939404 0.69599998 4294967295
-0.033812262 -0.14939331 0.69599998 4294967295
-0.032491878 -0.14939256 0.69599998 4294967295
-0.031171527 -0.14939186 0.69599998 4294967295
-0.029851194 -0.14939117 0.69599998 4294967295
-0.028571876 -0.14960515 0.69700003 4294967295
-0.027249686 -0.14960451 0.69700003 4294967295
-0.025964715 -0.14981852 0.69800001 4294967295
-0.024640668 -0.14981794 0.69800001 4294967295
-0.02331664 -0.14981735 0.69800001 4294967295
-0.022055646 -0.15024607 0.69999999 4294967295
-0.020668635 -0.14981626 0.69800001 4294967295
-0.019344656 -0.14981574 0.69800001 4294967295
-0.018072329 -0.15024452 0.69999999 4294967295
-0.016768511 -0.15045869 0.70099998 4294967295
-0.015438887 -0.15045822 0.70099998 4294967295
-0.014109276 -0.1504578 0.70099998 4294967295
-0.012779682 -0.15045738 0.70099998 4294967295
-0.011450095 -0.15045699 0.70099998 4294967295
-0.010149397 -0.15088591 0.70300001 4294967295
-0.0088285804 -0.1511002 0.704 4294967295
-0.0074933372 -0.15109988 0.704 4294967295
-0.0061755967 -0.15152884 0.70599997 4294967295
-0.0048434278 -0.1517432 0.70700002 4294967295
-0.0035074735 -0.15195759 0.708 4294967295
-0.0021707898 -0.15238662 0.70999998 4294967295
-0.00082536507 -0.15260103 0.71100003 4294967295
0.00052458356 -0.1530301 0.713 4294967295
0.0018768492 -0.15302996 0.713 4294967295
0.0032291114 -0.15302983 0.713 4294967295
0.0046199225 -0.15431747 0.71899998 4294967295
0.0060085254 -0.15496126 0.722 4294967295
0.0073778499 -0.15496118 0.722 4294967295
0.0087471735 -0.15496112 0.722 4294967295
-0.086180642 -0.15194359 0.71399999 4294966009
-0.084468409 -0.15130377 0.71100003 4294967294
-0.083118312 -0.15130238 0.71100003 4294966521
-0.081768252 -0.151301 0.71100003 4294966263
-0.080305137 -0.15108681 0.70999998 4294966009
-0.078734666 -0.15065989 0.708 4294967294
-0.077390432 -0.15065855 0.708 4294966267
-0.075938821 -0.15044443 0.70700002 4294966780
-0.074596576 -0.15044314 0.70700002 4294966526
-0.072839923 -0.14959069 0.70300001 4294967295
-0.071505345 -0.1495894 0.70300001 4294966783
-0.069971174 -0.14916259 0.70099998 4294967295
-0.068542555 -0.14894858 0.69999999 4294967295
-0.067021765 -0.1485218 0.69800001 4294967295
-0.065696843 -0.1485206 0.69800001 4294967295
-0.064371951 -0.14851943 0.69800001 4294967295
-0.063047104 -0.14851826 0.69800001 4294967295
-0.061633859 -0.14830436 0.69700003 4294967295
-0.060310975 -0.14830323 0.69700003 4294967295
-0.058734238 -0.14766379 0.69400001 4294967295
-0.057417125 -0.14766271 0.69400001 4294967295
-0.056100044 -0.14766164 0.69400001 4294967295
-0.054782998 -0.14766058 0.69400001 4294967295
-0.053465985 -0.14765956 0.69400001 4294967295
-0.052149002 -0.14765851 0.69400001 4294967295
-0.050758805 -0.14744477 0.69300002 4294967295
-0.049443796 -0.14744379 0.69300002 4294967295
-0.048128799 -0.14744283 0.69300002 4294967295
-0.046813831 -0.14744189 0.69300002 4294967295
-0.045367606 -0.14701545 0.69099998 4294967295
-0.044056494 -0.14701456 0.69099998 4294967295
-0.042745415 -0.14701366 0.69099998 4294967295
-0.04143437 -0.14701281 0.69099998 4294967295
-0.040123351 -0.14701198 0.69099998 4294967295
-0.038812354 -0.14701116 0.69099998 4294967295
-0.037501387 -0.14701036 0.69099998 4294967295
-0.03629519 -0.14743508 0.69300002 4294967295
-0.034980476 -0.14743431 0.69300002 4294967295
-0.033811525 -0.1480718 0.69599998 4294967295
-0.03249117 -0.14807111 0.69599998 4294967295
-0.031170832 -0.14807038 0.69599998 4294967295
-0.029850522 -0.14806972 0.69599998 4294967295
-0.028571224 -0.1482818 0.69700003 4294967295
-0.027249057 -0.14828117 0.69700003 4294967295
-0.025926905 -0.14828055 0.69700003 4294967295
-0.024604781 -0.14827994 0.69700003 4294967295
-0.023282669 -0.14827937 0.69700003 4294967295
-0.021992082 -0.14849153 0.69800001 4294967295
-0.02066811 -0.14849101 0.69800001 4294967295
-0.019344155 -0.1484905 0.69800001 4294967295
-0.018071849 -0.14891548 0.69999999 4294967295
-0.016744129 -0.14891501 0.69999999 4294967295
-0.015416427 -0.14891458 0.69999999 4294967295
-0.014108861 -0.14912686 0.70099998 4294967295
-0.012779287 -0.14912647 0.70099998 4294967295
-0.011449724 -0.14912608 0.70099998 4294967295
-0.010149047 -0.1495512 0.70300001 4294967295
-0.0088282526 -0.14976357 0.704 4294967295
-0.0074930303 -0.14976326 0.704 4294967295
-0.0061578187 -0.14976296 0.704 4294967295
-0.0048363153 -0.15018816 0.70599997 4294967295
-0.0035022805 -0.15040065 0.70700002 4294967295
-0.0021705723 -0.1510386 0.70999998 4294967295
-0.00082400942 -0.15103841 0.70999998 4294967295
0.00052328425 -0.15125096 0.71100003 4294967295
0.0018769988 -0.15167625 0.713 4294967295
0.0032292379 -0.15167612 0.713 4294967295
0.0046071769 -0.15252692 0.71700001 4294967295
0.0059669968 -0.15252683 0.71700001 4294967295
0.0073472527 -0.15295221 0.71899998 4294967295
0.0087229796 -0.15316491 0.72000003 4294967295
-0.085817136 -0.14995511 0.71100003 4294899705
-0.084467016 -0.14995371 0.71100003 4294966270
-0.083000019 -0.1497414 0.70999998 4294637301
-0.081651874 -0.14974001 0.70999998 4294703094
-0.080303788 -0.14973867 0.70999998 4294637299
-0.07873331 -0.14931551 0.708 4294966521
-0.077279799 -0.14910331 0.70700002 4294768887
-0.075937517 -0.14910197 0.70700002 4294966267
-0.074489765 -0.14888978 0.70599997 4294966270
-0.072838649 -0.14825585 0.70300001 4294966527
-0.071300663 -0.1478328 0.70099998 4294966009
-0.069870122 -0.14762066 0.69999999 4294967295
-0.068541348 -0.14761944 0.69999999 4294967294
-0.067020558 -0.14719646 0.69800001 4294967295
-0.065695658 -0.14719526 0.69800001 4294966783
-0.064370789 -0.1471941 0.69800001 4294967295
-0.063045949 -0.14719293 0.69800001 4294967039
-0.061632723 -0.14698093 0.69700003 4294967295
-0.060223334 -0.14676893 0.69599998 4294967295
-0.058733147 -0.14634608 0.69400001 4294967295
-0.057416048 -0.14634499 0.69400001 4294967295
-0.056018155 -0.14613307 0.69300002 4294967295
-0.05470302 -0.14613201 0.69300002 4294967295
-0.053387921 -0.14613096 0.69300002 4294967295
-0.052147999 -0.14634083 0.69400001 4294967295
-0.050757822 -0.14612898 0.69300002 4294967295
-0.049442831 -0.14612801 0.69300002 4294967295
-0.048127849 -0.14612706 0.69300002 4294967295
-0.046812914 -0.14612611 0.69300002 4294967295
-0.045366693 -0.14570348 0.69099998 4294967295
-0.044055607 -0.14570257 0.69099998 4294967295
-0.042744551 -0.14570169 0.69099998 4294967295
-0.041433521 -0.14570084 0.69099998 4294967295
-0.040122524 -0.14570002 0.69099998 4294967295
-0.038811546 -0.14569922 0.69099998 4294967295
-0.037500598 -0.1456984 0.69099998 4294967295
-0.036189675 -0.14569762 0.69099998 4294967295
-0.034878775 -0.14569688 0.69099998 4294967295
-0.033665061 -0.14611782 0.69300002 4294967295
-0.032350406 -0.14611711 0.69300002 4294967295
-0.031080576 -0.14632726 0.69400001 4294967295
-0.029764077 -0.14632659 0.69400001 4294967295
-0.028529583 -0.14674762 0.69599998 4294967295
-0.027209328 -0.14674696 0.69599998 4294967295
-0.025889099 -0.14674635 0.69599998 4294967295
-0.024568893 -0.14674577 0.69599998 4294967295
-0.023248699 -0.14674519 0.69599998 4294967295
-0.021960035 -0.14695549 0.69700003 4294967295
-0.02066759 -0.14716581 0.69800001 4294967295
-0.019343657 -0.1471653 0.69800001 4294967295
-0.018019738 -0.14716481 0.69800001 4294967295
-0.016743673 -0.147586 0.69999999 4294967295
-0.01541599 -0.14758554 0.69999999 4294967295
-0.014088321 -0.14758514 0.69999999 4294967295
-0.012760666 -0.14758474 0.69999999 4294967295
-0.011433021 -0.14758436 0.69999999 4294967295
-0.010119827 -0.14779483 0.70099998 4294967295
-0.0088153863 -0.14821616 0.70300001 4294967295
-0.007482084 -0.14821586 0.70300001 4294967295
-0.0061575375 -0.1484264 0.704 4294967295
-0.0048223566 -0.14842615 0.704 4294967295
-0.0034871825 -0.14842588 0.704 4294967295
-0.002161186 -0.14905815 0.70700002 4294967295
-0.00082149584 -0.14926878 0.708 4294967295
0.00052271847 -0.14969026 0.70999998 4294967295
0.0018718818 -0.14990096 0.71100003 4294967295
0.0032203051 -0.14990082 0.71100003 4294967295
0.0045815767 -0.15032235 0.713 4294967295
0.005958755 -0.15095477 0.71600002 4294967295
0.0073473095 -0.15158716 0.71899998 4294967295
0.0087108966 -0.15158711 0.71899998 4294967295
0.010088499 -0.15179794 0.72000003 4294967295
0.011485798 -0.15221959 0.722 4294967295
-0.087165892 -0.14860648 0.71100003 4294966267
-0.085695028 -0.14839604 0.70999998 4294834678
-0.084346808 -0.14839463 0.70999998 4294966778
-0.082998633 -0.14839326 0.70999998 4294966263
-0.081420511 -0.14797391 0.708 4294966778
-0.080076225 -0.14797254 0.708 4294966261
-0.078509569 -0.14755321 0.70599997 4294967292
-0.076950558 -0.1471339 0.704 4294967294
-0.07561399 -0.14713258 0.704 4294967294
-0.07417196 -0.14692231 0.70300001 4294967294
-0.072526552 -0.14629406 0.69999999 4294967295
-0.070994288 -0.14587484 0.69800001 4294967295
-0.069669269 -0.14587358 0.69800001 4294967295
-0.068344295 -0.14587235 0.69800001 4294967294
-0.067019358 -0.14587116 0.69800001 4294967295
-0.065694481 -0.14586997 0.69800001 4294967295
-0.064369619 -0.14586881 0.69800001 4294967295
-0.062954485 -0.14565869 0.69700003 4294967295
-0.06163159 -0.14565754 0.69700003 4294967295
-0.060222223 -0.14544746 0.69599998 4294967295
-0.058732051 -0.14502838 0.69400001 4294967295
-0.057414968 -0.14502731 0.69400001 4294967295
-0.056017097 -0.14481728 0.69300002 4294967295
-0.054701984 -0.14481625 0.69300002 4294967295
-0.053386912 -0.14481524 0.69300002 4294967295
-0.052071854 -0.14481422 0.69300002 4294967295
-0.050756842 -0.14481322 0.69300002 4294967295
-0.049441859 -0.14481226 0.69300002 4294967295
-0.04812691 -0.14481132 0.69300002 4294967295
-0.046676885 -0.14439246 0.69099998 4294967295
-0.045365792 -0.14439152 0.69099998 4294967295
-0.044054717 -0.14439063 0.69099998 4294967295
-0.04274369 -0.14438978 0.69099998 4294967295
-0.04137272 -0.14417997 0.69 4294967295
-0.040063631 -0.14417914 0.69 4294967295
-0.038754575 -0.14417833 0.69 4294967295
-0.037445545 -0.14417753 0.69 4294967295
-0.036136538 -0.14417677 0.69 4294967295
-0.034827556 -0.14417601 0.69 4294967295
-0.033664338 -0.14480215 0.69300002 4294967295
-0.032349706 -0.14480141 0.69300002 4294967295
-0.031035108 -0.14480074 0.69300002 4294967295
-0.029720522 -0.14480004 0.69300002 4294967295
-0.028446959 -0.14500833 0.69400001 4294967295
-0.027130524 -0.14500771 0.69400001 4294967295
-0.025814103 -0.14500709 0.69400001 4294967295
-0.02449771 -0.14500651 0.69400001 4294967295
-0.023181338 -0.14500594 0.69400001 4294967295
-0.02192799 -0.14542328 0.69599998 4294967295
-0.020607851 -0.14542276 0.69599998 4294967295
-0.019315448 -0.14563119 0.69700003 4294967295
-0.017993446 -0.1456307 0.69700003 4294967295
-0.016695382 -0.14583918 0.69800001 4294967295
-0.015371514 -0.14583872 0.69800001 4294967295
-0.01404766 -0.14583831 0.69800001 4294967295
-0.012723819 -0.14583792 0.69800001 4294967295
-0.01139999 -0.14583755 0.69800001 4294967295
-0.01011948 -0.14646398 0.70099998 4294967295
-0.0088150622 -0.14688154 0.70300001 4294967295
-0.0074817827 -0.14688122 0.70300001 4294967295
-0.006148512 -0.14688094 0.70300001 4294967295
-0.0048220991 -0.1470896 0.704 4294967295
-0.0034869481 -0.14708935 0.704 4294967295
-0.0021609729 -0.14771593 0.70700002 4294967295
-0.00082014495 -0.14771573 0.70700002 4294967295
0.00052141439 -0.14792448 0.708 4294967295
0.0018693953 -0.14834221 0.70999998 4294967295
0.003215899 -0.14834206 0.70999998 4294967295
0.0045688264 -0.14855088 0.71100003 4294967295
0.0059588337 -0.14959545 0.71600002 4294967295
0.0073269289 -0.14980432 0.71700001 4294967295
0.0086867018 -0.14980428 0.71700001 4294967295
0.010074497 -0.15022211 0.71899998 4294967295
0.011453971 -0.15043105 0.72000003 4294967295
0.012855045 -0.15084894 0.722 4294967295
-0.088514671 -0.14725789 0.71100003 4294374129
-0.087164477 -0.14725649 0.71100003 4294703094
-0.08569362 -0.14704794 0.70999998 4294637301
-0.084345423 -0.14704655 0.70999998 4294966267
-0.082763463 -0.14663096 0.708 4294703094
-0.081419155 -0.14662962 0.708 4294834680
-0.079848677 -0.14621405 0.70599997 4294834678
-0.078285843 -0.1457985 0.704 4294967292
-0.076839954 -0.14559011 0.70300001 4294966780
-0.075290486 -0.14517461 0.70099998 4294967293
-0.073854163 -0.14496626 0.69999999 4294967039
-0.072318085 -0.1445508 0.69800001 4294967295
-0.070993043 -0.14454955 0.69800001 4294967295
-0.069668047 -0.14454833 0.69800001 4294967295
-0.06824518 -0.14434001 0.69700003 4294966780
-0.066922165 -0.14433883 0.69700003 4294967295
-0.065599181 -0.14433765 0.69700003 4294967039
-0.064276248 -0.14433649 0.69700003 4294967295
-0.062863015 -0.14412823 0.69599998 4294967295
-0.061542042 -0.1441271 0.69599998 4294967295
-0.060048074 -0.14371186 0.69400001 4294967039
-0.058646355 -0.1435037 0.69300002 4294967039
-0.057331182 -0.14350262 0.69300002 4294967037
-0.05601605 -0.14350155 0.69300002 4294967295
-0.054543089 -0.14308639 0.69099998 4294967292
-0.05323182 -0.14308535 0.69099998 4294967294
-0.051920585 -0.14308435 0.69099998 4294967294
-0.050609387 -0.14308338 0.69099998 4294967295
-0.049298216 -0.1430824 0.69099998 4294967295
-0.047987074 -0.14308149 0.69099998 4294967295
-0.046608422 -0.14287348 0.69 4294967295
-0.045299239 -0.14287257 0.69 4294967295
-0.04399009 -0.14287169 0.69 4294967294
-0.042680971 -0.14287081 0.69 4294967295
-0.041371882 -0.14286999 0.69 4294967295
-0.040062815 -0.14286914 0.69 4294967295
-0.03875377 -0.14286834 0.69 4294967295
-0.037444763 -0.14286755 0.69 4294967295
-0.036135782 -0.14286681 0.69 4294967295
-0.034826819 -0.14286605 0.69 4294967295
-0.033566456 -0.14307235 0.69099998 4294967295
-0.032255646 -0.14307165 0.69099998 4294967295
-0.03094486 -0.14307098 0.69099998 4294967295
-0.029719865 -0.1434844 0.69300002 4294967295
-0.028405329 -0.14348376 0.69300002 4294967295
-0.027090812 -0.14348313 0.69300002 4294967295
-0.02577631 -0.14348251 0.69300002 4294967295
-0.024461836 -0.14348194 0.69300002 4294967295
-0.023147374 -0.14348136 0.69300002 4294967295
-0.021864442 -0.14368786 0.69400001 4294967295
-0.020607335 -0.14410143 0.69599998 4294967295
-0.01928724 -0.14410093 0.69599998 4294967295
-0.017992975 -0.14430749 0.69700003 4294967295
-0.016671013 -0.14430703 0.69700003 4294967295
-0.015371084 -0.14451364 0.69800001 4294967295
-0.014047254 -0.14451322 0.69800001 4294967295
-0.012723436 -0.14451282 0.69800001 4294967295
-0.011399629 -0.14451246 0.69800001 4294967295
-0.010104702 -0.14492615 0.69999999 4294967295
-0.0087896623 -0.14513285 0.70099998 4294967295
-0.0074601993 -0.14513257 0.70099998 4294967295
-0.0061307433 -0.14513226 0.70099998 4294967295
-0.0048012971 -0.14513202 0.70099998 4294967295
-0.0034867148 -0.14575288 0.704 4294967295
-0.0021577054 -0.14616673 0.70599997 4294967295
-0.00081879616 -0.14616652 0.70599997 4294967295
0.00052084442 -0.14637338 0.70700002 4294967295
0.0018642735 -0.14658028 0.708 4294967295
0.0032160212 -0.1469942 0.70999998 4294967295
0.0045624995 -0.14699408 0.70999998 4294967295
0.0059172986 -0.14720103 0.71100003 4294967295
0.007296327 -0.14782207 0.71399999 4294967295
0.0086746179 -0.1482361 0.71600002 4294967295
0.010046482 -0.1484431 0.71700001 4294967295
0.01143805 -0.14885718 0.71899998 4294967295
0.012855009 -0.14947832 0.722 4294967295
-0.092989817 -0.14447713 0.704 4292991195
-0.091652744 -0.14447568 0.704 4294833399
-0.090315729 -0.14447425 0.704 4294570740
-0.08935792 -0.14508849 0.70700002 4294570740
-0.088139772 -0.14529227 0.708 4294374129
-0.086795285 -0.14529087 0.708 4294966009
-0.085450836 -0.14528947 0.708 4294834680
-0.08410646 -0.14528808 0.708 4294967037
-0.082645208 -0.14508151 0.70700002 4294834680
-0.080957815 -0.14446454 0.704 4294834680
-0.079621144 -0.1444632 0.704 4294834682
-0.078173324 -0.14425667 0.70300001 4294967039
-0.07683865 -0.14425538 0.70300001 4294966269
-0.07518179 -0.14363848 0.69999999 4294966526
-0.073641889 -0.1432268 0.69800001 4294967039
-0.072316833 -0.14322558 0.69800001 4294967295
-0.070890099 -0.14301912 0.69700003 4294967294
-0.069567017 -0.1430179 0.69700003 4294967295
-0.068243988 -0.14301671 0.69700003 4294967295
-0.066824958 -0.14281031 0.69599998 4294967295
-0.065503895 -0.14280915 0.69599998 4294967295
-0.06418287 -0.14280799 0.69599998 4294967295
-0.062861882 -0.14280683 0.69599998 4294967295
-0.061540928 -0.14280571 0.69599998 4294967294
-0.059960447 -0.14218909 0.69300002 4294967295
-0.058645271 -0.14218801 0.69300002 4294967295
-0.057164665 -0.14177658 0.69099998 4294967295
-0.055853348 -0.14177553 0.69099998 4294967295
-0.054542057 -0.14177449 0.69099998 4294967293
-0.053153776 -0.14156832 0.69 4294967295
-0.051844459 -0.14156732 0.69 4294967039
-0.05053518 -0.14156635 0.69 4294967295
-0.049225926 -0.1415654 0.69 4294967295
-0.047916699 -0.14156444 0.69 4294967295
-0.046607509 -0.14156353 0.69 4294967295
-0.045298353 -0.14156264 0.69 4294967295
-0.043861717 -0.14115143 0.68800002 4294967295
-0.042556409 -0.14115056 0.68800002 4294967295
-0.041191172 -0.14094456 0.68699998 4294967295
-0.039887812 -0.14094374 0.68699998 4294967295
-0.038640656 -0.14114811 0.68800002 4294967295
-0.037335455 -0.14114732 0.68800002 4294967295
-0.036030281 -0.14114656 0.68800002 4294967295
-0.034826081 -0.14155613 0.69 4294967295
-0.033565741 -0.14176056 0.69099998 4294967295
-0.032254945 -0.14175984 0.69099998 4294967295
-0.03094418 -0.14175916 0.69099998 4294967295
-0.029633434 -0.14175847 0.69099998 4294967295
-0.028322713 -0.14175786 0.69099998 4294967295
-0.027012013 -0.14175721 0.69099998 4294967295
-0.025775716 -0.14216693 0.69300002 4294967295
-0.02446126 -0.14216635 0.69300002 4294967295
-0.023146825 -0.14216578 0.69300002 4294967295
-0.021832405 -0.14216524 0.69300002 4294967295
-0.020518003 -0.14216472 0.69300002 4294967295
-0.019203616 -0.14216422 0.69300002 4294967295
-0.01796669 -0.14277916 0.69599998 4294967295
-0.016670562 -0.14298387 0.69700003 4294967295
-0.015348637 -0.14298342 0.69700003 4294967295
-0.014026723 -0.142983 0.69700003 4294967295
-0.012704824 -0.14298262 0.69700003 4294967295
-0.011399267 -0.14318739 0.69800001 4294967295
-0.010104362 -0.14359732 0.69999999 4294967295
-0.0087768063 -0.14359698 0.69999999 4294967295
-0.0074492609 -0.14359668 0.69999999 4294967295
-0.0061217239 -0.1435964 0.69999999 4294967295
-0.0048010442 -0.14380127 0.70099998 4294967295
-0.003481532 -0.14421131 0.70300001 4294967295
-0.002151384 -0.14441621 0.704 4294967295
-0.00081629027 -0.14441603 0.704 4294967295
0.00052027236 -0.14482613 0.70599997 4294967295
0.0018617826 -0.14503111 0.70700002 4294967295
0.0032070822 -0.14523612 0.708 4294967295
0.0045625977 -0.14564627 0.70999998 4294967295
0.0059090517 -0.1456462 0.70999998 4294967295
0.0072657233 -0.14585125 0.71100003 4294967295
0.0086504174 -0.14646663 0.71399999 4294967295
0.010004456 -0.1464666 0.71399999 4294967295
0.011390311 -0.14687689 0.71600002 4294967295
-0.092988349 -0.14314048 0.704 4293846761
-0.091651306 -0.14313903 0.704 4294570740
-0.090314291 -0.14313759 0.704 4294307312
-0.089356482 -0.14374615 0.70700002 4294504947
-0.088138364 -0.14394805 0.708 4294374129
-0.086671293 -0.14374332 0.70700002 4294571252
-0.085328758 -0.14374194 0.70700002 4294505458
-0.08398629 -0.14374058 0.70700002 4294966267
-0.082643852 -0.14373921 0.70700002 4294966521
-0.080956474 -0.14312792 0.704 4294834678
-0.07961981 -0.14312659 0.704 4294768633
-0.078172021 -0.14292198 0.70300001 4294966526
-0.076618746 -0.14251406 0.70099998 4294768887
-0.075180523 -0.14230949 0.69999999 4294834680
-0.07364063 -0.14190161 0.69800001 4294966011
-0.072211981 -0.14169708 0.69700003 4294966783
-0.070888877 -0.14169586 0.69700003 4294967294
-0.069565803 -0.14169464 0.69700003 4294967295
-0.068242788 -0.14169344 0.69700003 4294967295
-0.066823788 -0.14148897 0.69599998 4294967295
-0.065502726 -0.14148778 0.69599998 4294967295
-0.064181723 -0.14148663 0.69599998 4294967295
-0.062680118 -0.14107893 0.69400001 4294967294
-0.061362971 -0.14107782 0.69400001 4294967295
-0.059959352 -0.14087343 0.69300002 4294967295
-0.058474939 -0.1404658 0.69099998 4294967295
-0.057163604 -0.14046474 0.69099998 4294967295
-0.055852309 -0.14046369 0.69099998 4294967295
-0.054462109 -0.1402594 0.69 4294967293
-0.052998722 -0.13985185 0.68800002 4294967294
-0.051693209 -0.13985084 0.68800002 4294966783
-0.05038774 -0.1398499 0.68800002 4294967295
-0.049082298 -0.13984895 0.68800002 4294967295
-0.047776885 -0.13984801 0.68800002 4294967295
-0.046471506 -0.13984708 0.68800002 4294967039
-0.045166168 -0.13984621 0.68800002 4294967295
-0.043860856 -0.13984534 0.68800002 4294967295
-0.042555559 -0.13984446 0.68800002 4294967295
-0.041190337 -0.13964036 0.68699998 4294967295
-0.039887011 -0.13963956 0.68699998 4294967295
-0.038639862 -0.13984202 0.68800002 4294967295
-0.037334692 -0.13984124 0.68800002 4294967295
-0.036029533 -0.13984048 0.68800002 4294967295
-0.034724407 -0.13983974 0.68800002 4294967295
-0.033516452 -0.14024554 0.69 4294967295
-0.032207582 -0.14024484 0.69 4294967295
-0.030898727 -0.14024416 0.69 4294967295
-0.029632788 -0.14044675 0.69099998 4294967295
-0.028322088 -0.14044613 0.69099998 4294967295
-0.027011404 -0.1404455 0.69099998 4294967295
-0.025700744 -0.14044489 0.69099998 4294967295
-0.024390098 -0.14044431 0.69099998 4294967295
-0.023079475 -0.14044376 0.69099998 4294967295
-0.021831876 -0.14084971 0.69300002 4294967295
-0.020517496 -0.1408492 0.69300002 4294967295
-0.019203132 -0.1408487 0.69300002 4294967295
-0.017914597 -0.14105147 0.69400001 4294967295
-0.016598366 -0.14105102 0.69400001 4294967295
-0.015326194 -0.14145708 0.69599998 4294967295
-0.014006198 -0.14145668 0.69599998 4294967295
-0.012686215 -0.14145628 0.69599998 4294967295
-0.011382576 -0.14165916 0.69700003 4294967295
-0.010075157 -0.14186205 0.69800001 4294967295
-0.0087764906 -0.1422682 0.69999999 4294967295
-0.0074489661 -0.14226788 0.69999999 4294967295
-0.006121451 -0.1422676 0.69999999 4294967295
-0.0047939452 -0.14226736 0.69999999 4294967295
-0.0034713985 -0.14247033 0.70099998 4294967295
-0.00214201 -0.14247014 0.70099998 4294967295
-0.00081494608 -0.14287642 0.70300001 4294967295
0.00051896117 -0.14307949 0.704 4294967295
0.0018592899 -0.1434858 0.70599997 4294967295
0.0032026712 -0.14368892 0.70700002 4294967295
0.0045498428 -0.14389206 0.708 4294967295
0.0059091267 -0.14429843 0.70999998 4294967295
0.0072555575 -0.14429837 0.70999998 4294967295
0.0086141033 -0.1445016 0.71100003 4294967295
0.0099904528 -0.14490803 0.713 4294967295
0.01135848 -0.14511126 0.71399999 4294967295
-0.092986912 -0.14180385 0.704 4294701556
-0.091649868 -0.14180242 0.704 4294767350
-0.090569444 -0.14220382 0.70599997 4294308336
-0.089355074 -0.14240384 0.70700002 4294571252
-0.088136956 -0.14260384 0.708 4294571506
-0.086669907 -0.14240102 0.70700002 4294637299
-0.085206695 -0.14219823 0.70599997 4294703094
-0.083628543 -0.14179403 0.704 4294966009
-0.082291819 -0.14179268 0.704 4294966263
-0.080840141 -0.14158994 0.70300001 4294966263
-0.079505406 -0.14158861 0.70300001 4294966009
-0.077948309 -0.14118448 0.70099998 4294967295
-0.076508172 -0.14098182 0.69999999 4294967037
-0.074964456 -0.14057772 0.69800001 4294967295
-0.073533878 -0.14037508 0.69700003 4294967295
-0.072210744 -0.14037383 0.69700003 4294967295
-0.070887648 -0.1403726 0.69700003 4294967294
-0.069464795 -0.14016999 0.69599998 4294967295
-0.068143681 -0.14016879 0.69599998 4294967295
-0.066630594 -0.13976485 0.69400001 4294967039
-0.065313354 -0.13976368 0.69400001 4294967295
-0.063996166 -0.13976255 0.69400001 4294967295
-0.062588684 -0.13956001 0.69300002 4294967295
-0.061273459 -0.13955893 0.69300002 4294967295
-0.059958275 -0.13955782 0.69300002 4294967295
-0.058473881 -0.13915399 0.69099998 4294967295
-0.057079837 -0.13895155 0.69 4294967295
-0.055770453 -0.13895053 0.69 4294967295
-0.054303247 -0.13854676 0.68800002 4294967039
-0.052997727 -0.13854574 0.68800002 4294967039
-0.051692236 -0.13854477 0.68800002 4294967039
-0.050386794 -0.13854383 0.68800002 4294967295
-0.049010016 -0.13834147 0.68699998 4294967295
-0.047706522 -0.13834056 0.68699998 4294967039
-0.046403062 -0.13833965 0.68699998 4294967295
-0.045099631 -0.13833874 0.68699998 4294967295
-0.043796226 -0.1383379 0.68699998 4294967295
-0.042492863 -0.13833705 0.68699998 4294967295
-0.041189518 -0.1383362 0.68699998 4294967295
-0.039886206 -0.13833541 0.68699998 4294967295
-0.038582917 -0.13833462 0.68699998 4294967295
-0.037333921 -0.13853519 0.68800002 4294967295
-0.036028787 -0.13853446 0.68800002 4294967295
-0.03472368 -0.13853371 0.68800002 4294967295
-0.033515748 -0.13893571 0.69 4294967295
-0.032206886 -0.13893501 0.69 4294967295
-0.030898064 -0.13893436 0.69 4294967295
-0.029589253 -0.13893367 0.69 4294967295
-0.028321452 -0.13913438 0.69099998 4294967295
-0.027010795 -0.13913378 0.69099998 4294967295
-0.025700154 -0.13913319 0.69099998 4294967295
-0.024389533 -0.13913262 0.69099998 4294967295
-0.02307893 -0.13913205 0.69099998 4294967295
-0.021768348 -0.13913153 0.69099998 4294967295
-0.020457782 -0.13913102 0.69099998 4294967295
-0.01914723 -0.13913052 0.69099998 4294967295
-0.017914135 -0.13973407 0.69400001 4294967295
-0.016597928 -0.13973364 0.69400001 4294967295
-0.015281733 -0.13973323 0.69400001 4294967295
-0.014005796 -0.14013548 0.69599998 4294967295
-0.012685838 -0.14013512 0.69599998 4294967295
-0.01136589 -0.14013475 0.69599998 4294967295
-0.010060389 -0.14033577 0.69700003 4294967295
-0.0087511027 -0.14053676 0.69800001 4294967295
-0.0074486746 -0.14093915 0.69999999 4294967295
-0.0061211814 -0.14093886 0.69999999 4294967295
-0.0047936975 -0.14093861 0.69999999 4294967295
-0.0034711719 -0.1411397 0.70099998 4294967295
-0.0021418054 -0.14113948 0.70099998 4294967295
-0.00081244524 -0.1411393 0.70099998 4294967295
0.00051838486 -0.14154181 0.70300001 4294967295
0.0018541621 -0.141743 0.704 4294967295
0.0031982581 -0.14214554 0.70599997 4294967295
0.0045499378 -0.14254813 0.708 4294967295
0.0059092008 -0.14295073 0.70999998 4294967295
0.0072556078 -0.14295064 0.70999998 4294967295
0.0086141303 -0.14315195 0.71100003 4294967295
0.0099904584 -0.14355463 0.713 4294967295
0.011342554 -0.14355461 0.713 4294967295
-0.093249649 -0.14086631 0.70599997 4294307053
-0.091908813 -0.14086486 0.70599997 4294569968
-0.090568021 -0.14086345 0.70599997 4294044907
-0.089480042 -0.1412611 0.708 4294571252
-0.087886572 -0.14086063 0.70599997 4294505458
-0.086300746 -0.14046022 0.704 4294703094
-0.084963955 -0.14045885 0.704 4294768887
-0.083508402 -0.14025797 0.70300001 4294966009
-0.082173593 -0.14025664 0.70300001 4294966263
-0.080838814 -0.14025532 0.70300001 4294834678
-0.07927791 -0.13985497 0.70099998 4294768887
-0.077835828 -0.13965416 0.69999999 4294967037
-0.07650689 -0.13965288 0.69999999 4294966267
-0.074963197 -0.13925262 0.69800001 4294967295
-0.073532641 -0.13905187 0.69700003 4294967295
-0.072105914 -0.13885111 0.69599998 4294967295
-0.070784725 -0.13884988 0.69599998 4294966780
-0.069263995 -0.13844971 0.69400001 4294967295
-0.06794668 -0.13844851 0.69400001 4294967294
-0.066533424 -0.13824788 0.69300002 4294967295
-0.065218098 -0.1382467 0.69300002 4294967295
-0.063902818 -0.13824558 0.69300002 4294967295
-0.062587582 -0.13824445 0.69300002 4294967039
-0.061095525 -0.13784435 0.69099998 4294967039
-0.059784155 -0.1378433 0.69099998 4294967294
-0.058388188 -0.13764273 0.69 4294967295
-0.05691335 -0.13724273 0.68800002 4294967295
-0.055607777 -0.13724171 0.68800002 4294967295
-0.054302234 -0.13724068 0.68800002 4294967294
-0.052919708 -0.13704021 0.68699998 4294967294
-0.051616132 -0.13703923 0.68699998 4294967039
-0.050312594 -0.13703828 0.68699998 4294967295
-0.049009092 -0.13703735 0.68699998 4294967295
-0.047705609 -0.13703643 0.68699998 4294967295
-0.046402168 -0.13703553 0.68699998 4294967295
-0.045033116 -0.13683517 0.68599999 4294967295
-0.043731626 -0.13683431 0.68599999 4294967295
-0.042492025 -0.13703294 0.68699998 4294967295
-0.041188702 -0.13703212 0.68699998 4294967295
-0.039885405 -0.1370313 0.68699998 4294967295
-0.038582135 -0.13703051 0.68699998 4294967295
-0.037278894 -0.13702975 0.68699998 4294967295
-0.03597568 -0.13702898 0.68699998 4294967295
-0.034722961 -0.13722773 0.68800002 4294967295
-0.033417903 -0.13722703 0.68800002 4294967295
-0.032112855 -0.13722633 0.68800002 4294967295
-0.03080784 -0.13722564 0.68800002 4294967295
-0.029588614 -0.13762392 0.69 4294967295
-0.028279847 -0.13762328 0.69 4294967295
-0.026971105 -0.13762268 0.69 4294967295
-0.025662379 -0.13762207 0.69 4294967295
-0.024353676 -0.13762151 0.69 4294967295
-0.023044992 -0.13762096 0.69 4294967295
-0.021736326 -0.13762043 0.69 4294967295
-0.020457283 -0.13781939 0.69099998 4294967295
-0.019146752 -0.13781887 0.69099998 4294967295
-0.017887864 -0.13821732 0.69300002 4294967295
-0.016573574 -0.13821687 0.69300002 4294967295
-0.015259298 -0.13821644 0.69300002 4294967295
-0.013945037 -0.13821605 0.69300002 4294967295
-0.012649012 -0.13841511 0.69400001 4294967295
-0.011365538 -0.13881363 0.69599998 4294967295
-0.010045622 -0.13881327 0.69599998 4294967295
-0.0087382542 -0.13901241 0.69700003 4294967295
-0.0074271038 -0.13921155 0.69800001 4294967295
-0.0061209132 -0.13961016 0.69999999 4294967295
-0.0047934507 -0.1396099 0.69999999 4294967295
-0.0034659964 -0.13960968 0.69999999 4294967295
-0.0021416028 -0.13980889 0.70099998 4294967295
-0.00081226439 -0.13980871 0.70099998 4294967295
0.00051854417 -0.14020744 0.70300001 4294967295
0.0018542995 -0.14040671 0.704 4294967295
0.0031983738 -0.14080545 0.70599997 4294967295
0.0045436057 -0.14100483 0.70700002 4294967295
0.0058843032 -0.14100474 0.70700002 4294967295
0.0072352197 -0.14120412 0.708 4294967295
0.0086020427 -0.14160296 0.70999998 4294967295
0.0099484287 -0.14160295 0.70999998 4294967295
0.011294816 -0.14160295 0.70999998 4294967295
0.012659009 -0.14180242 0.71100003 4294967295
-0.093380287 -0.1397236 0.70700002 4294176237
-0.092037566 -0.13972217 0.70700002 4294636788
-0.090694897 -0.13972075 0.70700002 4294374129
-0.088973098 -0.13912645 0.704 4294637301
-0.087636217 -0.13912508 0.704 4294571252
-0.086176805 -0.13892607 0.70300001 4294637301
-0.084841907 -0.13892473 0.70300001 4294637047
-0.083507061 -0.13892338 0.70300001 4294834682
-0.082172252 -0.13892204 0.70300001 4294834680
-0.080607519 -0.13852547 0.70099998 4294966009
-0.079276614 -0.13852417 0.70099998 4294966269
-0.077834539 -0.13832527 0.69999999 4294967039
-0.076287024 -0.13792878 0.69800001 4294966526
-0.074961938 -0.13792755 0.69800001 4294967295
-0.073531389 -0.13772866 0.69700003 4294967295
-0.072104685 -0.13752984 0.69599998 4294967295
-0.070580125 -0.13713343 0.69400001 4294967295
-0.06916301 -0.13693467 0.69300002 4294967295
-0.067847617 -0.13693348 0.69300002 4294967295
-0.066532262 -0.13693231 0.69300002 4294967295
-0.065216966 -0.13693117 0.69300002 4294967295
-0.063901685 -0.13693003 0.69300002 4294967295
-0.06240584 -0.13653374 0.69099998 4294967295
-0.061094437 -0.13653265 0.69099998 4294967295
-0.059783079 -0.13653155 0.69099998 4294967295
-0.058217905 -0.13593774 0.68800002 4294967295
-0.056912314 -0.13593671 0.68800002 4294967295
-0.05552594 -0.1357381 0.68699998 4294967295
-0.054222312 -0.13573709 0.68699998 4294967294
-0.052918721 -0.13573611 0.68699998 4294967294
-0.051615167 -0.13573512 0.68699998 4294967295
-0.050238416 -0.13553661 0.68599999 4294967295
-0.048936822 -0.13553569 0.68599999 4294967295
-0.047635261 -0.13553478 0.68599999 4294967295
-0.046333734 -0.13553387 0.68599999 4294967295
-0.04503224 -0.13553299 0.68599999 4294967295
-0.043730777 -0.13553214 0.68599999 4294967295
-0.042429339 -0.13553131 0.68599999 4294967295
-0.041127935 -0.13553049 0.68599999 4294967295
-0.039826553 -0.13552967 0.68599999 4294967295
-0.038581353 -0.13572644 0.68699998 4294967295
-0.037278134 -0.13572569 0.68699998 4294967295
-0.035974942 -0.13572495 0.68699998 4294967295
-0.034671769 -0.13572422 0.68699998 4294967295
-0.033417199 -0.13592109 0.68800002 4294967295
-0.032112177 -0.13592039 0.68800002 4294967295
-0.030807184 -0.13591972 0.68800002 4294967295
-0.029587971 -0.13631418 0.69 4294967295
-0.028279228 -0.13631359 0.69 4294967295
-0.026970506 -0.13631295 0.69 4294967295
-0.025661798 -0.13631237 0.69 4294967295
-0.024353115 -0.13631178 0.69 4294967295
-0.023044454 -0.13631126 0.69 4294967295
-0.02173581 -0.13631074 0.69 4294967295
-0.020456783 -0.13650776 0.69099998 4294967295
-0.019146279 -0.1365073 0.69099998 4294967295
-0.01788741 -0.13690193 0.69300002 4294967295
-0.016573139 -0.13690148 0.69300002 4294967295
-0.015258885 -0.13690108 0.69300002 4294967295
-0.013944643 -0.13690066 0.69300002 4294967295
-0.012648642 -0.13709784 0.69400001 4294967295
-0.011332528 -0.13709746 0.69400001 4294967295
-0.010045292 -0.13749221 0.69599998 4294967295
-0.0087254094 -0.13749191 0.69599998 4294967295
-0.0074161771 -0.13768916 0.69700003 4294967295
-0.0060944166 -0.13768889 0.69700003 4294967295
-0.0047795121 -0.13788618 0.69800001 4294967295
-0.0034558717 -0.13788594 0.69800001 4294967295
-0.0021322377 -0.13788572 0.69800001 4294967295
-0.00080860994 -0.13788557 0.69800001 4294967295
0.00051648839 -0.13828047 0.69999999 4294967295
0.0018518014 -0.13887294 0.70300001 4294967295
0.0031894275 -0.13907035 0.704 4294967295
0.0045244177 -0.13907027 0.704 4294967295
0.0058760508 -0.13946526 0.70599997 4294967295
0.0072148303 -0.13946523 0.70599997 4294967295
0.0085657248 -0.13966273 0.70700002 4294967295
0.0099063991 -0.13966271 0.70700002 4294967295
0.011262982 -0.13986024 0.708 4294967295
0.012605557 -0.13986027 0.708 4294967295
0.014046638 -0.14084806 0.713 4294967039
0.015463491 -0.14144075 0.71600002 4294967039
-0.095123544 -0.13897 0.70999998 4294307053
-0.093378872 -0.13838139 0.70700002 4294044907
-0.092036143 -0.13837996 0.70700002 4294637301
-0.090693489 -0.13837856 0.70700002 4294374129
-0.088971704 -0.13778995 0.704 4294637301
-0.087634832 -0.13778858 0.704 4294703094
-0.086175427 -0.13759148 0.70300001 4294637301
-0.084840551 -0.13759014 0.70300001 4294505458
-0.083505712 -0.1375888 0.70300001 4294637301
-0.081937157 -0.13719603 0.70099998 4294571506
-0.080606215 -0.13719474 0.70099998 4294966263
-0.079162218 -0.13699771 0.69999999 4294966780
-0.077833258 -0.13699643 0.69999999 4294967294
-0.076285757 -0.13660374 0.69800001 4294966011
-0.074960694 -0.13660249 0.69800001 4294967039
-0.07342466 -0.13620983 0.69599998 4294967294
-0.072103456 -0.13620859 0.69599998 4294967295
-0.070578925 -0.13581601 0.69400001 4294967037
-0.069161825 -0.13561913 0.69300002 4294967295
-0.067846447 -0.13561794 0.69300002 4294967294
-0.066531114 -0.13561679 0.69300002 4294967295
-0.065027609 -0.13522427 0.69099998 4294967295
-0.063716158 -0.13522315 0.69099998 4294967295
-0.062404744 -0.13522205 0.69099998 4294967295
-0.061093356 -0.13522094 0.69099998 4294967295
-0.059695505 -0.13502418 0.69 4294967295
-0.058132242 -0.13443609 0.68699998 4294967295
-0.056828558 -0.13443504 0.68699998 4294966780
-0.055524919 -0.13443401 0.68699998 4294967295
-0.054221317 -0.13443303 0.68699998 4294967292
-0.052917749 -0.13443205 0.68699998 4294967292
-0.05161421 -0.13443106 0.68699998 4294967039
-0.050237481 -0.13423446 0.68599999 4294967295
-0.048935909 -0.13423353 0.68599999 4294967295
-0.047634363 -0.13423263 0.68599999 4294967295
-0.046332855 -0.13423175 0.68599999 4294967295
-0.045031376 -0.13423085 0.68599999 4294967295
-0.043729931 -0.13423 0.68599999 4294967295
-0.042428512 -0.13422918 0.68599999 4294967295
-0.041127123 -0.13422836 0.68599999 4294967295
-0.03982576 -0.13422754 0.68599999 4294967295
-0.038524427 -0.13422677 0.68599999 4294967295
-0.037223123 -0.13422602 0.68599999 4294967295
-0.035974208 -0.13442095 0.68699998 4294967295
-0.034671061 -0.13442023 0.68699998 4294967295
-0.033416506 -0.13461521 0.68800002 4294967295
-0.032111503 -0.13461451 0.68800002 4294967295
-0.030761745 -0.13441816 0.68699998 4294967295
-0.02945869 -0.13441752 0.68699998 4294967295
-0.02815566 -0.13441692 0.68699998 4294967295
-0.026852651 -0.13441633 0.68699998 4294967295
-0.025549652 -0.13441573 0.68699998 4294967295
-0.024281975 -0.13461083 0.68800002 4294967295
-0.022977125 -0.1346103 0.68800002 4294967295
-0.021672299 -0.13460979 0.68800002 4294967295
-0.020367483 -0.13460928 0.68800002 4294967295
-0.019062685 -0.13460879 0.68800002 4294967295
-0.017835332 -0.13519527 0.69099998 4294967295
-0.016524877 -0.13519482 0.69099998 4294967295
-0.015214438 -0.13519442 0.69099998 4294967295
-0.013944254 -0.13558534 0.69300002 4294967295
-0.012648272 -0.1357806 0.69400001 4294967295
-0.011332179 -0.13578025 0.69400001 4294967295
-0.0100161 -0.1357799 0.69400001 4294967295
-0.0087251049 -0.13617089 0.69599998 4294967295
-0.0074052527 -0.1361706 0.69599998 4294967295
-0.006094153 -0.13636597 0.69700003 4294967295
-0.0047724233 -0.13636571 0.69700003 4294967295
-0.0034556519 -0.13656116 0.69800001 4294967295
-0.0021320393 -0.13656093 0.69800001 4294967295
-0.00080843311 -0.13656074 0.69800001 4294967295
0.00051664398 -0.13695186 0.69999999 4294967295
0.001851936 -0.13753866 0.70300001 4294967295
0.00318501 -0.13753854 0.70300001 4294967295
0.004524509 -0.1377341 0.704 4294967295
0.0058594747 -0.137734 0.704 4294967295
0.0072148764 -0.13812523 0.70599997 4294967295
0.0085536335 -0.1381252 0.70599997 4294967295
0.0098923901 -0.13812518 0.70599997 4294967295
0.011231147 -0.13812518 0.70599997 4294967295
0.012569908 -0.13812521 0.70599997 4294967295
0.013987473 -0.13890785 0.70999998 4294967295
0.015463407 -0.14008179 0.71600002 4294967295
-0.096606493 -0.13781744 0.71100003 4294505197
-0.095122121 -0.13762215 0.70999998 4294373611
-0.09377367 -0.13762072 0.70999998 4294242541
