# .PCD v0.7 - Point Cloud Data file format
VERSION 0.7
FIELDS x y z rgba
SIZE 4 4 4 4
TYPE F F F U
COUNT 1 1 1 1
WIDTH 1055
HEIGHT 1
VIEWPOINT 0 0 0 1 0 0 0
POINTS 1055
DATA ascii
-0.14934407 -0.21709225 0.68000001 4294967295
-0.1480516 -0.21709184 0.68000001 4294967295
-0.14762247 -0.21836849 0.68400002 4294967295
-0.1463224 -0.21836805 0.68400002 4294967295
-0.14502235 -0.21836762 0.68400002 4294967295
-0.1437223 -0.21836716 0.68400002 4294967295
-0.14242224 -0.21836665 0.68400002 4294967295
-0.14112218 -0.2183661 0.68400002 4294967295
-0.13982214 -0.21836554 0.68400002 4294967295
-0.13852209 -0.21836498 0.68400002 4294967295
-0.13722204 -0.21836434 0.68400002 4294967295
-0.13631943 -0.2190022 0.68599999 4294967295
-0.13501562 -0.21900156 0.68599999 4294967295
-0.13371179 -0.21900089 0.68599999 4294967295
-0.13240795 -0.21900018 0.68599999 4294967295
-0.13110416 -0.21899946 0.68599999 4294967295
-0.12980035 -0.2189987 0.68599999 4294967295
-0.12849654 -0.21899797 0.68599999 4294967295
-0.12719278 -0.21899721 0.68599999 4294967295
-0.125889 -0.21899639 0.68599999 4294967295
-0.12458525 -0.21899559 0.68599999 4294967295
-0.12364092 -0.21963325 0.68800002 4294967295
-0.12233339 -0.21963242 0.68800002 4294967295
-0.12102587 -0.21963155 0.68800002 4294967295
-0.12006636 -0.22026913 0.69 4294967295
-0.11875504 -0.22026822 0.69 4294967295
-0.11761398 -0.22058655 0.69099998 4294967295
-0.11630081 -0.22058563 0.69099998 4294967295
-0.11498766 -0.22058471 0.69099998 4294967295
-0.11400353 -0.22122222 0.69300002 4294967295
-0.11284923 -0.22154051 0.69400001 4294967295
-0.11185184 -0.22217798 0.69599998 4294967295
-0.11068806 -0.22249621 0.69700003 4294967295
-0.10952048 -0.22281444 0.69800001 4294967295
-0.10819414 -0.22281344 0.69800001 4294967295
-0.10717402 -0.22345091 0.69999999 4294967295
-0.10584388 -0.22344986 0.69999999 4294967295
-0.1046631 -0.22376807 0.70099998 4294967295
-0.10362595 -0.22440548 0.70300001 4294967295
-0.10229018 -0.22440444 0.70300001 4294967295
-0.10138524 -0.225361 0.70599997 4294967295
-0.10018555 -0.22567919 0.70700002 4294967295
-0.098982051 -0.22599733 0.708 4294967295
-0.097912684 -0.22663468 0.70999998 4294967295
-0.096563719 -0.22663362 0.70999998 4294967295
-0.095751211 -0.22790937 0.71399999 4294967295
-0.094659112 -0.22854668 0.71600002 4294901247
-0.093820035 -0.22982243 0.72000003 4294967295
-0.093094192 -0.23141733 0.72500002 4294704127
-0.09196987 -0.23205464 0.727 4294967295
-0.20603126 -0.22403665 0.70599997 4294703615
-0.20411062 -0.22340347 0.704 4294900991
-0.20248553 -0.2230875 0.70300001 4294111734
-0.20057806 -0.22245418 0.70099998 4294243576
-0.19839397 -0.22150339 0.69800001 4294374141
-0.19678581 -0.22118726 0.69700003 4294374141
-0.19518138 -0.22087102 0.69599998 4293782772
-0.19330223 -0.2202374 0.69400001 4294177529
-0.19115393 -0.21928634 0.69099998 4294177783
-0.18956648 -0.21896994 0.69 4294638078
-0.18825561 -0.21897078 0.69 4294506494
-0.18694472 -0.2189716 0.69 4294967295
-0.18509568 -0.21833767 0.68800002 4294835455
-0.18378851 -0.21833839 0.68800002 4294901247
-0.18248126 -0.218339 0.68800002 4294900735
-0.18064737 -0.21770489 0.68599999 4294967295
-0.17934385 -0.21770543 0.68599999 4294835455
-0.17804034 -0.21770588 0.68599999 4294967295
-0.17673679 -0.21770637 0.68599999 4294967295
-0.17492174 -0.21707202 0.68400002 4294967295
-0.17336808 -0.21675499 0.68300003 4294967295
-0.17207015 -0.21675532 0.68300003 4294967295
-0.17077218 -0.21675555 0.68300003 4294967295
-0.16947418 -0.21675572 0.68300003 4294967295
-0.16792996 -0.21643853 0.68199998 4294967039
-0.16663381 -0.21643864 0.68199998 4294967295
-0.1653377 -0.21643871 0.68199998 4294967295
-0.1640415 -0.21643871 0.68199998 4294967295
-0.16274533 -0.21643873 0.68199998 4294967039
-0.16144915 -0.2164387 0.68199998 4294967295
-0.16038778 -0.21675596 0.68300003 4294967295
-0.15908967 -0.21675584 0.68300003 4294967295
-0.1575605 -0.21643832 0.68199998 4294967295
-0.15626426 -0.2164381 0.68199998 4294967295
-0.15496799 -0.21643788 0.68199998 4294967295
-0.15322109 -0.21580285 0.68000001 4294967295
-0.15192863 -0.21580257 0.68000001 4294967295
-0.15063617 -0.21580224 0.68000001 4294967295
-0.1493437 -0.21580189 0.68000001 4294967295
-0.14805122 -0.21580149 0.68000001 4294967295
-0.14675875 -0.21580106 0.68000001 4294967295
-0.14546627 -0.21580061 0.68000001 4294967295
-0.14502186 -0.21706952 0.68400002 4294967295
-0.14372177 -0.21706897 0.68400002 4294967295
-0.14242169 -0.21706846 0.68400002 4294967295
-0.1411216 -0.21706787 0.68400002 4294967295
-0.13982154 -0.21706732 0.68400002 4294967295
-0.13831897 -0.21674934 0.68300003 4294967295
-0.1370208 -0.21674871 0.68300003 4294967295
-0.13592136 -0.21706539 0.68400002 4294967295
-0.13462129 -0.21706471 0.68400002 4294967295
-0.13332126 -0.21706402 0.68400002 4294967295
-0.13202122 -0.21706326 0.68400002 4294967295
-0.1307212 -0.21706253 0.68400002 4294967295
-0.12942116 -0.21706174 0.68400002 4294967295
-0.12849575 -0.21769561 0.68599999 4294967295
-0.12719198 -0.21769482 0.68599999 4294967295
-0.12588818 -0.21769401 0.68599999 4294967295
-0.12458441 -0.21769316 0.68599999 4294967295
-0.12346034 -0.21800962 0.68699998 4294967295
-0.1221547 -0.21800876 0.68699998 4294967295
-0.12102497 -0.21832523 0.68800002 4294967295
-0.11971746 -0.21832436 0.68800002 4294967295
-0.11840993 -0.21832342 0.68800002 4294967295
-0.11744285 -0.21895714 0.69 4294967295
-0.11613157 -0.21895617 0.69 4294967295
-0.11482029 -0.21895522 0.69 4294967295
-0.11367358 -0.21927162 0.69099998 4294967295
-0.11268565 -0.21990527 0.69300002 4294967295
-0.11152944 -0.22022158 0.69400001 4294967295
-0.11052825 -0.22085525 0.69599998 4294967295
-0.10936259 -0.22117156 0.69700003 4294967295
-0.10803812 -0.22117054 0.69700003 4294967295
-0.10686678 -0.22148684 0.69800001 4294967295
-0.10599407 -0.22243775 0.70099998 4294967295
-0.10496068 -0.22307132 0.70300001 4294967295
-0.1036249 -0.22307029 0.70300001 4294967295
-0.10228913 -0.22306924 0.70300001 4294967295
-0.10138421 -0.22402005 0.70599997 4294967295
-0.10018447 -0.22433633 0.70700002 4294967295
-0.098980993 -0.22465257 0.708 4294967295
-0.097911626 -0.2252861 0.70999998 4294967295
-0.096562646 -0.22528499 0.70999998 4294967039
-0.09561602 -0.22623582 0.713 4294967295
-0.094261408 -0.22623475 0.713 4294704127
-0.093428038 -0.22750284 0.71700001 4294835455
-0.092707895 -0.22908828 0.722 4294572285
-0.091462746 -0.22940445 0.72299999 4294967039
-0.20900983 -0.22301134 0.70700002 4289503721
-0.20766723 -0.22301291 0.70700002 4294964479
-0.20544906 -0.22206804 0.704 4294703871
-0.20382208 -0.22175401 0.70300001 4294703871
-0.20191082 -0.22112444 0.70099998 4294374904
-0.20029321 -0.22081029 0.69999999 4294506746
-0.19839513 -0.22018057 0.69800001 4294506492
-0.19650456 -0.2195508 0.69599998 4294572285
-0.19462158 -0.21892099 0.69400001 4294243325
-0.19302467 -0.21860652 0.69300002 4294703871
-0.19115488 -0.21797653 0.69099998 4294572285
-0.18956734 -0.21766196 0.69 4294967039
-0.18825644 -0.21766277 0.69 4294901247
-0.18640359 -0.21703263 0.68800002 4294967295
-0.18509638 -0.21703333 0.68800002 4294967295
-0.18378916 -0.21703398 0.68800002 4294967295
-0.18248187 -0.21703456 0.68800002 4294966527
-0.18064791 -0.21640418 0.68599999 4294967295
-0.17882149 -0.21577375 0.68400002 4294967295
-0.17752171 -0.21577418 0.68400002 4294967295
-0.17622189 -0.21577457 0.68400002 4294967295
-0.17492208 -0.21577489 0.68400002 4294967295
-0.17336839 -0.21545973 0.68300003 4294967295
-0.17181845 -0.21514449 0.68199998 4294967295
-0.17052233 -0.21514469 0.68199998 4294967295
-0.16922621 -0.21514484 0.68199998 4294967295
-0.1674376 -0.21451406 0.68000001 4294967295
-0.16614522 -0.21451408 0.68000001 4294967295
-0.16461042 -0.21419866 0.67900002 4294967295
-0.16331992 -0.21419866 0.67900002 4294967295
-0.1620294 -0.21419856 0.67900002 4294967295
-0.16144904 -0.21514487 0.68199998 4294967295
-0.16038767 -0.21546021 0.68300003 4294967295
-0.15885656 -0.21514456 0.68199998 4294967295
-0.15756029 -0.21514437 0.68199998 4294967295
-0.15626402 -0.21514411 0.68199998 4294967295
-0.15496774 -0.21514381 0.68199998 4294967295
-0.15322079 -0.2145126 0.68000001 4294967295
-0.15192829 -0.21451226 0.68000001 4294967295
-0.15063581 -0.2145119 0.68000001 4294967295
-0.14934331 -0.2145115 0.68000001 4294967295
-0.1480508 -0.21451104 0.68000001 4294967295
-0.14675827 -0.21451059 0.68000001 4294967295
-0.14546579 -0.21451008 0.68000001 4294967295
-0.14417326 -0.21450958 0.68000001 4294967295
-0.14330098 -0.2151399 0.68199998 4294967295
-0.14200468 -0.21513931 0.68199998 4294967295
-0.14070837 -0.21513873 0.68199998 4294967295
-0.1396165 -0.21545357 0.68300003 4294967295
-0.1383183 -0.21545294 0.68300003 4294967295
-0.13702011 -0.21545222 0.68300003 4294967295
-0.13592067 -0.215767 0.68400002 4294967295
-0.13462058 -0.21576627 0.68400002 4294967295
-0.13332051 -0.21576551 0.68400002 4294967295
-0.13202046 -0.21576476 0.68400002 4294967295
-0.13072041 -0.215764 0.68400002 4294967295
-0.12942037 -0.21576318 0.68400002 4294967295
-0.12849496 -0.21639325 0.68599999 4294967295
-0.12719114 -0.21639241 0.68599999 4294967295
-0.12588733 -0.21639155 0.68599999 4294967295
-0.12458353 -0.21639067 0.68599999 4294967295
-0.12345947 -0.21670525 0.68699998 4294967295
-0.1221538 -0.21670434 0.68699998 4294967295
-0.12102406 -0.21701887 0.68800002 4294967295
-0.11971651 -0.21701793 0.68800002 4294967295
-0.118409 -0.21701702 0.68800002 4294967295
-0.11710148 -0.21701603 0.68800002 4294967295
-0.115794 -0.21701507 0.68800002 4294967295
-0.11481932 -0.21764491 0.69 4294967295
-0.11367258 -0.21795936 0.69099998 4294967295
-0.11235943 -0.21795839 0.69099998 4294967295
-0.11152843 -0.21890363 0.69400001 4294967295
-0.11020964 -0.21890262 0.69400001 4294967295
-0.10920465 -0.21953242 0.69599998 4294967295
-0.10788208 -0.21953139 0.69599998 4294967295
-0.10671265 -0.21984576 0.69700003 4294967295
-0.10584183 -0.22079097 0.69999999 4294967295
-0.10466102 -0.22110528 0.70099998 4294967295
-0.10362383 -0.22173508 0.70300001 4294967295
-0.10228807 -0.22173397 0.70300001 4294967295
-0.10152673 -0.22299455 0.70700002 4294967295
-0.1001834 -0.22299345 0.70700002 4294967295
-0.098979898 -0.22330774 0.708 4294967295
-0.097910516 -0.22393747 0.70999998 4294967295
-0.096561544 -0.22393635 0.70999998 4294967295
-0.095614932 -0.22488144 0.713 4294967295
-0.094260313 -0.22488037 0.713 4294901247
-0.093036018 -0.22519465 0.71399999 4294835455
-0.092449978 -0.22708595 0.72000003 4294704125
-0.09133514 -0.2277156 0.722 4294967295
-0.21065153 -0.22198376 0.708 4291541682
-0.20901141 -0.22167176 0.70700002 4292925157
-0.20766871 -0.22167324 0.70700002 4294899199
-0.20545046 -0.22073402 0.704 4294243325
-0.20382342 -0.22042182 0.70300001 4294440447
-0.20191208 -0.21979597 0.70099998 4293980148
-0.20029441 -0.21948361 0.69999999 4294374906
-0.19839627 -0.21885765 0.69800001 4294374139
-0.19650561 -0.21823162 0.69599998 4294505981
-0.19462259 -0.2176055 0.69400001 4294177529
-0.19302557 -0.2172929 0.69300002 4294506494
-0.19115572 -0.21666662 0.69099998 4294374906
-0.18956813 -0.21635392 0.69 4294572285
-0.18771152 -0.21572757 0.68800002 4294440186
-0.18640429 -0.21572827 0.68800002 4294967295
-0.18509702 -0.21572891 0.68800002 4294834687
-0.18378976 -0.21572952 0.68800002 4294900735
-0.18195191 -0.21510288 0.68599999 4294834943
-0.1801217 -0.21447627 0.68400002 4294967295
-0.17882191 -0.21447667 0.68400002 4294704127
-0.17726256 -0.21416353 0.68300003 4294967039
-0.17596461 -0.21416385 0.68300003 4294704127
-0.17466663 -0.21416409 0.68300003 4294967295
-0.17336863 -0.21416439 0.68300003 4294835455
-0.17181866 -0.21385098 0.68199998 4294967295
-0.17052248 -0.21385114 0.68199998 4294967295
-0.16922633 -0.21385123 0.68199998 4294967295
-0.16743767 -0.21322417 0.68000001 4294835455
-0.16614525 -0.21322417 0.68000001 4294967295
-0.16461042 -0.21291061 0.67900002 4294967295
-0.16331987 -0.21291055 0.67900002 4294967295
-0.16202931 -0.21291043 0.67900002 4294967295
-0.16073875 -0.21291029 0.67900002 4294967295
-0.16015264 -0.21385081 0.68199998 4294967295
-0.15885635 -0.2138506 0.68199998 4294967295
-0.15756005 -0.21385033 0.68199998 4294967039
-0.15626372 -0.21385005 0.68199998 4294967295
-0.1549674 -0.21384971 0.68199998 4294901247
-0.15322043 -0.21322225 0.68000001 4294967295
-0.15192792 -0.21322186 0.68000001 4294967295
-0.15063541 -0.21322148 0.68000001 4294967295
-0.14934286 -0.21322103 0.68000001 4294967295
-0.14805031 -0.21322055 0.68000001 4294967295
-0.14675778 -0.21322004 0.68000001 4294967295
-0.14546525 -0.21321954 0.68000001 4294967295
-0.1441727 -0.21321894 0.68000001 4294967295
-0.14288017 -0.21321838 0.68000001 4294967295
-0.14200407 -0.21384485 0.68199998 4294967295
-0.14070773 -0.21384422 0.68199998 4294967295
-0.13941143 -0.21384357 0.68199998 4294967295
-0.13831763 -0.21415643 0.68300003 4294967295
-0.13701943 -0.21415573 0.68300003 4294967295
-0.13572121 -0.21415499 0.68300003 4294967295
-0.13442302 -0.21415423 0.68300003 4294967295
-0.13312484 -0.21415347 0.68300003 4294967295
-0.13201967 -0.21446624 0.68400002 4294967295
-0.13071962 -0.21446542 0.68400002 4294967295
-0.12941955 -0.21446459 0.68400002 4294967295
-0.12849413 -0.21509084 0.68599999 4294967295
-0.12719028 -0.21508996 0.68599999 4294967295
-0.12588647 -0.21508908 0.68599999 4294967295
-0.12458264 -0.21508816 0.68599999 4294967295
-0.12327886 -0.21508728 0.68599999 4294967295
-0.12197507 -0.21508631 0.68599999 4294967295
-0.1208472 -0.21539891 0.68699998 4294967295
-0.11954155 -0.21539792 0.68699998 4294967295
-0.11840803 -0.21571054 0.68800002 4294967295
-0.11710052 -0.21570955 0.68800002 4294967295
-0.11579302 -0.21570857 0.68800002 4294967295
-0.11481833 -0.21633461 0.69 4294967295
-0.11350706 -0.2163336 0.69 4294967295
-0.11235843 -0.21664609 0.69099998 4294967295
-0.1113667 -0.2172721 0.69300002 4294967295
-0.11020859 -0.2175846 0.69400001 4294967295
-0.10920359 -0.21821059 0.69599998 4294967295
-0.10788103 -0.21820951 0.69599998 4294967295
-0.10671157 -0.21852197 0.69700003 4294967295
-0.10553836 -0.21883442 0.69800001 4294967295
-0.10451063 -0.21946034 0.69999999 4294967295
-0.10332794 -0.21977276 0.70099998 4294967295
-0.10199598 -0.21977167 0.70099998 4294967295
-0.10095122 -0.22039758 0.70300001 4294967295
-0.1001823 -0.2216505 0.70700002 4294967295
-0.098839 -0.22164942 0.70700002 4294967295
-0.097633623 -0.22196181 0.708 4294967295
-0.096560434 -0.22258767 0.70999998 4294967295
-0.095345601 -0.22290005 0.71100003 4294967295
-0.094259195 -0.22352596 0.713 4294901247
-0.092904612 -0.22352481 0.713 4294901247
-0.091935255 -0.22446421 0.71600002 4294769150
-0.091334 -0.226344 0.722 4294966527
-0.089962371 -0.22634286 0.722 4294704127
-0.089327 -0.2282227 0.72799999 4294967295
-0.087944031 -0.22822157 0.72799999 4294836223
-0.21289591 -0.2215756 0.71100003 4290887109
-0.21065307 -0.22064221 0.708 4293979637
-0.20930852 -0.22064373 0.708 4294176759
-0.20767014 -0.2203335 0.70700002 4294440188
-0.20515999 -0.21908826 0.70300001 4294111738
-0.20324481 -0.21846621 0.70099998 4294506239
-0.20162523 -0.21815577 0.69999999 4294177529
-0.20029551 -0.21815687 0.69999999 4294506494
-0.19782884 -0.21691135 0.69599998 4294177531
-0.19594197 -0.21628904 0.69400001 4294440447
-0.19462349 -0.21628995 0.69400001 4294440699
-0.19246942 -0.21535587 0.69099998 4294835455
-0.19087991 -0.21504501 0.69 4294703357
-0.18956891 -0.21504578 0.69 4294967295
-0.18771224 -0.21442316 0.68800002 4294901247
-0.18640494 -0.21442379 0.68800002 4294967295
-0.18482858 -0.2141127 0.68699998 4294967295
-0.18352315 -0.21411328 0.68699998 4294967295
-0.1819524 -0.21380207 0.68599999 4294967295
-0.18012215 -0.21317919 0.68400002 4294967295
-0.17882228 -0.21317956 0.68400002 4294967039
-0.17726287 -0.2128682 0.68300003 4294967295
-0.17596488 -0.21286851 0.68300003 4294967039
-0.17466688 -0.21286874 0.68300003 4294967295
-0.17311497 -0.21255726 0.68199998 4294967295
-0.17181879 -0.21255738 0.68199998 4294967295
-0.17052257 -0.21255748 0.68199998 4294967295
-0.16873012 -0.21193421 0.68000001 4294967295
-0.16743769 -0.21193425 0.68000001 4294967295
-0.1659009 -0.21162252 0.67900002 4294967295
-0.16461034 -0.21162246 0.67900002 4294967295
-0.16331975 -0.21162239 0.67900002 4294967295
-0.16202916 -0.21162219 0.67900002 4294967295
-0.16073857 -0.21162207 0.67900002 4294967295
-0.15968275 -0.21193348 0.68000001 4294967295
-0.15839025 -0.21193324 0.68000001 4294967295
-0.15709771 -0.21193296 0.68000001 4294967295
-0.15626341 -0.21255594 0.68199998 4294967295
-0.15496705 -0.21255559 0.68199998 4294967295
-0.15322007 -0.21193188 0.68000001 4294967295
-0.1519275 -0.21193144 0.68000001 4294967295
-0.15063496 -0.21193101 0.68000001 4294967295
-0.14934237 -0.2119305 0.68000001 4294967295
-0.14804982 -0.21192999 0.68000001 4294967295
-0.14675723 -0.21192947 0.68000001 4294967295
-0.1454647 -0.2119289 0.68000001 4294967295
-0.14417213 -0.21192831 0.68000001 4294967295
-0.14287955 -0.21192764 0.68000001 4294967295
-0.14200343 -0.21255033 0.68199998 4294967295
-0.14070708 -0.21254966 0.68199998 4294967295
-0.13941073 -0.21254896 0.68199998 4294967295
-0.13811441 -0.21254827 0.68199998 4294967295
-0.13681807 -0.21254751 0.68199998 4294967295
-0.13572046 -0.21285839 0.68300003 4294967295
-0.13422541 -0.21254593 0.68199998 4294967295
-0.13292913 -0.2125452 0.68199998 4294967295
-0.13163282 -0.21254432 0.68199998 4294967295
-0.13052766 -0.21285518 0.68300003 4294967295
-0.1294187 -0.21316595 0.68400002 4294967295
-0.12849326 -0.21378836 0.68599999 4294967295
-0.1271894 -0.21378745 0.68599999 4294967295
-0.12588556 -0.21378654 0.68599999 4294967295
-0.12458173 -0.2137856 0.68599999 4294967295
-0.12327793 -0.21378466 0.68599999 4294967295
-0.12197413 -0.21378368 0.68599999 4294967295
-0.12067035 -0.21378273 0.68599999 4294967295
-0.11954058 -0.21409337 0.68699998 4294967295
-0.11823493 -0.21409239 0.68699998 4294967295
-0.11709952 -0.21440303 0.68800002 4294967295
-0.11579201 -0.21440205 0.68800002 4294967295
-0.11481731 -0.21502425 0.69 4294967295
-0.11350603 -0.2150232 0.69 4294967295
-0.11219478 -0.21502216 0.69 4294967295
-0.11104425 -0.21533273 0.69099998 4294967295
-0.10973112 -0.21533166 0.69099998 4294967295
-0.10888872 -0.21626544 0.69400001 4294967295
-0.10787994 -0.21688758 0.69599998 4294967295
-0.10671049 -0.2171981 0.69700003 4294967295
-0.10553726 -0.21750866 0.69800001 4294967295
-0.10450953 -0.21813074 0.69999999 4294967295
-0.10332683 -0.21844126 0.70099998 4294967295
-0.10199485 -0.21844013 0.70099998 4294967295
-0.10066291 -0.21843901 0.70099998 4294967295
-0.099756077 -0.21937273 0.704 4294967295
-0.098837875 -0.22030643 0.70700002 4294967295
-0.097632483 -0.22061692 0.708 4294967295
-0.096287318 -0.22061577 0.708 4294967295
-0.095344484 -0.22154944 0.71100003 4294967295
-0.09425807 -0.22217149 0.713 4294901247
-0.092903465 -0.22217034 0.713 4294967295
-0.0919341 -0.22310397 0.71600002 4294704127
-0.090953358 -0.22403763 0.71899998 4294704127
-0.089961231 -0.22497123 0.722 4294572285
-0.088957749 -0.22590488 0.72500002 4294704127
-0.087822087 -0.22652693 0.727 4294506751
-0.086559929 -0.22683734 0.72799999 4294901759
-0.085177019 -0.22683622 0.72799999 4291286514
-0.21289748 -0.22022837 0.71100003 4291150538
-0.21124965 -0.21992011 0.70999998 4293979637
-0.2099012 -0.21992153 0.70999998 4293980150
-0.2079652 -0.2193034 0.708 4294177529
-0.20516124 -0.2177559 0.70300001 4293979896
-0.20324598 -0.21713758 0.70099998 4294374654
-0.20162636 -0.216829 0.69999999 4293980148
-0.19943821 -0.21590079 0.69700003 4294177783
-0.19782981 -0.21559203 0.69599998 4293980150
-0.19594289 -0.21497345 0.69400001 4294243323
-0.19434398 -0.21466458 0.69300002 4294440699
-0.19247019 -0.21404587 0.69099998 4294638078
-0.19088067 -0.21373688 0.69 4294374139
-0.18956962 -0.21373756 0.69 4294900735
-0.18771285 -0.21311864 0.68800002 4294638078
-0.18640554 -0.21311925 0.68800002 4294967295
-0.1848291 -0.21281001 0.68699998 4294703871
-0.18325648 -0.21250074 0.68599999 4294967039
-0.18142238 -0.21188164 0.68400002 4294901247
-0.18012254 -0.21188204 0.68400002 4294967295
-0.1785612 -0.21157259 0.68300003 4294638078
-0.17700365 -0.21126309 0.68199998 4294967039
-0.17570747 -0.21126331 0.68199998 4294966783
-0.17466705 -0.2115733 0.68300003 4294967295
-0.17311509 -0.21126366 0.68199998 4294900735
-0.17181888 -0.21126372 0.68199998 4294966783
-0.17052266 -0.21126379 0.68199998 4294901247
-0.16873012 -0.21064425 0.68000001 4294967295
-0.16743766 -0.21064422 0.68000001 4294967295
-0.16590084 -0.21033439 0.67900002 4294967295
-0.16461024 -0.21033429 0.67900002 4294967039
-0.16331962 -0.21033415 0.67900002 4294967295
-0.16202897 -0.21033394 0.67900002 4294967295
-0.16073835 -0.21033372 0.67900002 4294967295
-0.15968251 -0.21064323 0.68000001 4294967295
-0.15838996 -0.2106429 0.68000001 4294967295
-0.15709737 -0.21064261 0.68000001 4294967295
-0.1558048 -0.21064223 0.68000001 4294967295
-0.15451223 -0.21064183 0.68000001 4294901247
-0.15321964 -0.2106414 0.68000001 4294967295
-0.15170364 -0.2103312 0.67900002 4294967295
-0.15041293 -0.21033069 0.67900002 4294967295
-0.14912224 -0.21033016 0.67900002 4294967295
-0.14804927 -0.21063937 0.68000001 4294967295
-0.14675666 -0.21063881 0.68000001 4294967295
-0.14546408 -0.21063823 0.68000001 4294967295
-0.14417151 -0.21063757 0.68000001 4294967295
-0.1428789 -0.21063693 0.68000001 4294967295
-0.14200276 -0.21125574 0.68199998 4294967295
-0.14070638 -0.21125504 0.68199998 4294967295
-0.13941 -0.21125433 0.68199998 4294967295
-0.13811365 -0.21125355 0.68199998 4294967295
-0.13681732 -0.21125282 0.68199998 4294967295
-0.13552095 -0.21125199 0.68199998 4294967295
-0.13422464 -0.2112512 0.68199998 4294967295
-0.13253848 -0.21063086 0.68000001 4294967295
-0.13124596 -0.21063001 0.68000001 4294967295
-0.13033566 -0.21124864 0.68199998 4294967295
-0.12922861 -0.21155751 0.68300003 4294704125
-0.12811774 -0.21186635 0.68400002 4294967295
-0.12681766 -0.21186543 0.68400002 4294901247
-0.12551762 -0.21186449 0.68400002 4294967295
-0.12421758 -0.21186353 0.68400002 4294966783
-0.12327697 -0.21248205 0.68599999 4294967295
-0.12197317 -0.21248105 0.68599999 4294967039
-0.12066937 -0.21248007 0.68599999 4294967295
-0.11936559 -0.21247904 0.68599999 4294967295
-0.11823391 -0.21278773 0.68699998 4294967295
-0.11709849 -0.2130965 0.68800002 4294967295
-0.11579096 -0.21309541 0.68800002 4294967295
-0.11481627 -0.21371384 0.69 4294967295
-0.11350498 -0.21371277 0.69 4294967295
-0.11219371 -0.21371168 0.69 4294967295
-0.11104318 -0.21402036 0.69099998 4294967295
-0.10973005 -0.21401924 0.69099998 4294967295
-0.10888764 -0.2149473 0.69400001 4294967295
-0.10787885 -0.21556568 0.69599998 4294967039
-0.1067094 -0.21587425 0.69700003 4294967295
-0.10553616 -0.21618286 0.69800001 4294967039
-0.10450842 -0.21680115 0.69999999 4294967295
-0.10317831 -0.21680003 0.69999999 4294967295
-0.10184824 -0.21679889 0.69999999 4294967295
-0.10066178 -0.21710745 0.70099998 4294835455
-0.099613249 -0.21772575 0.70300001 4294967295
-0.098836713 -0.21896341 0.70700002 4294967295
-0.097631343 -0.21927197 0.708 4294967295
-0.09628617 -0.21927081 0.708 4294835455
-0.095343329 -0.22019875 0.71100003 4294967295
-0.093992509 -0.2201976 0.71100003 4294967295
-0.092902325 -0.22081588 0.713 4294901247
-0.091676153 -0.22112435 0.71399999 4294704127
-0.090572707 -0.22174263 0.71600002 4294704127
-0.089337088 -0.22205113 0.71700001 4294506492
-0.088956587 -0.22452752 0.72500002 4294506492
-0.087820917 -0.22514576 0.727 4294374906
-0.086558782 -0.22545426 0.72799999 4294967295
-0.085175857 -0.22545308 0.72799999 4293325567
-0.21200067 -0.21795748 0.708 4292269280
-0.21035846 -0.21765107 0.70700002 4294045691
-0.20901567 -0.21765243 0.70700002 4294045941
-0.20767276 -0.21765374 0.70700002 4294177783
-0.20457874 -0.21580778 0.70099998 4294111734
-0.20237732 -0.21488532 0.69800001 4294638078
-0.20076333 -0.21457854 0.69700003 4294374906
-0.19915304 -0.21427168 0.69599998 4294638078
-0.1972623 -0.2136569 0.69400001 4294440699
-0.19594379 -0.21365781 0.69400001 4294704127
-0.19434479 -0.21335077 0.69300002 4294704125
-0.19247098 -0.2127358 0.69099998 4294901247
-0.19088137 -0.2124286 0.69 4294572285
-0.18957028 -0.21242927 0.69 4294967295
-0.18771344 -0.21181414 0.68800002 4294967295
-0.18640608 -0.21181466 0.68800002 4294967295
-0.18482959 -0.21150723 0.68699998 4294967039
-0.18325691 -0.21119982 0.68599999 4294967295
-0.18142274 -0.21058445 0.68400002 4294967295
-0.17985952 -0.2102769 0.68300003 4294967295
-0.17856146 -0.2102772 0.68300003 4294967295
-0.17700385 -0.20996951 0.68199998 4294967295
-0.17570767 -0.20996971 0.68199998 4294967295
-0.17441143 -0.20996985 0.68199998 4294967295
-0.17260751 -0.20935422 0.68000001 4294967295
-0.17106317 -0.20904639 0.67900002 4294967295
-0.16977255 -0.20904641 0.67900002 4294967295
-0.16848195 -0.20904636 0.67900002 4294967295
-0.16719136 -0.20904629 0.67900002 4294967295
-0.16590072 -0.20904617 0.67900002 4294967295
-0.16436763 -0.20873816 0.67799997 4294967295
-0.16307887 -0.20873791 0.67799997 4294967295
-0.16179012 -0.20873772 0.67799997 4294967295
-0.16050133 -0.20873745 0.67799997 4294967295
-0.15968221 -0.20935288 0.68000001 4294967295
-0.15838961 -0.20935258 0.68000001 4294967295
-0.15709701 -0.20935221 0.68000001 4294967295
-0.15580441 -0.20935178 0.68000001 4294967295
-0.15451179 -0.20935136 0.68000001 4294967295
-0.15321916 -0.2093509 0.68000001 4294967295
-0.15170313 -0.20904255 0.67900002 4294967295
-0.15041241 -0.209042 0.67900002 4294967295
-0.14912169 -0.20904145 0.67900002 4294967295
-0.14783098 -0.20904087 0.67900002 4294967295
-0.14654024 -0.20904024 0.67900002 4294967295
-0.14524955 -0.20903961 0.67900002 4294967295
-0.14395881 -0.20903894 0.67900002 4294967295
-0.14287822 -0.20934612 0.68000001 4294967295
-0.14158562 -0.2093454 0.68000001 4294967295
-0.14029302 -0.20934467 0.68000001 4294967295
-0.13900045 -0.2093439 0.68000001 4294967295
-0.13811289 -0.20995884 0.68199998 4294967295
-0.13681649 -0.20995803 0.68199998 4294967295
-0.13552015 -0.20995721 0.68199998 4294967295
-0.13383016 -0.20934063 0.68000001 4294967295
-0.13253763 -0.20933981 0.68000001 4294967295
-0.13124511 -0.20933893 0.68000001 4294967295
-0.13033479 -0.20995371 0.68199998 4294967295
-0.12922771 -0.2102607 0.68300003 4294967295
-0.1281168 -0.21056759 0.68400002 4294967295
-0.12681673 -0.21056661 0.68400002 4294901247
-0.12551665 -0.21056567 0.68400002 4294967295
-0.12421661 -0.2105647 0.68400002 4294967295
-0.12327597 -0.21117933 0.68599999 4294967295
-0.12197214 -0.21117833 0.68599999 4294967039
-0.12066834 -0.2111773 0.68599999 4294967295
-0.11936457 -0.21117632 0.68599999 4294967295
-0.11823288 -0.21148308 0.68699998 4294967295
-0.11692724 -0.21148205 0.68699998 4294967295
-0.11578991 -0.21178879 0.68800002 4294967295
-0.1144824 -0.2117877 0.68800002 4294967295
-0.11350391 -0.21240231 0.69 4294967295
-0.11219263 -0.21240123 0.69 4294967295
-0.11088137 -0.21240009 0.69 4294967295
-0.10972894 -0.21270677 0.69099998 4294967295
-0.10841583 -0.21270569 0.69099998 4294967295
-0.10787772 -0.21424367 0.69599998 4294967295
-0.10655515 -0.21424252 0.69599998 4294967295
-0.10538381 -0.21454923 0.69700003 4294967295
-0.10420867 -0.21485591 0.69800001 4294967295
-0.10288238 -0.21485476 0.69800001 4294967295
-0.1015561 -0.21485357 0.69800001 4294967295
-0.10051703 -0.21546805 0.69999999 4294967039
-0.099328689 -0.21577469 0.70099998 4294967295
-0.09883558 -0.2176204 0.70700002 4294967295
-0.097492278 -0.21761924 0.70700002 4294967295
-0.096285008 -0.21792586 0.708 4294967295
-0.095208056 -0.2185403 0.70999998 4294967295
-0.093991347 -0.21884693 0.71100003 4294967295
-0.093031444 -0.21976911 0.71399999 4294901247
-0.091674976 -0.21976794 0.71399999 4294835455
-0.090571538 -0.22038238 0.71600002 4294835455
-0.089335911 -0.22068897 0.71700001 4294506492
-0.089200802 -0.22376572 0.727 4294440699
-0.087819748 -0.22376455 0.727 4294243574
-0.086438701 -0.22376336 0.727 4294967295
-0.085057698 -0.22376217 0.727 4294836223
-0.21334676 -0.21661432 0.708 4292795878
-0.21170267 -0.21630979 0.70700002 4292927980
-0.21035984 -0.21631117 0.70700002 4293849082
-0.20901693 -0.21631242 0.70700002 4293914355
-0.2059115 -0.21447787 0.70099998 4293980148
-0.20428807 -0.21417308 0.69999999 4293914101
-0.20208848 -0.21325631 0.69700003 4294374652
-0.20047627 -0.21295133 0.69599998 4294045941
-0.19915399 -0.21295226 0.69599998 4294374906
-0.19726321 -0.21234122 0.69400001 4294177783
-0.19566227 -0.21203609 0.69300002 4294506492
-0.19378465 -0.2114249 0.69099998 4294440699
-0.19219315 -0.21111964 0.69 4294704127
-0.19088201 -0.21112028 0.69 4294506492
-0.18902138 -0.21050897 0.68800002 4294967295
-0.18771403 -0.21050949 0.68800002 4294967295
-0.18613559 -0.21020395 0.68699998 4294967295
-0.18483001 -0.21020438 0.68699998 4294704127
-0.1832573 -0.2098988 0.68599999 4294901247
-0.1814231 -0.2092872 0.68400002 4294834943
-0.1798598 -0.20898151 0.68300003 4294967295
-0.17856169 -0.20898172 0.68300003 4294901247
-0.17648494 -0.20806397 0.68000001 4294967039
-0.17519253 -0.20806415 0.68000001 4294704127
-0.1739001 -0.20806423 0.68000001 4294967295
-0.17235376 -0.20775829 0.67900002 4294967039
-0.17106318 -0.20775829 0.67900002 4294967295
-0.16977252 -0.20775826 0.67900002 4294835455
-0.16823375 -0.20745219 0.67799997 4294967295
-0.16694501 -0.20745209 0.67799997 4294967295
-0.16590056 -0.20775789 0.67900002 4294967295
-0.16436744 -0.20745172 0.67799997 4294835455
-0.16307865 -0.20745148 0.67799997 4294967295
-0.16178985 -0.20745124 0.67799997 4294967039
-0.160501 -0.20745087 0.67799997 4294967295
-0.15944703 -0.20775653 0.67900002 4294901247
-0.15815632 -0.20775618 0.67900002 4294967295
-0.15709662 -0.20806178 0.68000001 4294638078
-0.15580398 -0.20806131 0.68000001 4294967295
-0.15451132 -0.20806083 0.68000001 4294967039
-0.15299335 -0.20775436 0.67900002 4294967295
-0.15170261 -0.20775382 0.67900002 4294967039
-0.15041186 -0.20775329 0.67900002 4294967295
-0.14912112 -0.20775267 0.67900002 4294967295
-0.14783035 -0.20775205 0.67900002 4294967039
-0.14653961 -0.20775142 0.67900002 4294901247
-0.14524889 -0.20775074 0.67900002 4294967295
-0.14395812 -0.20775001 0.67900002 4294967295
-0.1426674 -0.20774934 0.67900002 4294967295
-0.14137666 -0.20774856 0.67900002 4294967295
-0.14029226 -0.20805375 0.68000001 4294967295
-0.13899964 -0.20805296 0.68000001 4294967295
-0.13770704 -0.20805213 0.68000001 4294967295
-0.13641447 -0.20805134 0.68000001 4294967295
-0.13512187 -0.20805047 0.68000001 4294967039
-0.13382931 -0.2080496 0.68000001 4294703357
-0.13253675 -0.2080487 0.68000001 4294967295
-0.1312442 -0.20804782 0.68000001 4294966783
-0.13033387 -0.20865878 0.68199998 4294966783
-0.12903753 -0.2086578 0.68199998 4294967039
-0.12792853 -0.20896281 0.68300003 4294967039
-0.12681574 -0.20926778 0.68400002 4294374906
-0.12551567 -0.2092668 0.68400002 4294967039
-0.1242156 -0.20926578 0.68400002 4294967295
-0.12327496 -0.20987666 0.68599999 4294967295
-0.12197112 -0.20987561 0.68599999 4294901247
-0.1206673 -0.20987457 0.68599999 4294967295
-0.11936349 -0.20987351 0.68599999 4294967039
-0.11823183 -0.21017836 0.68699998 4294967295
-0.11692616 -0.21017729 0.68699998 4294967295
-0.11578882 -0.21048215 0.68800002 4294967295
-0.11448131 -0.21048106 0.68800002 4294967295
-0.11350279 -0.21109177 0.69 4294967295
-0.11219152 -0.21109067 0.69 4294967295
-0.11088024 -0.21108954 0.69 4294967295
-0.10972781 -0.21139434 0.69099998 4294967295
-0.10841469 -0.21139319 0.69099998 4294967295
-0.10710161 -0.21139207 0.69099998 4294967039
-0.10655399 -0.2129205 0.69599998 4294967039
-0.10538267 -0.21322529 0.69700003 4294966527
-0.10405823 -0.21322413 0.69700003 4294967295
-0.10273383 -0.21322295 0.69700003 4294900735
-0.10155495 -0.21352769 0.69800001 4294966527
-0.10051586 -0.21413833 0.69999999 4294901247
-0.09932752 -0.21444306 0.70099998 4294967295
-0.098834388 -0.21627732 0.70700002 4294967295
-0.097491093 -0.21627611 0.70700002 4294967295
-0.096283808 -0.21658084 0.708 4294704127
-0.095206864 -0.21719146 0.70999998 4294967039
-0.093990155 -0.21749616 0.71100003 4294967295
-0.092899956 -0.21810679 0.713 4294901247
-0.091545396 -0.21810558 0.713 4294835455
-0.090570353 -0.21902208 0.71600002 4294835455
-0.089334726 -0.21932678 0.71700001 4294440699
-0.088586114 -0.22085503 0.722 4294440699
-0.087576963 -0.22177155 0.72500002 4294243574
-0.086437508 -0.22238208 0.727 4294835455
-0.085056514 -0.22238092 0.727 4294704383
-0.084020831 -0.22329737 0.73000002 4293585651
-0.082634173 -0.22329623 0.73000002 4287803355
-0.21469286 -0.21527109 0.708 4290953422
-0.21304682 -0.21496847 0.70700002 4293321971
-0.21170405 -0.21496984 0.70700002 4293913851
-0.21036112 -0.21497115 0.70700002 4294374399
-0.20901817 -0.21497238 0.70700002 4294111988
-0.20591265 -0.21314913 0.70099998 4294243574
-0.20428915 -0.21284613 0.69999999 4294243576
-0.20208947 -0.21193497 0.69700003 4294704127
-0.20047723 -0.21163186 0.69599998 4294374904
-0.19915488 -0.21163276 0.69599998 4294638332
-0.19726403 -0.21102546 0.69400001 4294440699
-0.19566306 -0.21072216 0.69300002 4294704127
-0.19378535 -0.21011469 0.69099998 4294572285
-0.19219378 -0.20981126 0.69 4294901247
-0.19032933 -0.20920371 0.68800002 4294704127
-0.18902192 -0.20920427 0.68800002 4294967295
-0.18744162 -0.20890069 0.68699998 4294967295
-0.18613604 -0.20890112 0.68699998 4294967295
-0.18483038 -0.20890146 0.68699998 4294835455
-0.18325759 -0.20859772 0.68599999 4294967295
-0.18115813 -0.20768578 0.68300003 4294901247
-0.17986003 -0.20768602 0.68300003 4294967295
-0.17830044 -0.20738211 0.68199998 4294967039
-0.17648511 -0.20677409 0.68000001 4294967295
-0.174935 -0.20647013 0.67900002 4294835455
-0.17364438 -0.20647013 0.67900002 4294967295
-0.17235376 -0.20647015 0.67900002 4294967295
-0.17106311 -0.20647013 0.67900002 4294967295
-0.16977246 -0.20647004 0.67900002 4294967039
-0.16823362 -0.20616584 0.67799997 4294967295
-0.16694483 -0.20616567 0.67799997 4294967295
-0.16590036 -0.20646955 0.67900002 4294967295
-0.16436721 -0.20616522 0.67799997 4294967295
-0.16307838 -0.20616497 0.67799997 4294967295
-0.16178954 -0.20616464 0.67799997 4294967295
-0.16050068 -0.2061643 0.67799997 4294967295
-0.15944667 -0.206468 0.67900002 4294967039
-0.1581559 -0.2064676 0.67900002 4294967295
-0.15686512 -0.20646714 0.67900002 4294901247
-0.15557437 -0.20646667 0.67900002 4294967295
-0.1542836 -0.20646617 0.67900002 4294967295
-0.15299281 -0.20646563 0.67900002 4294967295
-0.1514786 -0.20616096 0.67799997 4294967295
-0.15018974 -0.20616038 0.67799997 4294967295
-0.14912049 -0.20646384 0.67900002 4294967295
-0.14782971 -0.20646317 0.67900002 4294967295
-0.14653894 -0.2064625 0.67900002 4294967295
-0.14524816 -0.20646179 0.67900002 4294967295
-0.14395739 -0.20646107 0.67900002 4294967295
-0.14266665 -0.20646031 0.67900002 4294967295
-0.1413759 -0.20645952 0.67900002 4294967295
-0.14008516 -0.20645873 0.67900002 4294967295
-0.13899885 -0.20676197 0.68000001 4294967295
-0.13770621 -0.20676114 0.68000001 4294967295
-0.1364136 -0.20676029 0.68000001 4294967295
-0.135121 -0.20675941 0.68000001 4294967295
-0.13382842 -0.2067585 0.68000001 4294704127
-0.13253582 -0.20675755 0.68000001 4294967039
-0.13124327 -0.20675664 0.68000001 4294835455
-0.1299507 -0.20675567 0.68000001 4294704127
-0.12903658 -0.2073628 0.68199998 4294901247
-0.12792756 -0.20766589 0.68300003 4294967295
-0.12681474 -0.20796891 0.68400002 4294901247
-0.12551466 -0.20796791 0.68400002 4294967295
-0.12421457 -0.20796686 0.68400002 4294967295
-0.12327392 -0.20857392 0.68599999 4294967295
-0.12197006 -0.20857283 0.68599999 4294967295
-0.12066624 -0.20857175 0.68599999 4294967295
-0.11936242 -0.20857067 0.68599999 4294967295
-0.11823075 -0.20887364 0.68699998 4294967295
-0.11692507 -0.20887251 0.68699998 4294967295
-0.11578772 -0.20917544 0.68800002 4294967295
-0.11448019 -0.20917434 0.68800002 4294967295
-0.11350165 -0.20978126 0.69 4294967295
-0.11219039 -0.20978013 0.69 4294967295
-0.11103981 -0.21008299 0.69099998 4294967295
-0.10972667 -0.21008186 0.69099998 4294967295
-0.10841355 -0.21008068 0.69099998 4294967295
-0.10710046 -0.21007952 0.69099998 4294967039
-0.10624667 -0.21099043 0.69400001 4294901247
-0.10523028 -0.21159728 0.69599998 4294966783
-0.10405705 -0.21190013 0.69700003 4294967295
-0.10273266 -0.21189892 0.69700003 4294967039
-0.10155375 -0.21220177 0.69800001 4294967295
-0.1002275 -0.21220057 0.69800001 4294967295
-0.099184647 -0.21280737 0.69999999 4294967295
-0.098274022 -0.21371824 0.70300001 4294967295
-0.097489908 -0.21493305 0.70700002 4294967295
-0.096282616 -0.21523581 0.708 4294704127
-0.09520565 -0.2158426 0.70999998 4294835455
-0.093988933 -0.2161454 0.71100003 4294901247
-0.092898756 -0.2167522 0.713 4294901247
-0.091544196 -0.21675099 0.713 4294835709
-0.090569131 -0.21766175 0.71600002 4294967295
-0.089208938 -0.21766056 0.71600002 4294440699
-0.088584915 -0.2194833 0.722 4294440699
-0.087213367 -0.21948209 0.722 4294374904
-0.086436309 -0.22100084 0.727 4294638332
-0.085055321 -0.22099967 0.727 4294572285
-0.083789431 -0.22130242 0.72799999 4294901247
-0.082632981 -0.22190921 0.73000002 4292995822
-0.081246376 -0.22190802 0.73000002 4280889910
-0.21573383 -0.21362571 0.70700002 4291018947
-0.21439107 -0.21362716 0.70700002 4291084752
-0.21304822 -0.21362852 0.70700002 4293585142
-0.21140584 -0.21332765 0.70599997 4293914105
-0.21006481 -0.2133289 0.70599997 4294111484
-0.20872365 -0.21333005 0.70599997 4294045941
-0.20591377 -0.21182033 0.70099998 4294243576
-0.20429015 -0.21151915 0.69999999 4294045941
-0.20209043 -0.21061362 0.69700003 4294440699
-0.20047812 -0.21031234 0.69599998 4294045682
-0.19915573 -0.21031319 0.69599998 4294308597
-0.19726482 -0.20970961 0.69400001 4294242806
-0.19509906 -0.2088038 0.69099998 4294703357
-0.19350556 -0.20850226 0.69 4294243576
-0.19163728 -0.20789851 0.68800002 4294506492
-0.19032988 -0.20789906 0.68800002 4294637308
-0.18902241 -0.20789956 0.68800002 4294900735
-0.18744208 -0.20759781 0.68699998 4294374906
-0.18613641 -0.20759818 0.68699998 4294638078
-0.18456167 -0.20729633 0.68599999 4294572285
-0.18272364 -0.20669228 0.68400002 4294704127
-0.18115835 -0.20639031 0.68300003 4294835455
-0.17959687 -0.20608829 0.68199998 4294967295
-0.17751625 -0.20518187 0.67900002 4294638078
-0.17622566 -0.20518199 0.67900002 4294638078
-0.17493504 -0.20518205 0.67900002 4294440699
-0.17364439 -0.20518202 0.67900002 4294967295
-0.17235373 -0.20518199 0.67900002 4294901247
-0.17106305 -0.20518193 0.67900002 4294967039
-0.16977234 -0.20518179 0.67900002 4294703357
-0.16823347 -0.20487942 0.67799997 4294966527
-0.16694464 -0.20487924 0.67799997 4294967039
-0.16565579 -0.204879 0.67799997 4294967295
-0.16436693 -0.20487872 0.67799997 4294901247
-0.16307808 -0.2048784 0.67799997 4294967295
-0.16178918 -0.20487803 0.67799997 4294967295
-0.1605003 -0.20487764 0.67799997 4294967295
-0.15944625 -0.20517941 0.67900002 4294704127
-0.15815546 -0.20517899 0.67900002 4294967295
-0.15686466 -0.2051785 0.67900002 4294704127
-0.15557387 -0.20517802 0.67900002 4294967295
-0.15428305 -0.20517743 0.67900002 4294967295
-0.15299223 -0.20517686 0.67900002 4294967295
-0.15147801 -0.20487407 0.67799997 4294835455
-0.1501891 -0.20487344 0.67799997 4294967295
-0.14890021 -0.20487279 0.67799997 4294901247
-0.14761131 -0.2048721 0.67799997 4294967295
-0.14653823 -0.20517354 0.67900002 4294901247
-0.14524744 -0.20517284 0.67900002 4294967295
-0.14395665 -0.20517206 0.67900002 4294967295
-0.14266585 -0.20517127 0.67900002 4294967295
-0.14137508 -0.20517047 0.67900002 4294835455
-0.14008434 -0.20516966 0.67900002 4294967295
-0.13899799 -0.20547096 0.68000001 4294901247
-0.13770534 -0.2054701 0.68000001 4294901247
-0.13641271 -0.20546919 0.68000001 4294638332
-0.13512008 -0.2054683 0.68000001 4294901247
-0.13382748 -0.20546736 0.68000001 4294835455
-0.13253488 -0.2054664 0.68000001 4294901247
-0.13124231 -0.20546544 0.68000001 4294704125
-0.12994975 -0.20546448 0.68000001 4294835455
-0.12903559 -0.20606777 0.68199998 4294835455
-0.12811384 -0.20667104 0.68400002 4294967295
-0.12662832 -0.20636788 0.68300003 4294967039
-0.12533014 -0.20636685 0.68300003 4294967295
-0.12421352 -0.20666791 0.68400002 4294967295
-0.12327285 -0.20727116 0.68599999 4294967295
-0.121969 -0.20727006 0.68599999 4294704127
-0.12066516 -0.20726897 0.68599999 4294967039
-0.11936133 -0.20726785 0.68599999 4294901247
-0.11822963 -0.2075689 0.68699998 4294967295
-0.11692394 -0.20756775 0.68699998 4294967295
-0.11578659 -0.20786874 0.68800002 4294967295
-0.11447904 -0.20786759 0.68800002 4294704125
-0.11350051 -0.2084707 0.69 4294967295
-0.11218923 -0.20846957 0.69 4294966783
-0.11103866 -0.20877051 0.69099998 4294966527
-0.1097255 -0.20876934 0.69099998 4294834941
-0.10841238 -0.20876817 0.69099998 4294967039
-0.10709927 -0.20876698 0.69099998 4294835455
-0.10624545 -0.20967215 0.69400001 4294967039
-0.10522909 -0.21027522 0.69599998 4294967295
-0.10390656 -0.210274 0.69599998 4294967295
-0.10273144 -0.21057492 0.69700003 4294967039
-0.10140707 -0.21057372 0.69700003 4294967295
-0.10022631 -0.2108746 0.69800001 4294967295
-0.099183425 -0.21147761 0.69999999 4294967295
-0.0982728 -0.21238272 0.70300001 4294967295
-0.097488679 -0.21358995 0.70700002 4294967295
-0.096281379 -0.21389079 0.708 4294703357
-0.095204443 -0.21449378 0.70999998 4294966527
-0.093855545 -0.21449259 0.70999998 4294901247
-0.092897527 -0.21539763 0.713 4294901247
-0.091542982 -0.2153964 0.713 4294572539
-0.090314932 -0.21569727 0.71399999 4294572539
-0.089207716 -0.21630026 0.71600002 4294440697
-0.087970234 -0.21660109 0.71700001 4294440697
-0.087212153 -0.21811037 0.722 4294177781
-0.085840635 -0.21810915 0.722 4294374904
-0.0850541 -0.21961841 0.727 4294374906
-0.083788231 -0.21991925 0.72799999 4294967295
-0.082631789 -0.22052224 0.73000002 4293982207
-0.081245169 -0.220521 0.73000002 4285034113
-0.21573529 -0.21228577 0.70700002 4291216842
-0.21439245 -0.21228716 0.70700002 4291742936
-0.21304955 -0.21228847 0.70700002 4294243327
-0.2114071 -0.21198943 0.70599997 4294177783
-0.20857826 -0.21048926 0.70099998 4294177783
-0.20724656 -0.21049036 0.70099998 4294243574
-0.20562106 -0.21019115 0.69999999 4294506746
-0.20370746 -0.20959154 0.69800001 4294243576
-0.20209135 -0.20929216 0.69700003 4294572285
-0.20047897 -0.20899272 0.69599998 4294242804
-0.19858421 -0.20839296 0.69400001 4294440184
-0.19698131 -0.2080934 0.69300002 4294506233
-0.19481736 -0.2071932 0.69 4294967295
-0.19350617 -0.20719382 0.69 4294638332
-0.19163783 -0.20659383 0.68800002 4294704125
-0.1900537 -0.206294 0.68699998 4294638078
-0.18874808 -0.20629445 0.68699998 4294967295
-0.18744244 -0.20629483 0.68699998 4294704127
-0.18586582 -0.20599487 0.68599999 4294967295
-0.18402387 -0.20539457 0.68400002 4294638079
-0.18272386 -0.20539483 0.68400002 4294703871
-0.18115853 -0.20509474 0.68300003 4294834943
-0.17959701 -0.20479454 0.68199998 4294967295
-0.17751634 -0.20389381 0.67900002 4294967295
-0.17622572 -0.20389387 0.67900002 4294967295
-0.17493501 -0.20389386 0.67900002 4294967039
-0.17364433 -0.20389381 0.67900002 4294967295
-0.17235364 -0.20389374 0.67900002 4294967295
-0.1710629 -0.20389362 0.67900002 4294967295
-0.16977216 -0.20389345 0.67900002 4294835199
-0.16823326 -0.20359294 0.67799997 4294967295
-0.1669444 -0.2035927 0.67799997 4294967295
-0.16565551 -0.20359242 0.67799997 4294967295
-0.1643666 -0.20359209 0.67799997 4294967295
-0.16307771 -0.20359175 0.67799997 4294967295
-0.16178879 -0.20359135 0.67799997 4294967295
-0.16049989 -0.20359094 0.67799997 4294967295
-0.15944581 -0.20389077 0.67900002 4294967295
-0.15815498 -0.20389031 0.67900002 4294967295
-0.15686414 -0.20388979 0.67900002 4294967295
-0.15557331 -0.20388927 0.67900002 4294967295
-0.15428247 -0.20388862 0.67900002 4294967295
-0.15276632 -0.20358777 0.67799997 4294901247
-0.15103054 -0.20298657 0.676 4294901247
-0.14974543 -0.20298591 0.676 4294967295
-0.14889953 -0.20358577 0.67799997 4294967295
-0.14761059 -0.20358503 0.67799997 4294967295
-0.14653748 -0.20388457 0.67900002 4294901247
-0.14524667 -0.2038838 0.67900002 4294967295
-0.14395587 -0.20388305 0.67900002 4294967295
-0.14266503 -0.2038822 0.67900002 4294967295
-0.14137426 -0.20388137 0.67900002 4294901247
-0.1402898 -0.20418081 0.68000001 4294967295
-0.13899712 -0.20417988 0.68000001 4294967295
-0.13770446 -0.20417902 0.68000001 4294967295
-0.13641179 -0.20417805 0.68000001 4294901247
-0.13511916 -0.20417713 0.68000001 4294967295
-0.13382652 -0.20417616 0.68000001 4294901502
-0.13253391 -0.20417519 0.68000001 4294901502
-0.13124131 -0.20417419 0.68000001 4294966783
-0.13033094 -0.20477369 0.68199998 4294967295
-0.12903456 -0.20477271 0.68199998 4294835455
-0.12792553 -0.20507191 0.68300003 4294967039
-0.12662728 -0.20507085 0.68300003 4294967039
-0.12532906 -0.2050698 0.68300003 4294901247
-0.12403085 -0.20506872 0.68300003 4294967295
-0.12291237 -0.20536786 0.68400002 4294967295
-0.12161229 -0.20536675 0.68400002 4294967039
-0.12031226 -0.20536561 0.68400002 4294967295
-0.11936022 -0.205965 0.68599999 4294967295
-0.1182285 -0.20626411 0.68699998 4294967295
-0.11692281 -0.20626293 0.68699998 4294967295
-0.11561716 -0.20626177 0.68699998 4294967295
-0.1144779 -0.20656087 0.68800002 4294703871
-0.11349937 -0.20716016 0.69 4294967295
-0.11218806 -0.20715897 0.69 4294967039
-0.11087678 -0.20715778 0.69 4294901247
-0.10956552 -0.2071566 0.69 4294704127
-0.10841119 -0.20745561 0.69099998 4294967295
-0.10709807 -0.20745437 0.69099998 4294967295
-0.10624425 -0.20835385 0.69400001 4294967295
-0.10492551 -0.20835266 0.69400001 4294967039
-0.10390535 -0.20895186 0.69599998 4294901247
-0.10258282 -0.20895061 0.69599998 4294967039
-0.10140584 -0.20924965 0.69700003 4294901247
-0.10022507 -0.20954862 0.69800001 4294967295
-0.098898843 -0.20954742 0.69800001 4294967295
-0.097991981 -0.21044676 0.70099998 4294967295
-0.097349547 -0.21194659 0.70599997 4294967295
-0.096280158 -0.21254577 0.708 4294704127
-0.09493503 -0.21254453 0.708 4294901247
-0.093854308 -0.21314369 0.70999998 4294835709
-0.09289629 -0.21404304 0.713 4294901502
-0.091541752 -0.2140418 0.713 4294572285
-0.09031371 -0.21434076 0.71399999 4294506492
-0.089206502 -0.21493994 0.71600002 4294506233
-0.087969013 -0.21523888 0.71700001 4294769148
-0.087210923 -0.2167386 0.722 4294243576
-0.085839406 -0.21673736 0.722 4294243576
-0.085403852 -0.21913767 0.73000002 4294243576
-0.084017195 -0.21913642 0.73000002 4294967295
-0.082630567 -0.21913521 0.73000002 4294310143
-0.081355251 -0.21943414 0.73100001 4289902016
-0.21573667 -0.21094577 0.70700002 4291350229
-0.21439376 -0.21094707 0.70700002 4291875551
-0.21274939 -0.21064992 0.70599997 4293849341
-0.21080938 -0.21005437 0.704 4293716978
-0.20857935 -0.20916033 0.70099998 4294111736
-0.20724757 -0.20916137 0.70099998 4294046195
-0.205622 -0.208864 0.69999999 4294177781
-0.20370837 -0.20826815 0.69800001 4293980150
-0.20209222 -0.20797065 0.69700003 4294374652
-0.20047975 -0.20767303 0.69599998 4294177011
-0.19858496 -0.20707701 0.69400001 4294374390
-0.19641347 -0.20618252 0.69099998 4294111734
-0.19481799 -0.20588474 0.69 4294638078
-0.19294582 -0.20528853 0.68800002 4294374906
-0.19163832 -0.20528902 0.68800002 4294440699
-0.19005415 -0.20499104 0.68699998 4294374906
-0.18874846 -0.20499144 0.68699998 4294704127
-0.18744275 -0.20499177 0.68699998 4294440699
-0.1858661 -0.2046937 0.68599999 4294835455
-0.18402413 -0.20409715 0.68400002 4294637308
-0.18272401 -0.20409732 0.68400002 4294703357
-0.18115868 -0.20379908 0.68300003 4294636795
-0.17959712 -0.20350079 0.68199998 4294966271
-0.1775164 -0.20260571 0.67900002 4294900735
-0.17622569 -0.20260568 0.67900002 4294966527
-0.174935 -0.20260565 0.67900002 4294835455
-0.17364426 -0.20260556 0.67900002 4294967295
-0.17235352 -0.20260544 0.67900002 4294835455
-0.17081079 -0.20230688 0.67799997 4294901247
-0.16952191 -0.20230666 0.67799997 4294572287
-0.16823302 -0.20230642 0.67799997 4294901247
-0.1669441 -0.20230614 0.67799997 4294704125
-0.1656552 -0.20230582 0.67799997 4294967295
-0.16436628 -0.20230547 0.67799997 4294901502
