# .PCD v0.7 - Point Cloud Data file format
VERSION 0.7
FIELDS x y z rgba
SIZE 4 4 4 4
TYPE F F F U
COUNT 1 1 1 1
WIDTH 1042
HEIGHT 1
VIEWPOINT 0 0 0 1 0 0 0
POINTS 1042
DATA ascii
-0.027064931 0.036464043 0.69300002 4294967295
-0.025751233 0.036463697 0.69300002 4294967295
-0.024437563 0.036463372 0.69300002 4294967295
-0.023157274 0.036515661 0.69400001 4294967295
-0.021841757 0.036515366 0.69400001 4294967295
-0.020526253 0.036515079 0.69400001 4294967295
-0.019210774 0.036514807 0.69400001 4294967295
-0.01794688 0.036619775 0.69599998 4294967295
-0.016651539 0.036672153 0.69700003 4294967295
-0.015330427 0.036671925 0.69700003 4294967295
-0.014009331 0.036671713 0.69700003 4294967295
-0.012706452 0.036724124 0.69800001 4294967295
-0.011383492 0.036723945 0.69800001 4294967295
-0.01008937 0.036829002 0.69999999 4294967295
-0.0087751606 0.036881458 0.70099998 4294967295
-0.0074677966 0.036986552 0.70300001 4294967295
-0.0061441339 0.037039045 0.704 4294967295
-0.0048098578 0.037038937 0.704 4294967295
-0.0034854633 0.037144065 0.70599997 4294967295
-0.002153496 0.037249207 0.708 4294967295
-0.00081395387 0.037354372 0.70999998 4294967295
0.00053241488 0.03740694 0.71100003 4294967295
0.0018852139 0.037512131 0.713 4294967295
0.003241051 0.037564728 0.71399999 4294967295
0.0045942417 0.037564728 0.71399999 4294967295
0.005964091 0.037669972 0.71600002 4294967295
0.0073210709 0.037670001 0.71600002 4294967295
0.00869017 0.037722655 0.71700001 4294967295
0.010077078 0.037827943 0.71899998 4294967295
0.011439747 0.037828021 0.71899998 4294967295
0.012802422 0.037828118 0.71899998 4294967295
0.014440916 0.038564797 0.73299998 4294967295
0.015830139 0.038564932 0.73299998 4294967295
0.017219363 0.038565069 0.73299998 4294967292
0.018608596 0.03856523 0.73299998 4294967295
-0.11314263 0.039410498 0.722 4290361006
-0.11146113 0.03930008 0.72000003 4291478717
-0.10994022 0.039244261 0.71899998 4294439402
-0.10857419 0.039243046 0.71899998 4294373098
-0.10735731 0.039296415 0.72000003 4294307305
-0.10584228 0.039240636 0.71899998 4294044898
-0.10418584 0.039130308 0.71700001 4293979105
-0.10268047 0.039074566 0.71600002 4294110693
-0.10061292 0.038800552 0.71100003 4294176487
-0.09912286 0.038744848 0.70999998 4294373096
-0.097774394 0.038743727 0.70999998 4294438889
-0.096018538 0.03857892 0.70700002 4294438889
-0.094274163 0.038414132 0.704 4294702060
-0.092937283 0.038413059 0.704 4294439141
-0.091600448 0.038411997 0.704 4294833899
-0.09013547 0.038356386 0.70300001 4294702060
-0.088800684 0.03835535 0.70300001 4294833647
-0.087217107 0.038245216 0.70099998 4294834162
-0.085763708 0.038189653 0.69999999 4294834162
-0.0844348 0.03818867 0.69999999 4294833647
-0.082868487 0.03807858 0.69800001 4294899440
-0.08154349 0.038077619 0.69800001 4294834162
-0.080218546 0.038076669 0.69800001 4294899955
-0.078780636 0.038021192 0.69700003 4294899955
-0.077457711 0.038020268 0.69700003 4294834162
-0.076134831 0.038019355 0.69700003 4294965235
-0.07481201 0.038018465 0.69700003 4294965492
-0.073489241 0.038017582 0.69700003 4294899955
-0.072062984 0.037962168 0.69599998 4294966263
-0.070742227 0.037961315 0.69599998 4294966263
-0.069222048 0.037851401 0.69400001 4294967290
-0.067905188 0.037850577 0.69400001 4294967290
-0.066492446 0.037795234 0.69300002 4294967290
-0.065177582 0.037794445 0.69300002 4294967290
-0.063678466 0.037684586 0.69099998 4294967291
-0.062367506 0.037683822 0.69099998 4294967291
-0.060968228 0.037628539 0.69 4294967291
-0.059659269 0.037627805 0.69 4294967292
-0.058181208 0.037518021 0.68800002 4294967292
-0.056876123 0.037517317 0.68800002 4294967287
-0.055571087 0.037516627 0.68800002 4294967291
-0.054187212 0.037461415 0.68699998 4294967294
-0.052884169 0.037460763 0.68699998 4294967292
-0.051581152 0.037460111 0.68699998 4294967292
-0.050278194 0.037459485 0.68699998 4294967295
-0.048975263 0.037458867 0.68699998 4294967295
-0.047672376 0.037458267 0.68699998 4294967294
-0.04636953 0.037457678 0.68699998 4294967295
-0.045329116 0.037675191 0.69099998 4294967295
-0.044018768 0.037674636 0.69099998 4294967294
-0.042708449 0.037674088 0.69099998 4294967294
-0.041398164 0.037673552 0.69099998 4294967294
-0.040203948 0.037782077 0.69300002 4294967295
-0.038889937 0.03778157 0.69300002 4294967295
-0.037575971 0.037781082 0.69300002 4294967295
-0.036262032 0.037780609 0.69300002 4294967295
-0.034948125 0.037780151 0.69300002 4294967295
-0.033634249 0.037779704 0.69300002 4294967295
-0.032227114 0.037670236 0.69099998 4294967295
-0.030917095 0.037669823 0.69099998 4294967295
-0.029607093 0.037669428 0.69099998 4294967295
-0.028297124 0.037669048 0.69099998 4294967295
-0.02698718 0.037668679 0.69099998 4294967295
-0.025677254 0.037668321 0.69099998 4294967295
-0.024437888 0.03777701 0.69300002 4294967295
-0.023124225 0.037776683 0.69300002 4294967295
-0.021810582 0.037776381 0.69300002 4294967295
-0.02052654 0.037830599 0.69400001 4294967295
-0.019211041 0.037830319 0.69400001 4294967295
-0.017895563 0.037830055 0.69400001 4294967295
-0.016651778 0.037993338 0.69700003 4294967295
-0.015330648 0.037993103 0.69700003 4294967295
-0.014009538 0.037992887 0.69700003 4294967295
-0.012688441 0.037992686 0.69700003 4294967295
-0.011383669 0.038047008 0.69800001 4294967295
-0.010060704 0.038046833 0.69800001 4294967295
-0.0087627899 0.03815569 0.69999999 4294967295
-0.0074360594 0.038155552 0.69999999 4294967295
-0.0061180671 0.038209934 0.70099998 4294967295
-0.0047894614 0.038209826 0.70099998 4294967295
-0.0034707382 0.03831875 0.70300001 4294967295
-0.0021474827 0.038482185 0.70599997 4294967295
-0.00081171573 0.038591146 0.708 4294967295
0.00053162687 0.038700104 0.70999998 4294967295
0.001879902 0.038754582 0.71100003 4294967295
0.0032365038 0.038863581 0.713 4294967295
0.0045942492 0.038918089 0.71399999 4294967295
0.0059641139 0.039027117 0.71600002 4294967295
0.0073211109 0.039027154 0.71600002 4294967294
0.0086781057 0.039027195 0.71600002 4294967294
0.010035104 0.039027262 0.71600002 4294967293
0.011408015 0.039081849 0.71700001 4294967294
0.012802526 0.039190955 0.71899998 4294967295
0.014165221 0.039191067 0.71899998 4294900987
0.015830275 0.039954308 0.73299998 4294966780
0.017219516 0.039954457 0.73299998 4294966778
0.018608766 0.039954614 0.73299998 4294967295
-0.11467447 0.040838033 0.72299999 4288254860
-0.11314391 0.040780265 0.722 4291676096
-0.11146238 0.040666029 0.72000003 4292859602
-0.11009438 0.04066477 0.72000003 4294438891
-0.1087264 0.040663518 0.72000003 4294438891
-0.10735855 0.040662292 0.72000003 4294241255
-0.1058435 0.040604595 0.71899998 4294175714
-0.10404172 0.040433969 0.71600002 4294109921
-0.10196459 0.04015043 0.71100003 4294109921
-0.10047256 0.040092792 0.70999998 4294241507
-0.098844804 0.039978705 0.708 4294373096
-0.097362384 0.039921097 0.70700002 4294438889
-0.095883839 0.039863504 0.70599997 4294570220
-0.094275251 0.03974947 0.704 4294833649
-0.092938341 0.039748371 0.704 4294767852
-0.091471411 0.039690837 0.70300001 4294965744
-0.090136528 0.039689761 0.70300001 4294833649
-0.088549085 0.039575793 0.70099998 4294833649
-0.087093711 0.0395183 0.69999999 4294833910
-0.085764714 0.039517272 0.69999999 4294768117
-0.084194541 0.03940336 0.69800001 4294768369
-0.082869463 0.039402366 0.69800001 4294834162
-0.081544459 0.03940139 0.69800001 4294834162
-0.080104567 0.039343968 0.69700003 4294899955
-0.078781568 0.039343018 0.69700003 4294899955
-0.077458628 0.039342079 0.69700003 4294899955
-0.076026492 0.039284706 0.69599998 4294965748
-0.074705563 0.039283797 0.69599998 4294965748
-0.07338468 0.039282896 0.69599998 4294834678
-0.071856782 0.039169136 0.69400001 4294967292
-0.070539802 0.039168265 0.69400001 4294966776
-0.069123134 0.039110973 0.69300002 4294967033
-0.067808166 0.039110139 0.69300002 4294967292
-0.06649325 0.039109316 0.69300002 4294967292
-0.064990267 0.038995631 0.69099998 4294967288
-0.063587092 0.038938411 0.69 4294967289
-0.062278006 0.038937632 0.69 4294967291
-0.060968973 0.038936868 0.69 4294967291
-0.059487067 0.038823262 0.68800002 4294967294
-0.058181919 0.038822528 0.68800002 4294967294
-0.056794155 0.038765378 0.68699998 4294967286
-0.055491 0.038764674 0.68699998 4294967288
-0.054187894 0.038763989 0.68699998 4294967292
-0.052884828 0.038763318 0.68699998 4294967292
-0.051581807 0.038762651 0.68699998 4294967292
-0.050278824 0.038762011 0.68699998 4294967295
-0.048975881 0.038761381 0.68699998 4294967295
-0.04767298 0.038760766 0.68699998 4294967294
-0.046370115 0.038760159 0.68699998 4294967294
-0.045132898 0.038815998 0.68800002 4294967292
-0.043955624 0.038928259 0.69 4294967294
-0.042647183 0.0389277 0.69 4294967294
-0.041338783 0.038927153 0.69 4294967291
-0.040088437 0.038983047 0.69099998 4294967295
-0.038778201 0.038982525 0.69099998 4294967295
-0.037468009 0.03898203 0.69099998 4294967295
-0.036157846 0.038981549 0.69099998 4294967295
-0.03494858 0.039093904 0.69300002 4294967295
-0.033537611 0.038980622 0.69099998 4294967295
-0.032227542 0.038980186 0.69099998 4294967295
-0.030917503 0.038979761 0.69099998 4294967295
-0.02960749 0.038979355 0.69099998 4294967295
-0.028297504 0.038978968 0.69099998 4294967295
-0.026987543 0.038978584 0.69099998 4294967295
-0.025677606 0.038978226 0.69099998 4294967295
-0.024367692 0.038977876 0.69099998 4294967295
-0.023057804 0.038977548 0.69099998 4294967295
-0.021810882 0.039090049 0.69300002 4294967295
-0.020497248 0.039089747 0.69300002 4294967295
-0.019183632 0.039089467 0.69300002 4294967295
-0.017895821 0.039145608 0.69400001 4294967295
-0.016628128 0.03925816 0.69599998 4294967295
-0.015330878 0.039314333 0.69700003 4294967295
-0.01400975 0.039314106 0.69700003 4294967295
-0.012688639 0.039313901 0.69700003 4294967295
-0.01138385 0.039370108 0.69800001 4294967295
-0.010060872 0.039369937 0.69800001 4294967295
-0.0087629398 0.039482579 0.69999999 4294967295
-0.0074361935 0.039482433 0.69999999 4294967295
-0.0061181858 0.039538711 0.70099998 4294967295
-0.0047895643 0.0395386 0.70099998 4294967295
-0.0034609516 0.039538503 0.70099998 4294967295
-0.0021384296 0.03965123 0.70300001 4294967295
-0.00080947904 0.039820369 0.70599997 4294967295
0.00052934012 0.039876726 0.70700002 4294967295
0.0018719453 0.039933097 0.708 4294967295
0.0032228772 0.040045884 0.70999998 4294967294
0.0045749536 0.040102292 0.71100003 4294967294
0.0059391488 0.040215112 0.713 4294967295
0.0072904746 0.040215138 0.713 4294967292
0.0086539211 0.040271588 0.71399999 4294967294
0.010007145 0.040271655 0.71399999 4294967037
0.011392192 0.040384535 0.71600002 4294967294
0.012767019 0.040441036 0.71700001 4294967295
0.014125939 0.040441155 0.71700001 4294966783
0.015830413 0.04134373 0.73299998 4294966526
0.017172685 0.041231073 0.73100001 4294966780
0.018558165 0.041231245 0.73100001 4294835193
0.019943651 0.041231424 0.73100001 4294967294
0.021329144 0.041231621 0.73100001 4294637814
-0.11467578 0.042209767 0.72299999 4288516488
-0.11314519 0.042150076 0.722 4293648342
-0.11146367 0.042032026 0.72000003 4293519586
-0.11009564 0.042030737 0.72000003 4294045930
-0.10857664 0.041971087 0.71899998 4294307305
-0.10721066 0.041969839 0.71899998 4294175462
-0.1054031 0.041793481 0.71600002 4294109921
-0.10375231 0.041675519 0.71399999 4294175714
-0.10182236 0.041440833 0.70999998 4294175712
-0.10019072 0.041322913 0.708 4294307555
-0.098706335 0.041263379 0.70700002 4294373350
-0.096950382 0.041087121 0.704 4294439143
-0.095477536 0.04102762 0.70300001 4294570218
-0.094142437 0.041026492 0.70300001 4294767854
-0.092807427 0.041025374 0.70300001 4294767852
-0.091472492 0.041024275 0.70300001 4294767852
-0.089881144 0.040906474 0.70099998 4294767856
-0.088423811 0.040847044 0.69999999 4294767856
-0.087094754 0.040845986 0.69999999 4294636786
-0.085520707 0.040728245 0.69800001 4294833908
-0.084195554 0.040727213 0.69800001 4294834162
-0.082751743 0.040667858 0.69700003 4294899955
-0.081428617 0.040666852 0.69700003 4294899955
-0.080105543 0.040665869 0.69700003 4294965748
-0.078669474 0.040606547 0.69599998 4294899953
-0.077348441 0.040605593 0.69599998 4294834160
-0.075808957 0.040487971 0.69400001 4294965748
-0.074491791 0.040487036 0.69400001 4294965748
-0.073174708 0.040486127 0.69400001 4294834932
-0.07175412 0.040426895 0.69300002 4294967290
-0.070439033 0.040426012 0.69300002 4294967033
-0.069123991 0.040425137 0.69300002 4294967033
-0.067809008 0.040424287 0.69300002 4294967035
-0.066302165 0.040306777 0.69099998 4294967035
-0.064991079 0.040305957 0.69099998 4294967033
-0.063587874 0.040246814 0.69 4294967290
-0.062278789 0.040246017 0.69 4294967290
-0.060793016 0.040128592 0.68800002 4294967290
-0.059487816 0.040127829 0.68800002 4294967291
-0.058182664 0.04012708 0.68800002 4294967291
-0.056794874 0.040068023 0.68699998 4294967287
-0.055491708 0.040067304 0.68699998 4294967288
-0.054188587 0.0400666 0.68699998 4294967290
-0.052885499 0.040065914 0.68699998 4294967291
-0.051582459 0.04006524 0.68699998 4294967291
-0.050279468 0.040064581 0.68699998 4294967291
-0.048976511 0.040063933 0.68699998 4294967292
-0.04767359 0.040063307 0.68699998 4294967293
-0.046370715 0.040062692 0.68699998 4294967292
-0.045133483 0.040120415 0.68800002 4294967292
-0.04395619 0.040236451 0.69 4294967294
-0.042647738 0.040235881 0.69 4294967295
-0.041339319 0.040235326 0.69 4294967292
-0.040030945 0.040234789 0.69 4294967295
-0.038722597 0.040234268 0.69 4294967295
-0.037414283 0.040233754 0.69 4294967295
-0.036105998 0.040233258 0.69 4294967295
-0.034797747 0.040232781 0.69 4294967295
-0.033538066 0.040290624 0.69099998 4294967295
-0.032181341 0.040231872 0.69 4294967295
-0.030873179 0.04023144 0.69 4294967295
-0.029565047 0.040231027 0.69 4294967295
-0.02825694 0.040230628 0.69 4294967295
-0.026987916 0.040288549 0.69099998 4294967295
-0.025677962 0.040288173 0.69099998 4294967295
-0.024368035 0.040287822 0.69099998 4294967295
-0.023058131 0.040287491 0.69099998 4294967295
-0.021811197 0.040403772 0.69300002 4294967295
-0.020497544 0.040403467 0.69300002 4294967295
-0.019183911 0.040403172 0.69300002 4294967295
-0.017896086 0.040461201 0.69400001 4294967295
-0.016628377 0.040577538 0.69599998 4294967295
-0.015331111 0.040635601 0.69700003 4294967295
-0.014009967 0.04063537 0.69700003 4294967295
-0.012688839 0.040635161 0.69700003 4294967295
-0.011367727 0.040634967 0.69700003 4294967295
-0.01006104 0.040693086 0.69800001 4294967295
-0.0087380577 0.040692922 0.69800001 4294967295
-0.007415086 0.040692776 0.69800001 4294967295
-0.0061095799 0.040809236 0.69999999 4294967295
-0.0047828378 0.040809121 0.69999999 4294967295
-0.003461041 0.040867317 0.70099998 4294967295
-0.0021324197 0.040867243 0.70099998 4294967295
-0.00080724386 0.041042071 0.704 4294967295
0.00052705221 0.041042022 0.704 4294967295
0.0018692758 0.041216884 0.70700002 4294967295
0.0032137893 0.041275162 0.708 4294967295
0.0045749601 0.04145005 0.71100003 4294967295
0.0059391721 0.041566662 0.713 4294967295
0.0072905147 0.041566696 0.713 4294967293
0.0086418558 0.041566744 0.713 4294967037
0.010007216 0.041625101 0.71399999 4294967037
0.011392281 0.041741788 0.71600002 4294966778
0.012767125 0.041800182 0.71700001 4294967294
0.014126062 0.041800298 0.71700001 4294967294
0.015722573 0.042441715 0.72799999 4294966780
0.017102368 0.042441867 0.72799999 4294967291
0.01853295 0.042558633 0.73000002 4294901241
0.019943841 0.04261712 0.73100001 4294768633
0.021329353 0.042617321 0.73100001 4294966783
-0.11467712 0.043581545 0.72299999 4289504159
-0.11314651 0.043519933 0.722 4293846754
-0.11146498 0.043398064 0.72000003 4294504416
-0.10994401 0.043336477 0.71899998 4294307293
-0.10857791 0.043335181 0.71899998 4294306789
-0.10691368 0.043213364 0.71700001 4294240996
-0.10540434 0.043151829 0.71600002 4294175714
-0.10317229 0.042788982 0.70999998 4294109921
-0.10153676 0.042667229 0.708 4294109919
-0.10005039 0.042605754 0.70700002 4294307555
-0.098567888 0.04254429 0.70599997 4294504164
-0.096951544 0.042422596 0.704 4294569957
-0.095478676 0.042361174 0.70300001 4294570472
-0.093875751 0.042239506 0.70099998 4294702058
-0.092544518 0.04223837 0.70099998 4294702058
-0.091213353 0.042237252 0.70099998 4294702058
-0.089754023 0.042175889 0.69999999 4294702060
-0.088424899 0.042174798 0.69999999 4294767854
-0.08684697 0.042053226 0.69800001 4294767856
-0.08552175 0.042052165 0.69800001 4294965235
-0.084075965 0.041990872 0.69700003 4294899953
-0.082752764 0.041989837 0.69700003 4294965746
-0.081312791 0.041928574 0.69599998 4294965746
-0.079991594 0.041927565 0.69599998 4294965233
-0.078444399 0.041806094 0.69400001 4294768367
-0.077127129 0.041805126 0.69400001 4294637038
-0.075700663 0.041743927 0.69300002 4294834162
-0.074385397 0.041742984 0.69300002 4294966005
-0.073070176 0.041742053 0.69300002 4294966261
-0.071547933 0.041620668 0.69099998 4294967290
-0.070236623 0.04161977 0.69099998 4294966776
-0.068925373 0.041618887 0.69099998 4294966776
-0.06761416 0.041618019 0.69099998 4294967033
-0.066207059 0.041556936 0.69 4294966776
-0.064897858 0.041556094 0.69 4294966776
-0.063404374 0.041434817 0.68800002 4294966776
-0.062099069 0.04143402 0.68800002 4294966778
-0.060793798 0.041433223 0.68800002 4294967035
-0.059488572 0.041432437 0.68800002 4294967290
-0.058098834 0.041371457 0.68699998 4294967290
-0.056795605 0.041370708 0.68699998 4294967290
-0.055492427 0.041369978 0.68699998 4294967290
-0.054189283 0.041369256 0.68699998 4294967291
-0.052886192 0.041368555 0.68699998 4294967291
-0.05158313 0.041367866 0.68699998 4294967290
-0.050280128 0.041367196 0.68699998 4294967290
-0.048977152 0.04136654 0.68699998 4294967292
-0.04767422 0.041365895 0.68699998 4294967292
-0.046371322 0.04136527 0.68699998 4294967290
-0.045134079 0.041424874 0.68800002 4294967291
-0.043956775 0.041544694 0.69 4294967292
-0.042648304 0.04154411 0.69 4294967292
-0.041339874 0.04154354 0.69 4294967294
-0.040031482 0.041542992 0.69 4294967295
-0.038723115 0.041542459 0.69 4294967295
-0.037414789 0.041541941 0.69 4294967295
-0.03610649 0.041541431 0.69 4294967295
-0.034798227 0.041540943 0.69 4294967295
-0.033489987 0.04154047 0.69 4294967295
-0.032181785 0.041540019 0.69 4294967295
-0.03087361 0.041539576 0.69 4294967295
-0.029565461 0.041539151 0.69 4294967295
-0.028257338 0.041538749 0.69 4294967295
-0.026949238 0.04153835 0.69 4294967295
-0.025641168 0.041537981 0.69 4294967295
-0.024368381 0.041597817 0.69099998 4294967295
-0.023058467 0.041597471 0.69099998 4294967295
-0.021748563 0.041597139 0.69099998 4294967295
-0.020497845 0.041717228 0.69300002 4294967295
-0.019184198 0.04171693 0.69300002 4294967295
-0.017896354 0.041776843 0.69400001 4294967295
-0.016628632 0.041896969 0.69599998 4294967295
-0.015309353 0.041896723 0.69599998 4294967295
-0.013990088 0.041896489 0.69599998 4294967295
-0.012689047 0.041956477 0.69700003 4294967295
-0.011367915 0.041956272 0.69700003 4294967295
-0.010061215 0.042016283 0.69800001 4294967295
-0.0087382151 0.042016119 0.69800001 4294967295
-0.0074152257 0.042015962 0.69800001 4294967295
-0.0061097057 0.042136218 0.69999999 4294967295
-0.0047829463 0.042136099 0.69999999 4294967295
-0.0034611337 0.042196188 0.70099998 4294967295
-0.0021324954 0.042196106 0.70099998 4294967295
-0.00080730359 0.042376619 0.704 4294967295
0.00052700896 0.042376567 0.704 4294967295
0.0018666048 0.04249692 0.70599997 4294967295
0.0032092396 0.042557098 0.70700002 4294967295
0.0045685326 0.042737678 0.70999998 4294967295
0.0059225354 0.042797886 0.71100003 4294967295
0.0072701038 0.042797919 0.71100003 4294967295
0.0086419126 0.042918354 0.713 4294967294
0.0099932747 0.042918418 0.713 4294967037
0.011360549 0.042978693 0.71399999 4294966780
0.012767233 0.043159373 0.71700001 4294967294
0.014165591 0.043279883 0.71899998 4294967033
0.015657922 0.04364118 0.72500002 4294966776
0.017032051 0.043641333 0.72500002 4294967032
0.018482354 0.043822095 0.72799999 4294967032
0.019916752 0.043942668 0.73000002 4294768633
0.021329563 0.044003066 0.73100001 4294966783
0.022777252 0.044123683 0.73299998 4294506481
-0.11451986 0.044891197 0.722 4290293930
-0.11314785 0.044889834 0.722 4294241509
-0.1114663 0.044764142 0.72000003 4294439143
-0.10994531 0.044700637 0.71899998 4294109921
-0.10857923 0.044699322 0.71899998 4294175203
-0.10691497 0.044573683 0.71700001 4294175203
-0.10511118 0.044385899 0.71399999 4294240994
-0.10317353 0.044135977 0.70999998 4294240994
-0.10153798 0.044010404 0.708 4294241761
-0.1000516 0.043947004 0.70700002 4294307555
-0.098569088 0.043883629 0.70599997 4294438371
-0.096952729 0.043758113 0.704 4294504164
-0.095479839 0.043694772 0.70300001 4294439143
-0.093876906 0.043569297 0.70099998 4294373350
-0.092545658 0.043568134 0.70099998 4294438889
-0.091214478 0.043566991 0.70099998 4294702060
-0.08975514 0.04350372 0.69999999 4294767852
-0.088173345 0.043378308 0.69800001 4294833645
-0.08684805 0.043377213 0.69800001 4294767854
-0.085400291 0.043313984 0.69700003 4294833647
-0.084077016 0.043312922 0.69700003 4294768367
-0.08263506 0.043249723 0.69599998 4294768367
-0.081313804 0.043248679 0.69599998 4294899440
-0.079762742 0.043123391 0.69400001 4294965233
-0.078332365 0.043060247 0.69300002 4294834160
-0.077016972 0.043059256 0.69300002 4294834160
-0.075701632 0.04305828 0.69300002 4294899953
-0.074171662 0.042933051 0.69099998 4294966517
-0.072860233 0.042932104 0.69099998 4294966773
-0.071548842 0.042931169 0.69099998 4294966773
-0.070237525 0.042930253 0.69099998 4294966259
-0.068926252 0.042929351 0.69099998 4294967030
-0.067517176 0.042866338 0.69 4294967292
-0.066207916 0.04286547 0.69 4294966776
-0.06471058 0.042740371 0.68800002 4294966776
-0.063313045 0.042677406 0.68699998 4294966776
-0.062009614 0.042676587 0.68699998 4294966261
-0.060706224 0.042675778 0.68699998 4294967033
-0.059402891 0.042674985 0.68699998 4294967290
-0.05809959 0.042674199 0.68699998 4294967290
-0.05679635 0.042673439 0.68699998 4294967291
-0.05549315 0.042672694 0.68699998 4294967290
-0.054190002 0.042671967 0.68699998 4294966776
-0.052886892 0.042671248 0.68699998 4294967033
-0.051583827 0.042670548 0.68699998 4294967033
-0.050280798 0.042669859 0.68699998 4294967033
-0.048977807 0.042669188 0.68699998 4294967033
-0.047674857 0.042668536 0.68699998 4294967033
-0.046371959 0.042667903 0.68699998 4294967290
-0.04513469 0.042729381 0.68800002 4294967291
-0.043829963 0.042728778 0.68800002 4294967291
-0.042525277 0.042728182 0.68800002 4294967291
-0.041220617 0.042727605 0.68800002 4294967291
-0.039915998 0.042727046 0.68800002 4294967295
-0.038611408 0.042726498 0.68800002 4294967295
-0.037306856 0.042725977 0.68800002 4294967295
-0.036002334 0.042725462 0.68800002 4294967295
-0.034697846 0.042724963 0.68800002 4294967295
-0.03339339 0.042724479 0.68800002 4294967294
-0.032088954 0.042724013 0.68800002 4294967294
-0.030784553 0.042723563 0.68800002 4294967294
-0.029565876 0.042847332 0.69 4294967295
-0.028175838 0.042722724 0.68800002 4294967295
-0.026871514 0.042722322 0.68800002 4294967295
-0.025567215 0.042721938 0.68800002 4294967295
-0.024333473 0.042845763 0.69 4294967295
-0.023058804 0.042907503 0.69099998 4294967295
-0.021748893 0.042907167 0.69099998 4294967295
-0.020498157 0.043031041 0.69300002 4294967295
-0.019184491 0.043030739 0.69300002 4294967295
-0.017870843 0.043030452 0.69300002 4294967295
-0.016628891 0.043216452 0.69599998 4294967295
-0.015309596 0.043216199 0.69599998 4294967294
-0.013990315 0.043215964 0.69599998 4294967295
-0.012689258 0.043277837 0.69700003 4294967295
-0.01136811 0.043277632 0.69700003 4294967295
-0.010046978 0.043277439 0.69700003 4294967295
-0.0087258574 0.043277275 0.69700003 4294967295
-0.0074153706 0.043339204 0.69800001 4294967295
-0.0060923765 0.04333907 0.69800001 4294967295
-0.0047830576 0.043463122 0.69999999 4294967295
-0.0034562908 0.043463022 0.69999999 4294967294
-0.0021325734 0.043525029 0.70099998 4294967292
-0.00080621848 0.043649137 0.70300001 4294967295
0.00052696432 0.043711171 0.704 4294967295
0.0018665771 0.043835312 0.70599997 4294967295
0.0032092291 0.043897387 0.70700002 4294967295
0.0045556687 0.043959469 0.708 4294967295
0.005914228 0.044083659 0.70999998 4294967293
0.0072701434 0.044145785 0.71100003 4294967293
0.0086419694 0.044270016 0.713 4294967035
0.0099933483 0.044270076 0.713 4294967035
0.011360639 0.044332251 0.71399999 4294966778
0.012767339 0.044518616 0.71700001 4294966778
0.014165715 0.044642918 0.71899998 4294966263
0.015614872 0.044891417 0.72299999 4294966521
0.01698523 0.044891573 0.72299999 4294966521
0.018482532 0.045202199 0.72799999 4294966263
0.01991695 0.045326572 0.73000002 4294506229
0.021329781 0.045388874 0.73100001 4294966780
0.022777483 0.045513276 0.73299998 4294703353
-0.11452123 0.046261165 0.722 4290886085
-0.11314921 0.046259783 0.722 4294372857
-0.11146765 0.04613027 0.72000003 4294307301
-0.10994665 0.046064846 0.71899998 4293912799
-0.10827851 0.045935366 0.71700001 4294043363
-0.10691629 0.045934048 0.71700001 4294109156
-0.10496527 0.045676488 0.713 4294175201
-0.10288417 0.045354884 0.708 4294635752
-0.10153924 0.045353621 0.708 4294438371
-0.10005285 0.045288309 0.70700002 4294438371
-0.09857031 0.045223005 0.70599997 4294438373
-0.096953951 0.045093674 0.704 4294438373
-0.095481031 0.045028415 0.70300001 4294439143
-0.093878075 0.044899117 0.70099998 4294439143
-0.092546821 0.04489794 0.70099998 4294438891
-0.09121564 0.044896778 0.70099998 4294701806
-0.08975628 0.044831581 0.69999999 4294767338
-0.088174477 0.04470237 0.69800001 4294964717
-0.08684916 0.044701245 0.69800001 4294767852
-0.085401379 0.044636104 0.69700003 4294767852
-0.083957441 0.044570971 0.69599998 4294767856
-0.082636118 0.044569902 0.69599998 4294701806
-0.081081182 0.044440769 0.69400001 4294899440
-0.07976377 0.044439729 0.69400001 4294899440
-0.07833337 0.044374675 0.69300002 4294834160
-0.077017963 0.044373661 0.69300002 4294834160
-0.075484127 0.044244606 0.69099998 4294965233
-0.074172616 0.044243626 0.69099998 4294966261
-0.072861172 0.044242658 0.69099998 4294966001
-0.071549781 0.044241711 0.69099998 4294966001
-0.070136793 0.04417675 0.69 4294966259
-0.068827406 0.044175837 0.69 4294966774
-0.06751807 0.044174936 0.69 4294966774
-0.066016875 0.044046007 0.68800002 4294966774
-0.064711437 0.044045135 0.68800002 4294966776
-0.063313879 0.043980259 0.68699998 4294967290
-0.06201043 0.043979425 0.68699998 4294966521
-0.060707033 0.043978602 0.68699998 4294967035
-0.059403677 0.043977786 0.68699998 4294967288
-0.058100376 0.043977 0.68699998 4294967288
-0.056797121 0.043976225 0.68699998 4294967286
-0.055493906 0.043975465 0.68699998 4294967029
-0.054190736 0.043974716 0.68699998 4294966776
-0.052887604 0.043973979 0.68699998 4294966776
-0.051584519 0.043973267 0.68699998 4294967033
-0.050281484 0.04397257 0.68699998 4294967033
-0.048978478 0.043971881 0.68699998 4294967033
-0.047675513 0.043971222 0.68699998 4294967033
-0.046372589 0.04397057 0.68699998 4294967290
-0.045069706 0.043969937 0.68699998 4294967291
-0.043766852 0.043969307 0.68699998 4294967290
-0.042464048 0.043968711 0.68699998 4294967290
-0.041161273 0.043968119 0.68699998 4294967291
-0.039858531 0.043967549 0.68699998 4294967295
-0.038555827 0.043966994 0.68699998 4294967294
-0.037253153 0.043966461 0.68699998 4294967294
-0.035950512 0.043965932 0.68699998 4294967292
-0.034647904 0.043965425 0.68699998 4294967292
-0.033393864 0.044028938 0.68800002 4294967294
-0.032089412 0.044028468 0.68800002 4294967292
-0.030784998 0.04402801 0.68800002 4294967292
-0.029480608 0.044027571 0.68800002 4294967290
-0.028176244 0.044027139 0.68800002 4294967294
-0.02687191 0.044026732 0.68800002 4294967294
-0.025567595 0.044026345 0.68800002 4294967294
-0.024263304 0.044025969 0.68800002 4294967295
-0.023025781 0.044153586 0.69 4294967295
-0.021749219 0.04421724 0.69099998 4294967295
-0.020439308 0.044216916 0.69099998 4294967295
-0.019184787 0.044344589 0.69300002 4294967294
-0.017871127 0.044344291 0.69300002 4294967295
-0.016581371 0.044408005 0.69400001 4294967295
-0.015309843 0.044535719 0.69599998 4294967295
-0.013990547 0.044535477 0.69599998 4294967295
-0.012671265 0.044535246 0.69599998 4294967295
-0.011368308 0.04459903 0.69700003 4294967295
-0.010047159 0.044598836 0.69700003 4294967294
-0.0087260213 0.044598665 0.69700003 4294967292
-0.007404895 0.044598501 0.69700003 4294967292
-0.0060925079 0.044662353 0.69800001 4294967294
-0.0047831722 0.044790201 0.69999999 4294967294
-0.0034563884 0.044790097 0.69999999 4294967292
-0.0021296113 0.044790003 0.69999999 4294967292
-0.00080628158 0.044981889 0.70300001 4294967295
0.00052616966 0.044981837 0.70300001 4294967295
0.0018612604 0.045045786 0.704 4294967292
0.0032046777 0.045173727 0.70599997 4294967294
0.0045492398 0.045237709 0.70700002 4294967295
0.0059142499 0.04542968 0.70999998 4294967291
0.0072599575 0.045429707 0.70999998 4294967033
0.0086177858 0.045493748 0.71100003 4294967033
0.0099934218 0.045621783 0.713 4294966776
0.011344822 0.045621864 0.713 4294966778
0.012749644 0.045813933 0.71600002 4294966521
0.014165841 0.046005998 0.71899998 4294834678
0.015593422 0.0461981 0.722 4294834678
0.016961899 0.04619826 0.722 4294834932
0.018457325 0.046518367 0.727 4294571504
0.019862583 0.046582542 0.72799999 4294637297
0.021329995 0.046774715 0.73100001 4294966519
0.022777721 0.046902917 0.73299998 4294703092
-0.11283716 0.047497842 0.72000003 4293979366
-0.11146903 0.047496453 0.72000003 4293912799
-0.109948 0.047429092 0.71899998 4293912799
-0.10812885 0.047229845 0.71600002 4294043615
-0.1067685 0.047228497 0.71600002 4294109408
-0.1045249 0.046831407 0.70999998 4294175199
-0.10288546 0.046698179 0.708 4294109406
-0.10139707 0.046630926 0.70700002 4294043613
-0.099912584 0.0465637 0.70599997 4294241248
-0.098292314 0.046430528 0.704 4294438371
-0.096817449 0.046363335 0.70300001 4294504164
-0.095482245 0.046362117 0.70300001 4294373350
-0.093879275 0.046229005 0.70099998 4294373350
-0.092547998 0.046227794 0.70099998 4294438891
-0.091086663 0.046160668 0.69999999 4294636013
-0.089500979 0.046027612 0.69800001 4294439143
-0.08817561 0.046026465 0.69800001 4294636265
-0.086725838 0.045959387 0.69700003 4294636265
-0.085402481 0.045958269 0.69700003 4294636265
-0.083958544 0.045891214 0.69599998 4294767854
-0.082399726 0.045758259 0.69400001 4294833647
-0.080965415 0.045691252 0.69300002 4294833647
-0.079649873 0.045690194 0.69300002 4294833647
-0.078108318 0.04555729 0.69099998 4294768369
-0.076796688 0.045556262 0.69099998 4294834162
-0.075485118 0.045555256 0.69099998 4294965235
-0.074066259 0.045488328 0.69 4294965749
-0.0727567 0.045487355 0.69 4294965233
-0.071447194 0.045486391 0.69 4294965746
-0.070137732 0.045485441 0.69 4294966259
-0.068828329 0.045484502 0.69 4294966517
-0.067323267 0.045351747 0.68800002 4294966259
-0.066017762 0.045350846 0.68800002 4294966259
-0.064618245 0.04528404 0.68699998 4294966259
-0.063314728 0.045283172 0.68699998 4294966517
-0.062011268 0.045282315 0.68699998 4294834162
-0.060707852 0.045281481 0.68699998 4294966263
-0.059404489 0.045280658 0.68699998 4294967030
-0.058016598 0.045213941 0.68599999 4294966773
-0.056715213 0.045213148 0.68599999 4294966517
-0.055413883 0.045212369 0.68599999 4294966774
-0.054112602 0.045211621 0.68599999 4294966774
-0.052811347 0.045210864 0.68599999 4294966774
-0.051510155 0.045210149 0.68599999 4294967033
-0.05020899 0.045209426 0.68599999 4294967290
-0.048907865 0.045208734 0.68599999 4294967290
-0.047606777 0.045208052 0.68599999 4294967290
-0.046305742 0.045207396 0.68599999 4294967290
-0.045004733 0.045206744 0.68599999 4294967290
-0.043703776 0.045206118 0.68599999 4294967290
-0.042402837 0.0452055 0.68599999 4294967290
-0.041101944 0.045204904 0.68599999 4294967290
-0.039801084 0.045204327 0.68599999 4294967290
-0.038500253 0.045203753 0.68599999 4294967033
-0.037253685 0.045269098 0.68699998 4294967033
-0.035951033 0.045268573 0.68699998 4294967033
-0.034648407 0.045268055 0.68699998 4294967290
-0.033345811 0.04526756 0.68699998 4294967294
-0.032043241 0.045267072 0.68699998 4294967292
-0.030740706 0.045266606 0.68699998 4294967291
-0.029481046 0.045332056 0.68800002 4294967290
-0.028176663 0.045331612 0.68800002 4294967290
-0.026872313 0.045331202 0.68800002 4294967290
-0.02556798 0.045330808 0.68800002 4294967291
-0.024263676 0.04533042 0.68800002 4294967294
-0.023026135 0.045461826 0.69 4294967295
-0.021749556 0.045527361 0.69099998 4294967295
-0.02043963 0.045527045 0.69099998 4294967033
-0.019185094 0.045658499 0.69300002 4294967291
-0.017871413 0.045658197 0.69300002 4294967294
-0.016581642 0.045723792 0.69400001 4294967294
-0.015310099 0.045855291 0.69599998 4294967293
-0.013990784 0.045855053 0.69599998 4294967295
-0.012671484 0.045854814 0.69599998 4294967295
-0.011368511 0.045920491 0.69700003 4294967294
-0.010047344 0.04592029 0.69700003 4294967292
-0.0087261898 0.045920119 0.69700003 4294967291
-0.0074050464 0.045919955 0.69700003 4294966776
-0.0060926406 0.045985688 0.69800001 4294967033
-0.004783289 0.046117336 0.69999999 4294967033
-0.0034564878 0.046117216 0.69999999 4294967290
-0.0021296933 0.046117127 0.69999999 4294967290
-0.00080634665 0.046314698 0.70300001 4294967292
0.00052612217 0.046314646 0.70300001 4294967292
0.00186123 0.046380479 0.704 4294967291
0.0031955866 0.046380464 0.704 4294967292
0.0045492444 0.046578098 0.70700002 4294967292
0.0059142732 0.046775758 0.70999998 4294967035
0.0072599971 0.046775784 0.70999998 4294967035
0.0086178435 0.046841722 0.71100003 4294967033
0.0099934991 0.046973549 0.713 4294966519
0.011344913 0.046973631 0.713 4294966519
0.012749758 0.047171388 0.71600002 4294966519
0.014126568 0.047237381 0.71700001 4294768885
0.015550374 0.047435176 0.72000003 4294768885
0.016915081 0.047435336 0.72000003 4294834932
0.018406734 0.047764923 0.72500002 4294571504
0.019835502 0.047896877 0.727 4294571506
0.021330221 0.048160627 0.73100001 4294834678
0.022777962 0.048292622 0.73299998 4294506483
0.024200331 0.048358761 0.73400003 4292861401
-0.11589617 0.049002703 0.722 4291675583
-0.11452407 0.049001262 0.722 4292793557
-0.11283859 0.048864093 0.72000003 4293978088
-0.11131559 0.04879481 0.71899998 4294043361
-0.10994939 0.048793405 0.71899998 4294109154
-0.10813021 0.04858844 0.71600002 4294109406
-0.10647161 0.048451349 0.71399999 4294109406
-0.10452622 0.048178557 0.70999998 4294109147
-0.10288676 0.048041519 0.708 4294109147
-0.10139838 0.047972359 0.70700002 4294043615
-0.09963081 0.047767498 0.704 4294175201
-0.098153964 0.047698364 0.70300001 4294307041
-0.096818693 0.047697105 0.70300001 4294438371
-0.095211811 0.047560148 0.70099998 4294373350
-0.093880475 0.047558915 0.70099998 4294373350
-0.092549197 0.047557704 0.70099998 4294438637
-0.091087863 0.04748866 0.69999999 4294636015
-0.089502163 0.047351792 0.69800001 4294570472
-0.088050425 0.047282781 0.69700003 4294570472
-0.086726986 0.047281623 0.69700003 4294570472
-0.085281067 0.047212638 0.69599998 4294570472
-0.083959647 0.047211517 0.69599998 4294702058
-0.082282096 0.047006916 0.69300002 4294833645
-0.080966488 0.047005821 0.69300002 4294833647
-0.079421066 0.046869092 0.69099998 4294767854
-0.078109354 0.04686803 0.69099998 4294703092
-0.076797724 0.046866983 0.69099998 4294571506
-0.075486131 0.046865951 0.69099998 4294768369
-0.07406725 0.046797115 0.69 4294899955
-0.072757676 0.046796117 0.69 4294899955
-0.071448155 0.046795134 0.69 4294834162
-0.069833718 0.046590708 0.68699998 4294965746
-0.068530001 0.046589762 0.68699998 4294966259
-0.067226328 0.046588834 0.68699998 4294966259
-0.066018663 0.046655729 0.68800002 4294966259
-0.064619131 0.04658702 0.68699998 4294966773
-0.0633156 0.04658613 0.68699998 4294966773
-0.061921861 0.04651745 0.68599999 4294965748
-0.060620323 0.046516597 0.68599999 4294966263
-0.059318837 0.046515759 0.68599999 4294966517
-0.058017399 0.046514936 0.68599999 4294899953
-0.05671601 0.046514131 0.68599999 4294769139
-0.055414658 0.046513341 0.68599999 4294966519
-0.054113347 0.046512574 0.68599999 4294966517
-0.052812099 0.046511818 0.68599999 4294966517
-0.05151087 0.046511069 0.68599999 4294966263
-0.050209697 0.046510346 0.68599999 4294966776
-0.048908558 0.046509635 0.68599999 4294967033
-0.047607455 0.046508946 0.68599999 4294967290
-0.046306398 0.046508275 0.68599999 4294967288
-0.045005377 0.046507616 0.68599999 4294967287
-0.043704398 0.046506975 0.68599999 4294967290
-0.042403448 0.046506342 0.68599999 4294967033
-0.04110254 0.046505734 0.68599999 4294967033
-0.039801661 0.046505142 0.68599999 4294967033
-0.038500816 0.046504565 0.68599999 4294966778
-0.037200008 0.046504013 0.68599999 4294966521
-0.035899233 0.046503477 0.68599999 4294966776
-0.034598481 0.04650294 0.68599999 4294967033
-0.03329777 0.046502437 0.68599999 4294967287
-0.032043718 0.046569735 0.68699998 4294967290
-0.030741166 0.046569251 0.68699998 4294967289
-0.029438637 0.046568796 0.68699998 4294967288
-0.028177097 0.046636149 0.68800002 4294967289
-0.026872722 0.046635725 0.68800002 4294967288
-0.025568374 0.046635319 0.68800002 4294967290
-0.024264051 0.046634924 0.68800002 4294967292
-0.023026494 0.046770118 0.69 4294967292
-0.021718426 0.046769764 0.69 4294967292
-0.020439956 0.046837207 0.69099998 4294967290
-0.019130033 0.046836887 0.69099998 4294967290
-0.017871704 0.046972148 0.69300002 4294967290
-0.016581919 0.047039639 0.69400001 4294967033
-0.015266364 0.047039364 0.69400001 4294967035
-0.013991026 0.047174677 0.69599998 4294967035
-0.012671709 0.047174439 0.69599998 4294966778
-0.011352406 0.047174215 0.69599998 4294966778
-0.010033118 0.047174022 0.69599998 4294967033
-0.0087138405 0.047173839 0.69599998 4294967033
-0.0074052 0.047241449 0.69700003 4294966519
-0.0060927779 0.047309082 0.69800001 4294966519
-0.0047834087 0.047444511 0.69999999 4294966776
-0.0034565898 0.047444396 0.69999999 4294967291
-0.0021297776 0.047444303 0.69999999 4294967290
-0.00080411922 0.04751201 0.70099998 4294967290
0.0005260731 0.047647499 0.70300001 4294967289
0.0018611989 0.047715239 0.704 4294967290
0.0031955729 0.047715213 0.704 4294967290
0.0045428146 0.047850765 0.70599997 4294967290
0.0058976351 0.047986321 0.708 4294967033
0.0072600381 0.048121911 0.70999998 4294966776
0.0086179022 0.048189752 0.71100003 4294966519
0.0099935746 0.048325364 0.713 4294834932
0.011345007 0.048325453 0.713 4294834932
0.012714252 0.048393324 0.71399999 4294966519
0.014126699 0.048596788 0.71700001 4294769139
0.015550523 0.048800267 0.72000003 4294703090
0.016915245 0.048800424 0.72000003 4294834162
0.018356144 0.04900394 0.72299999 4294570990
0.019781139 0.049139693 0.72500002 4294308334
0.021330442 0.049546577 0.73100001 4294374127
0.022778206 0.049682375 0.73299998 4294571504
0.024200594 0.049750414 0.73400003 4293848037
0.025591917 0.049750689 0.73400003 4292466895
-0.11589763 0.050372843 0.722 4292925650
-0.11452551 0.050371379 0.722 4293189851
-0.11284002 0.050230395 0.72000003 4293782244
-0.11100737 0.050019659 0.71700001 4293847004
-0.10949204 0.049948473 0.71600002 4293912797
-0.10782955 0.049807549 0.71399999 4293978590
-0.10647298 0.049806163 0.71399999 4293978590
-0.10423315 0.049386259 0.708 4294043611
-0.10274278 0.049315155 0.70700002 4294175453
-0.10125626 0.049244065 0.70599997 4294175199
-0.099490598 0.049033493 0.70300001 4294175199
-0.098155245 0.049032196 0.70300001 4294306787
-0.096544519 0.048891425 0.70099998 4294438373
-0.095213078 0.048890144 0.70099998 4294307301
-0.093747795 0.048819151 0.69999999 4294373350
-0.09241841 0.048817914 0.69999999 4294373098
-0.090828814 0.048677213 0.69800001 4294570220
-0.089503348 0.048676006 0.69800001 4294439143
-0.088051602 0.048605073 0.69700003 4294439143
-0.086728141 0.0486039 0.69700003 4294570472
-0.085282207 0.048533 0.69599998 4294636265
-0.083960779 0.04853186 0.69599998 4294702058
-0.082283199 0.048321549 0.69300002 4294767852
-0.080967583 0.048320431 0.69300002 4294767854
-0.079422131 0.04817988 0.69099998 4294833647
-0.078110419 0.048178803 0.69099998 4294637297
-0.076798774 0.048177749 0.69099998 4294571504
-0.075487159 0.048176695 0.69099998 4294636784
-0.074068278 0.048105951 0.69 4294768369
-0.072758675 0.048104923 0.69 4294571244
-0.071138479 0.047894776 0.68699998 4294768367
-0.069834687 0.0478938 0.68699998 4294965233
-0.068530947 0.047892839 0.68699998 4294965233
-0.067227259 0.047891885 0.68699998 4294637038
-0.065923624 0.047890957 0.68699998 4294966259
-0.064620033 0.047890041 0.68699998 4294966259
-0.063224331 0.047819424 0.68599999 4294966259
-0.061922729 0.047818542 0.68599999 4294966259
-0.060621176 0.04781767 0.68599999 4294966259
-0.059319675 0.047816828 0.68599999 4294966005
-0.058018222 0.047815986 0.68599999 4294965748
-0.056716811 0.047815163 0.68599999 4294834930
-0.055415448 0.047814358 0.68599999 4294966773
-0.054114126 0.047813568 0.68599999 4294967030
-0.052812848 0.047812805 0.68599999 4294966773
-0.051511612 0.047812045 0.68599999 4294966261
-0.050210416 0.047811307 0.68599999 4294966776
-0.048909266 0.047810588 0.68599999 4294967033
-0.047469351 0.047670495 0.68400002 4294966776
-0.046172068 0.047669813 0.68400002 4294966519
-0.044874825 0.047669146 0.68400002 4294967033
-0.043577619 0.047668494 0.68400002 4294967033
-0.042280447 0.047667857 0.68400002 4294967033
-0.040983312 0.047667239 0.68400002 4294967033
-0.03980225 0.04780601 0.68599999 4294966776
-0.038501389 0.047805425 0.68599999 4294966519
-0.037200563 0.047804851 0.68599999 4294966519
-0.03589977 0.0478043 0.68599999 4294966263
-0.034599002 0.047803771 0.68599999 4294966776
-0.033298269 0.047803253 0.68599999 4294966774
-0.03204421 0.047872439 0.68699998 4294967031
-0.030741636 0.047871947 0.68699998 4294967033
-0.02943909 0.047871482 0.68699998 4294967033
-0.028136572 0.047871038 0.68699998 4294967291
-0.02687314 0.047940288 0.68800002 4294967290
-0.025568776 0.047939874 0.68800002 4294834932
-0.024264436 0.047939483 0.68800002 4294967290
-0.023026863 0.048078451 0.69 4294967290
-0.021718776 0.048078086 0.69 4294967290
-0.020440292 0.048147425 0.69099998 4294967033
-0.019130349 0.048147101 0.69099998 4294967033
-0.017820423 0.048146788 0.69099998 4294967290
-0.016582202 0.048355531 0.69400001 4294967033
-0.015266627 0.048355244 0.69400001 4294967035
-0.013951069 0.048354987 0.69400001 4294966263
-0.012671938 0.048494104 0.69599998 4294966263
-0.011352615 0.048493881 0.69599998 4294966263
-0.01003331 0.04849368 0.69599998 4294967033
-0.0087140156 0.048493493 0.69599998 4294966776
-0.0073947329 0.048493326 0.69599998 4294966519
-0.0060841888 0.048562843 0.69700003 4294966519
-0.0047698636 0.04863238 0.69800001 4294966773
-0.0034566941 0.048771627 0.69999999 4294967030
-0.0021298639 0.048771527 0.69999999 4294966005
-0.00080418756 0.048841123 0.70099998 4294967033
0.00052602263 0.048980407 0.70300001 4294967033
0.0018611664 0.049050033 0.704 4294967290
0.0031955584 0.049050014 0.704 4294967033
0.0045428178 0.049189351 0.70599997 4294966776
0.0058893268 0.049259041 0.70700002 4294966776
0.0072600776 0.049468089 0.70999998 4294966519
0.0086058397 0.049468148 0.70999998 4294834932
0.00996562 0.049537882 0.71100003 4294703090
0.011345104 0.049677316 0.713 4294768369
0.01269656 0.04967742 0.713 4294965748
0.014126832 0.049956243 0.71700001 4294966261
0.015550678 0.050165415 0.72000003 4294834932
0.016915418 0.050165579 0.72000003 4294637297
0.018356334 0.05037478 0.72299999 4294505710
0.019781346 0.050514325 0.72500002 4294439404
0.021301493 0.05086292 0.73000002 4294505197
0.02268523 0.050863158 0.73000002 4294374381
0.024101945 0.050933093 0.73100001 4294308588
0.025592204 0.051142409 0.73400003 4292664540
-0.11268475 0.051525075 0.71899998 4294109658
-0.1110088 0.051380284 0.71700001 4293978072
-0.10949347 0.05130719 0.71600002 4294043865
-0.10783096 0.051162444 0.71399999 4294043613
-0.10602701 0.050946068 0.71100003 4294043613
-0.1042345 0.050729718 0.708 4293912797
-0.10274412 0.050656691 0.70700002 4294175712
-0.10125761 0.050583687 0.70599997 4294175199
-0.099491917 0.050367408 0.70300001 4294175199
-0.098156542 0.050366085 0.70300001 4294175714
-0.096545793 0.05022148 0.70099998 4294373350
-0.095214352 0.050220195 0.70099998 4294307555
-0.093749054 0.05014728 0.69999999 4294241761
-0.092419632 0.050146017 0.69999999 4294307303
-0.090830028 0.050001498 0.69800001 4294438889
-0.08937633 0.049928647 0.69700003 4294439143
-0.088052802 0.049927432 0.69700003 4294439143
-0.086604886 0.049854599 0.69599998 4294570472
-0.085283384 0.049853422 0.69599998 4294636265
-0.083720662 0.049709003 0.69400001 4294636265
-0.082284331 0.04963623 0.69300002 4294702058
-0.080968693 0.049635101 0.69300002 4294637038
-0.079423234 0.049490742 0.69099998 4294637038
-0.078111507 0.049489643 0.69099998 4294636784
-0.076799825 0.049488559 0.69099998 4294636784
-0.075378962 0.049415875 0.69 4294636784
-0.074069306 0.049414836 0.69 4294834162
-0.072759695 0.0494138 0.69 4294637038
-0.071139492 0.049197946 0.68699998 4294768367
-0.069835678 0.049196947 0.68699998 4294899694
-0.068531916 0.049195956 0.68699998 4294966001
-0.067228198 0.049194984 0.68699998 4294834162
-0.065924555 0.049194049 0.68699998 4294899955
-0.064620949 0.049193114 0.68699998 4294900207
-0.063225225 0.049120594 0.68599999 4294966000
-0.061923612 0.049119692 0.68599999 4294965744
-0.06062204 0.049118798 0.68599999 4294965744
-0.059320532 0.049117945 0.68599999 4294965748
-0.058019049 0.049117088 0.68599999 4294899955
-0.05671763 0.049116254 0.68599999 4294965746
-0.055416245 0.049115427 0.68599999 4294966259
-0.054114923 0.049114637 0.68599999 4294966773
-0.052813612 0.049113847 0.68599999 4294966773
-0.051512372 0.049113084 0.68599999 4294966519
-0.050064761 0.048969135 0.68400002 4294966776
-0.048767392 0.048968416 0.68400002 4294966780
-0.047470048 0.048967697 0.68400002 4294966267
-0.046172749 0.048967 0.68400002 4294966519
-0.044875488 0.048966322 0.68400002 4294967033
-0.043514557 0.048894066 0.68300003 4294967287
-0.042219266 0.048893426 0.68300003 4294967288
-0.04098393 0.048964381 0.68400002 4294967033
-0.03968681 0.04896377 0.68400002 4294966261
-0.038389724 0.048963174 0.68400002 4294966261
-0.037201129 0.04910576 0.68599999 4294966519
-0.035900317 0.049105197 0.68599999 4294966263
-0.034599535 0.049104657 0.68599999 4294966263
-0.033298783 0.049104124 0.68599999 4294966774
-0.032044701 0.049175192 0.68699998 4294966774
-0.030742111 0.0491747 0.68699998 4294966005
-0.029439554 0.049174231 0.68699998 4294965748
-0.028137017 0.049173776 0.68699998 4294967286
-0.026873568 0.04924491 0.68800002 4294967287
-0.025569186 0.04924449 0.68800002 4294966519
-0.024264831 0.049244091 0.68800002 4294967033
-0.023027238 0.049386848 0.69 4294967033
-0.021719133 0.049386472 0.69 4294966776
-0.020440631 0.049457703 0.69099998 4294966776
-0.01913067 0.049457368 0.69099998 4294966776
-0.017820729 0.049457047 0.69099998 4294966776
-0.016582489 0.049671464 0.69400001 4294967033
-0.015266896 0.049671195 0.69400001 4294966521
-0.013951319 0.049670931 0.69400001 4294834678
-0.012635758 0.049670681 0.69400001 4294834932
-0.011352832 0.049813606 0.69599998 4294834932
-0.010033509 0.049813394 0.69599998 4294966005
-0.0087141944 0.049813207 0.69599998 4294966263
-0.0073948936 0.049813032 0.69599998 4294966517
-0.0060843318 0.04988445 0.69700003 4294966259
-0.0047699884 0.049955878 0.69800001 4294966000
-0.0034568007 0.050098907 0.69999999 4294966257
-0.002129952 0.050098803 0.69999999 4294966261
-0.00080425752 0.050170291 0.70099998 4294967033
0.00052597065 0.050313365 0.70300001 4294967033
0.0018611328 0.050384894 0.704 4294967033
0.0031955433 0.050384875 0.704 4294966776
0.0045299521 0.050384868 0.704 4294966519
0.0058893496 0.050599594 0.70700002 4294966263
0.0072396672 0.050671186 0.708 4294966005
0.0086058984 0.050814375 0.70999998 4294965748
0.0099656982 0.050886024 0.71100003 4294768369
0.011345199 0.051029246 0.713 4294637299
0.012696676 0.051029354 0.713 4294834678
0.014126968 0.051315762 0.71700001 4294966005
0.01555083 0.051530611 0.72000003 4294966263
0.01691559 0.051530778 0.72000003 4294703090
0.018356523 0.051745672 0.72299999 4294571504
0.019836128 0.052032162 0.727 4294439404
