# .PCD v0.7 - Point Cloud Data file format
VERSION 0.7
FIELDS x y z rgba
SIZE 4 4 4 4
TYPE F F F U
COUNT 1 1 1 1
WIDTH 1060
HEIGHT 1
VIEWPOINT 0 0 0 1 0 0 0
POINTS 1060
DATA ascii
-0.025863051 0.037940882 0.69599998 4290162605
-0.024543678 0.037940543 0.69599998 4289636261
-0.023257699 0.037994731 0.69700003 4289374377
-0.021936474 0.037994429 0.69700003 4289045155
-0.02061527 0.037994131 0.69700003 4288848798
-0.0056467755 0.035266515 0.64700001 4290688951
-0.0044205156 0.035266418 0.64700001 4290623410
-0.0031893272 0.035211824 0.64600003 4290162859
-0.0019588936 0.035102732 0.64399999 4290162607
-0.00073834031 0.03510268 0.64399999 4289767849
0.00048145928 0.035048123 0.64300001 4289767334
0.0016948201 0.03493908 0.64099997 4289767334
0.0029096757 0.034939066 0.64099997 4289569702
0.024622992 0.034723204 0.63700002 4288385165
0.025830382 0.034723453 0.63700002 4288385165
0.027037788 0.034723725 0.63700002 4288516751
0.028245209 0.034724005 0.63700002 4288582544
0.029452652 0.034724303 0.63700002 4288646541
0.051511843 0.034950051 0.64099997 4286804850
0.052727342 0.034950603 0.64099997 4287792001
0.053942874 0.034951176 0.64099997 4287465859
0.055158451 0.034951754 0.64099997 4287465859
0.056374051 0.034952354 0.64099997 4287334793
0.057589702 0.034952965 0.64099997 4286940036
0.058897123 0.035008121 0.64200002 4286874238
0.075122185 0.034091685 0.625 4287399299
0.076308161 0.034092482 0.625 4287399303
0.077742167 0.034202397 0.62699997 4287793805
0.078932025 0.03420322 0.62699997 4287728782
0.080121957 0.034204062 0.62699997 4287662989
0.081311919 0.034204911 0.62699997 4287597198
0.090996377 0.033831093 0.62 4289505708
0.092024878 0.033777475 0.61900002 4289308843
0.093049616 0.033723861 0.61799997 4289440685
0.093918175 0.033615686 0.616 4289637294
0.095087886 0.033616658 0.616 4289768881
0.096257657 0.033617638 0.616 4289966259
0.1077922 0.032865867 0.602 4291675596
0.1087551 0.032812349 0.60100001 4292070354
0.1098971 0.032813437 0.60100001 4292136399
0.11066964 0.032705329 0.59899998 4292728537
0.1116213 0.03265183 0.59799999 4291875024
0.11275774 0.032652933 0.59799999 4291611852
0.11522319 0.032709781 0.59899998 4291873741
0.11616744 0.032656301 0.59799999 4288063166
0.11730411 0.032657441 0.59799999 4278983989
0.1217542 0.032335512 0.59200001 4278190080
0.1224646 0.032227434 0.58999997 4280689948
0.12358642 0.032228604 0.58999997 4284696648
0.12470829 0.032229789 0.58999997 4287459954
0.12604345 0.032285597 0.59100002 4289695382
0.12716731 0.032286793 0.59100002 4291603380
0.12963413 0.032343835 0.59200001 4294960875
0.13076004 0.032345049 0.59200001 4294965749
0.13546868 0.032132618 0.588 4293453542
0.14686847 0.031710412 0.57999998 4288318352
-0.1100425 0.041678846 0.73799998 4291082973
-0.10864047 0.041677594 0.73799998 4287788708
-0.10738384 0.041732825 0.73900002 4286736019
-0.10598008 0.0417316 0.73900002 4288845671
-0.10457637 0.041730385 0.73900002 4289372271
-0.10345197 0.041842118 0.741 4288257942
-0.10204459 0.041840922 0.741 4281020713
-0.10036567 0.041726816 0.73900002 4278206474
-0.097489178 0.041104563 0.72799999 4278930711
-0.096106693 0.041103426 0.72799999 4282862137
-0.095374882 0.041384611 0.73299998 4290362539
-0.093726605 0.041270576 0.73100001 4291210680
-0.092338637 0.041269481 0.73100001 4288973718
-0.09095072 0.041268401 0.73100001 4287334760
-0.089562863 0.041267324 0.73100001 4292269491
-0.088175081 0.04126627 0.73100001 4294967295
-0.08666864 0.041208781 0.73000002 4294967295
-0.085049234 0.041094858 0.72799999 4294967295
-0.083667316 0.041093841 0.72799999 4290229945
-0.081946395 0.04092351 0.72500002 4282142330
-0.08057031 0.040922537 0.72500002 4278190117
-0.07919427 0.040921573 0.72500002 4278190080
-0.077281624 0.040638413 0.72000003 4289376425
-0.075809747 0.04058104 0.71899998 4294241255
-0.074445285 0.040580127 0.71899998 4294899442
-0.072877578 0.04046635 0.71700001 4292332756
-0.071517013 0.040465467 0.71700001 4290753981
-0.0701565 0.040464602 0.71700001 4291742925
-0.069083899 0.040633053 0.72000003 4293716458
-0.067623734 0.040575773 0.71899998 4293650154
-0.066259593 0.040574949 0.71899998 4293189603
-0.064985745 0.040630572 0.72000003 4292861149
-0.062824555 0.040121906 0.71100003 4292795356
-0.061389264 0.0400647 0.70999998 4293189599
-0.060042385 0.040063944 0.70999998 4293518563
-0.058530226 0.039950348 0.708 4293255648
-0.057187233 0.039949626 0.708 4292860890
-0.055844296 0.039948918 0.708 4292926685
-0.05442442 0.039891802 0.70700002 4292926685
-0.053083465 0.039891116 0.70700002 4293123294
-0.051742546 0.039890457 0.70700002 4293254881
-0.050401673 0.039889805 0.70700002 4293058012
-0.049060844 0.039889175 0.70700002 4293058012
-0.047450062 0.039662872 0.70300001 4293123805
-0.038172904 0.039715413 0.704 4291676361
-0.03678577 0.039658509 0.70300001 4291807168
-0.035352025 0.039545201 0.70099998 4291215032
-0.033974428 0.03948833 0.69999999 4291215036
-0.032647293 0.039487887 0.69999999 4290951607
-0.031230707 0.039374638 0.69800001 4290359738
-0.029907422 0.039374229 0.69800001 4290162103
-0.028543215 0.039317425 0.69700003 4290228398
-0.027182821 0.03926063 0.69599998 4290096812
-0.025863407 0.039260268 0.69599998 4289965481
-0.024544014 0.039259918 0.69599998 4289636515
-0.023258017 0.039315995 0.69700003 4289373604
-0.021936774 0.039315678 0.69700003 4288913053
-0.020615557 0.039315376 0.69700003 4288782487
-0.0044206111 0.036492832 0.64700001 4290623408
-0.0031894078 0.036436342 0.64600003 4290294443
-0.0019650434 0.036436267 0.64600003 4290228398
-0.00073839165 0.036323398 0.64399999 4289373345
0.0004814225 0.036266953 0.64300001 4289569954
0.001697442 0.036210522 0.64200002 4289635748
0.0029142075 0.036210503 0.64200002 4289307296
0.051512402 0.03616529 0.64099997 4287266686
0.052727912 0.036165852 0.64099997 4287727237
0.053943459 0.036166433 0.64099997 4287465859
0.055072993 0.036110606 0.63999999 4287334530
0.056286715 0.036111213 0.63999999 4287138180
0.057590313 0.036168255 0.64099997 4286940545
0.063670322 0.035495084 0.62900001 4286873988
0.064760365 0.035439353 0.62800002 4287201925
0.065951668 0.035440061 0.62800002 4287201925
0.067143001 0.035440788 0.62800002 4287463813
0.068334393 0.035441522 0.62800002 4287529606
0.069082968 0.035216521 0.62400001 4287202177
0.070266843 0.035217274 0.62400001 4287202177
0.071794279 0.035387363 0.62699997 4287202186
0.072983928 0.035388146 0.62699997 4287465357
0.073937036 0.035276052 0.625 4287465609
0.075122982 0.035276864 0.625 4287465609
0.076308981 0.035277676 0.625 4287531405
0.077495009 0.035278503 0.625 4287662991
0.078681096 0.035279345 0.625 4287859854
0.079867251 0.035280198 0.625 4287793805
0.080923736 0.035224609 0.62400001 4287597198
0.082108051 0.035225485 0.62400001 4288386457
0.092749462 0.034783095 0.616 4289637296
0.10647233 0.033950388 0.60100001 4291479237
0.10761423 0.03395148 0.60100001 4291676111
0.10857523 0.033896085 0.60000002 4291939284
0.10971534 0.033897188 0.60000002 4292005329
0.11067075 0.0338418 0.59899998 4293123554
0.1116224 0.033786424 0.59799999 4292203991
0.11275887 0.033787552 0.59799999 4291414475
0.11370495 0.033732187 0.597 4291612354
0.1144549 0.033620317 0.59500003 4292467406
0.11539154 0.033564955 0.59399998 4289838299
0.11652061 0.033566102 0.59399998 4286877613
0.11764971 0.033567257 0.59399998 4283461493
0.12022232 0.033344712 0.58999997 4289703310
0.12134404 0.033345889 0.58999997 4293517226
0.12225822 0.03329055 0.58899999 4294175412
0.12337814 0.033291742 0.58899999 4294372844
0.12449809 0.033292942 0.58899999 4294966266
0.1256181 0.033294145 0.58899999 4294966527
0.12673816 0.033295356 0.58899999 4294967039
0.12807535 0.033353101 0.58999997 4294569466
0.1291974 0.033354327 0.58999997 4294174708
0.13099609 0.033243719 0.588 4291412156
0.13211447 0.03324496 0.588 4287399862
0.13366592 0.033077825 0.58499998 4279634306
0.13454834 0.033022523 0.58399999 4278190187
0.13565932 0.033023778 0.58399999 4278190080
0.13653614 0.032968484 0.583 4278190080
0.13764527 0.032969743 0.583 4279970816
0.13875447 0.03297101 0.583 4281352450
0.14526331 0.032697141 0.57800001 4294175996
0.14636332 0.032698426 0.57800001 4294110203
-0.10974555 0.042962171 0.736 4285034869
-0.10834732 0.042960893 0.736 4280172083
-0.10723978 0.043076374 0.73799998 4286422162
-0.10526425 0.042841654 0.73400003 4290750629
-0.10387005 0.042840421 0.73400003 4291869366
-0.10247588 0.042839207 0.73400003 4291806119
-0.10094407 0.042779628 0.73299998 4283648044
-0.099551961 0.042778444 0.73299998 4278328832
-0.096686833 0.042135313 0.722 4281486878
-0.095051706 0.042017452 0.72000003 4282857047
-0.093684487 0.042016327 0.72000003 4286015111
-0.092317306 0.04201521 0.72000003 4287065710
-0.090823889 0.04195575 0.71899998 4284697161
-0.089458756 0.041954663 0.71899998 4283192832
-0.089563943 0.042653792 0.73100001 4292930178
-0.088176146 0.042652711 0.73100001 4294770687
-0.084413901 0.041484714 0.71100003 4294967295
-0.082947366 0.04142534 0.70999998 4294967295
-0.081369758 0.041307654 0.708 4289771715
-0.080025852 0.04130666 0.708 4285163386
-0.078682043 0.041305691 0.708 4278190087
-0.078212127 0.041771449 0.71600002 4278190080
-0.076853208 0.041770488 0.71600002 4290033074
-0.075494371 0.041769549 0.71600002 4293912293
-0.074135564 0.041768622 0.71600002 4294767602
-0.072776832 0.041767713 0.71600002 4292466647
-0.071517892 0.041825138 0.71700001 4290690237
-0.070157371 0.041824263 0.71700001 4292070854
-0.068796895 0.041823383 0.71700001 4293452507
-0.066872157 0.041472558 0.71100003 4293256677
-0.065523162 0.04147172 0.71100003 4292796126
-0.064174235 0.0414709 0.71100003 4292203476
-0.062736973 0.041411769 0.70999998 4292795356
-0.061390039 0.041410983 0.70999998 4293058012
-0.059874021 0.041293561 0.708 4293123805
-0.058530964 0.041292809 0.708 4292926683
-0.057107188 0.041233748 0.70700002 4292860890
-0.055766132 0.041233025 0.70700002 4292729050
-0.054425109 0.041232318 0.70700002 4293058014
-0.053009048 0.041173302 0.70599997 4293386210
-0.051670022 0.041172624 0.70599997 4293189088
-0.050331026 0.041171961 0.70599997 4292925913
-0.048783895 0.040996369 0.70300001 4293057499
-0.036629271 0.040816348 0.69999999 4291675585
-0.035302062 0.040815864 0.69999999 4291346363
-0.033877816 0.040698778 0.69800001 4291411645
-0.032554459 0.040698331 0.69800001 4291016887
-0.031231131 0.040697895 0.69800001 4290228400
-0.02990783 0.040697474 0.69800001 4290096814
-0.028543605 0.040638763 0.69700003 4290097584
-0.027222255 0.04063838 0.69700003 4289505447
-0.025900926 0.040638003 0.69700003 4289373093
-0.0044207089 0.037719287 0.64700001 4290557363
-0.0031894902 0.037660901 0.64600003 4290294447
-0.0019651116 0.03766083 0.64600003 4290425263
-0.00073844468 0.037544165 0.64399999 4289701541
0.00048213298 0.037544124 0.64399999 4289766564
0.0017000628 0.037485793 0.64300001 4289569441
0.0029187379 0.037485775 0.64300001 4289504161
0.052728493 0.037381142 0.64099997 4287531650
0.053944055 0.037381735 0.64099997 4287465859
0.055073604 0.037324023 0.63999999 4287465859
0.058164462 0.036975987 0.634 4286875005
0.059179649 0.036859997 0.63200003 4286940799
0.060187273 0.036744006 0.63 4287005829
0.06138223 0.03674468 0.63 4287005829
0.062477898 0.036687046 0.62900001 4287136645
0.063671023 0.036687747 0.62900001 4287136645
0.064761072 0.036630124 0.62800002 4287463813
0.065952383 0.03663085 0.62800002 4287463813
0.067143746 0.036631592 0.62800002 4287529606
0.068335138 0.03663234 0.62800002 4287529606
0.069083728 0.036399767 0.62400001 4287004797
0.07026761 0.036400534 0.62400001 4287202177
0.071451537 0.036401317 0.62400001 4287136647
0.072635524 0.03640211 0.62400001 4287334026
0.073819548 0.036402918 0.62400001 4287465355
0.074883401 0.036345392 0.62300003 4287531405
0.076065615 0.036346223 0.62300003 4287662991
0.077247873 0.036347069 0.62300003 4287728784
0.079484738 0.036290441 0.62199998 4287859854
0.080405854 0.036174625 0.62 4287662478
0.081582598 0.036175508 0.62 4288517787
0.082759388 0.036176398 0.62 4288715681
0.099628456 0.035491727 0.60799998 4290161842
0.10647342 0.035090614 0.60100001 4291479496
0.10761534 0.035091724 0.60100001 4291479500
0.10857635 0.035034448 0.60000002 4291742673
0.10953359 0.034977179 0.59899998 4292005331
0.11067188 0.034978312 0.59899998 4292860640
0.1118102 0.034979448 0.59899998 4292138196
0.11257146 0.034863804 0.597 4291611852
0.11351562 0.034806557 0.59600002 4291152069
0.11426365 0.034690905 0.59399998 4291546827
0.11519843 0.03463367 0.59299999 4291876051
0.11612944 0.034576431 0.59200001 4289836724
0.1170567 0.034519192 0.59100002 4289243300
0.1179802 0.034461964 0.58999997 4288782749
0.11910182 0.034463149 0.58999997 4289702054
0.12001974 0.034405928 0.58899999 4292334031
0.12113956 0.034407124 0.58899999 4294305506
0.12205184 0.034349907 0.588 4294634471
0.12296041 0.034292698 0.58700001 4294833649
0.12407657 0.034293912 0.58700001 4294833649
0.12519278 0.034295131 0.58700001 4294835193
0.12609386 0.034237932 0.58600003 4294045678
0.12720828 0.034239162 0.58600003 4292926946
0.12832274 0.034240402 0.58600003 4292071638
0.12943721 0.034241643 0.58600003 4288655276
0.13232781 0.034128528 0.58399999 4279447342
0.13321021 0.034071352 0.583 4278190101
0.13431922 0.034072615 0.583 4278190093
0.13542829 0.034073886 0.583 4278190080
0.1363032 0.034016717 0.58200002 4278190080
0.13717434 0.033959541 0.58099997 4282853702
0.13804173 0.033902369 0.57999998 4289169829
0.13890535 0.033845197 0.579 4289044653
0.14000702 0.033846486 0.579 4290755528
0.14013387 0.033613931 0.57499999 4292728520
0.14122801 0.033615217 0.57499999 4294439139
0.14232218 0.033616513 0.57499999 4294441201
0.14366581 0.033676267 0.57599998 4293783527
0.14476195 0.033677567 0.57599998 4293256159
0.1562199 0.032877065 0.56199998 4294570222
-0.10929947 0.044177677 0.73299998 4278193920
-0.10834859 0.044357188 0.736 4281419566
-0.10665981 0.044235375 0.73400003 4290630585
-0.10526551 0.044234104 0.73400003 4290887891
-0.10372975 0.044172581 0.73299998 4289966789
-0.10233749 0.044171341 0.73299998 4288454027
-0.10094529 0.044170115 0.73299998 4283782724
-0.097787552 0.043385558 0.72000003 4286609494
-0.096018426 0.043203607 0.71700001 4289701765
-0.09465681 0.043202445 0.71700001 4287531947
-0.093295254 0.043201298 0.71700001 4282663266
-0.091933765 0.043200165 0.71700001 4282138137
-0.09044604 0.043138795 0.71600002 4281940501
-0.089086577 0.043137692 0.71600002 4286404197
-0.087114565 0.042835373 0.71100003 4294959601
-0.085764728 0.042834304 0.71100003 4294967295
-0.084414944 0.04283325 0.71100003 4294967295
-0.082948394 0.042771965 0.70999998 4294967295
-0.081370756 0.042650457 0.708 4289376175
-0.08002685 0.042649444 0.708 4282144610
-0.078683004 0.042648457 0.708 4278190083
-0.07733921 0.042647477 0.708 4278190080
-0.076854169 0.043128394 0.71600002 4289641390
-0.075284421 0.04300696 0.71399999 4294637288
-0.073929414 0.043006014 0.71399999 4294967282
-0.072777748 0.043125551 0.71600002 4292532700
-0.07141906 0.043124638 0.71600002 4290229945
-0.07006041 0.043123737 0.71600002 4291282885
-0.068509914 0.043002393 0.71399999 4292993503
-0.066873007 0.042820849 0.71100003 4293321954
-0.065523997 0.042819992 0.71100003 4292861403
-0.064084791 0.042758942 0.70999998 4292664538
-0.062737778 0.042758122 0.70999998 4292598745
-0.061217893 0.042636868 0.708 4292926683
-0.059790216 0.042575866 0.70700002 4293058012
-0.058366373 0.042514876 0.70599997 4293189085
-0.057027154 0.042514127 0.70599997 4293583843
-0.055530213 0.042392951 0.704 4293255135
-0.054194875 0.042392232 0.704 4293386464
-0.052859571 0.042391527 0.704 4293321187
-0.051451139 0.042330626 0.70300001 4293255394
-0.050117813 0.042329956 0.70300001 4293123808
-0.048784539 0.042329293 0.70300001 4292926685
-0.046641316 0.041606117 0.69099998 4293189085
-0.045330882 0.041605502 0.69099998 4293255135
-0.035201684 0.042022578 0.69800001 4291017914
-0.033878278 0.042022102 0.69800001 4290886585
-0.03255491 0.042021643 0.69800001 4290623156
-0.031231565 0.042021196 0.69800001 4290163109
-0.029865401 0.041960567 0.69700003 4289965987
-0.026636783 0.041056745 0.68199998 4289241503
-0.025269557 0.040935982 0.68000001 4289175460
-0.023980463 0.040935624 0.68000001 4289241253
-0.00073849934 0.038764976 0.64399999 4289767334
0.00048209346 0.038764928 0.64399999 4289504680
0.057981625 0.03805767 0.63200003 4287006081
0.059086666 0.037998114 0.63099998 4287334789
0.060092416 0.037878346 0.62900001 4286940036
0.061285488 0.037879035 0.62900001 4286874242
0.062478606 0.037879735 0.62900001 4287005058
0.063570514 0.03782022 0.62800002 4287070852
0.064761795 0.037820946 0.62800002 4287463813
0.065848097 0.037761454 0.62699997 4287463813
0.066716827 0.037581526 0.62400001 4287333254
0.067900635 0.037582282 0.62400001 4287530889
0.069084495 0.037583053 0.62400001 4287662726
0.070155784 0.037523609 0.62300003 4287662726
0.071337841 0.037524402 0.62300003 4287465355
0.072519928 0.037525207 0.62300003 4287334026
0.073702067 0.037526034 0.62300003 4287400335
0.074764036 0.037466627 0.62199998 4287466128
0.075944364 0.037467469 0.62199998 4287596944
0.079230033 0.037349585 0.62 4288320405
0.080277056 0.037290234 0.61900002 4288123029
0.094854295 0.036580667 0.60699999 4290163379
0.096007064 0.036581703 0.60699999 4290623930
0.097159885 0.036582746 0.60699999 4290425784
0.11256446 0.035635978 0.59100002 4291742675
0.11368776 0.035637148 0.59100002 4291479246
0.11500534 0.035698626 0.59200001 4291611586
0.11593446 0.035639506 0.59100002 4293256411
0.11666175 0.035520084 0.58899999 4292994275
0.11778141 0.03552128 0.58899999 4293125604
0.11869927 0.035462171 0.588 4293125091
0.11981717 0.035463382 0.588 4293651435
0.12052376 0.035343971 0.58600003 4293255133
0.12143035 0.035284873 0.58499998 4291807687
0.12254268 0.035286095 0.58499998 4289307578
0.12365504 0.035287324 0.58499998 4288386476
0.12476744 0.035288557 0.58499998 4282927247
0.12587991 0.035289802 0.58499998 4282006145
0.12677535 0.03523073 0.58399999 4279179035
0.127886 0.035231981 0.58399999 4278190080
0.1289967 0.035233241 0.58399999 4278190080
0.13010745 0.035234503 0.58399999 4278190080
0.13099356 0.035175439 0.583 4278190080
0.1318759 0.035116378 0.58200002 4278190080
0.13298298 0.03511766 0.58200002 4278190592
0.13583608 0.035000827 0.57999998 4281744715
0.13866673 0.034884021 0.57800001 4294831611
0.13928288 0.03476461 0.57599998 4294965503
0.14013518 0.034705557 0.57499999 4294899694
0.1409837 0.034646504 0.574 4294965744
0.14207597 0.034647811 0.574 4294110701
0.14316829 0.034649119 0.574 4287991951
0.14426059 0.03465043 0.574 4283386430
0.14484654 0.034531016 0.57200003 4278190080
0.14593515 0.034532335 0.57200003 4278190080
0.15462972 0.034062497 0.56400001 4289039692
0.15542738 0.034003429 0.56300002 4293908631
0.15622123 0.03394435 0.56199998 4294239972
0.15701129 0.033885274 0.56099999 4294832365
0.15751581 0.033765785 0.55900002 4293781990
-0.10978735 0.045196675 0.727 4278781184
-0.10840611 0.045195352 0.727 4280425743
-0.10790826 0.045567036 0.73299998 4282204204
-0.1066611 0.045627899 0.73400003 4289507228
-0.10526678 0.045626607 0.73400003 4287211955
-0.10373101 0.045563158 0.73299998 4285830302
-0.10080296 0.044878162 0.722 4283788157
-0.098743051 0.044566147 0.71700001 4285761947
-0.097381286 0.04456494 0.71700001 4291995837
-0.096019603 0.044563748 0.71700001 4293311697
-0.094657972 0.04456256 0.71700001 4291679180
-0.093296409 0.04456139 0.71700001 4287600015
-0.091806687 0.044498093 0.71600002 4283853437
-0.090194501 0.044372652 0.71399999 4285564054
-0.088714413 0.044309389 0.713 4292847287
-0.087115645 0.044183992 0.71100003 4294958574
-0.085645154 0.044120762 0.70999998 4294967295
-0.08394108 0.043933269 0.70700002 4294967294
-0.0824821 0.043870069 0.70599997 4292799712
-0.080912061 0.043744761 0.704 4287733394
-0.079575732 0.043743741 0.704 4278800708
-0.078239463 0.043742735 0.704 4278206258
-0.076903239 0.04374174 0.704 4279780165
-0.075781755 0.043865025 0.70599997 4289254356
-0.075179949 0.044298973 0.713 4294964974
-0.073826812 0.044298008 0.713 4294966003
-0.072575383 0.044359192 0.71399999 4292927712
-0.071220472 0.044358257 0.71399999 4290493371
-0.069865599 0.044357341 0.71399999 4291676096
-0.06822294 0.04417007 0.71100003 4293255385
-0.066779807 0.044107068 0.70999998 4293519336
-0.065432698 0.0441062 0.70999998 4292927198
-0.064085633 0.044105351 0.70999998 4292730333
-0.062473509 0.043918159 0.70700002 4292598747
-0.061132237 0.043917347 0.70700002 4293058012
-0.059537284 0.043730184 0.704 4293189599
-0.058119118 0.043667294 0.70300001 4293451744
-0.056785569 0.043666527 0.70300001 4293780708
-0.055452075 0.043665785 0.70300001 4293386464
-0.054118615 0.043665048 0.70300001 4293386464
-0.052334689 0.043291666 0.69700003 4293321441
-0.051012691 0.043290969 0.69700003 4293255648
-0.049476855 0.043103956 0.69400001 4293386464
-0.048091237 0.043041192 0.69300002 4293255135
-0.046641953 0.042916331 0.69099998 4293123808
-0.045331493 0.042915698 0.69099998 4292926685
-0.044021077 0.042915091 0.69099998 4293123294
-0.042710703 0.042914495 0.69099998 4292267986
-0.041400354 0.042913917 0.69099998 4292005583
-0.036525626 0.043346468 0.69800001 4291084731
-0.029137386 0.042226356 0.68000001 4289309599
-0.027848212 0.042225949 0.68000001 4289373093
-0.026559053 0.042225551 0.68000001 4289241507
-0.02523276 0.042163074 0.67900002 4289241507
-0.02394555 0.042162716 0.67900002 4289241507
-0.022658361 0.042162366 0.67900002 4289307298
0.031268597 0.038810115 0.625 4288978065
0.032453395 0.038810462 0.625 4288846736
0.034934498 0.038935415 0.62699997 4289173915
0.036123157 0.038935814 0.62699997 4288845716
0.051907074 0.039190765 0.63099998 4288123531
0.053103693 0.039191373 0.63099998 4287991690
0.054128245 0.039067764 0.62900001 4287399553
0.055321146 0.039068393 0.62900001 4287136897
0.056514077 0.039069038 0.62900001 4287136897
0.05770706 0.039069697 0.62900001 4286808193
0.058993697 0.039132483 0.63 4286940036
0.060093105 0.039071057 0.62900001 4286940036
0.061286185 0.039071754 0.62900001 4286874242
0.062379979 0.039010346 0.62800002 4287005310
0.063571244 0.039011069 0.62800002 4287136897
0.066610657 0.038702704 0.62300003 4287399303
0.067574948 0.038579222 0.62099999 4287662476
0.068753131 0.038580008 0.62099999 4287532173
0.069931366 0.038580801 0.62099999 4287466380
0.071109623 0.038581606 0.62099999 4287531405
0.072287932 0.038582426 0.62099999 4287728784
0.075090535 0.038212158 0.61500001 4287597198
0.076257624 0.038213018 0.61500001 4287991700
0.077550657 0.038276024 0.616 4288123029
0.07871975 0.038276915 0.616 4288254358
0.07988888 0.038277816 0.616 4288254358
0.081058063 0.038278721 0.616 4288583580
0.093702614 0.0377311 0.60699999 4290359986
0.09469907 0.037669983 0.60600001 4290294708
0.11218471 0.036633048 0.58899999 4292991708
0.11330419 0.036634233 0.58899999 4292267986
0.11461799 0.036697619 0.58999997 4292136136
0.11554331 0.036636621 0.58899999 4293386203
0.11646488 0.03657563 0.588 4292993505
0.11738268 0.036514632 0.58700001 4293454056
0.11829676 0.036453649 0.58600003 4292927707
0.11941085 0.036454871 0.58600003 4290822588
0.12031929 0.036393885 0.58499998 4290164140
0.121224 0.036332909 0.58399999 4289572003
0.12233443 0.03633415 0.58399999 4286158224
0.1234449 0.036335398 0.58399999 4283526504
0.1247687 0.036398876 0.58499998 4278398012
0.12566601 0.03633792 0.58399999 4278190088
0.12655953 0.036276959 0.583 4278190080
0.12766828 0.036278225 0.583 4278190080
0.12833531 0.036155045 0.58099997 4278190080
0.12921758 0.036094099 0.57999998 4278190080
0.13032077 0.036095381 0.57999998 4278190080
0.13142401 0.036096666 0.57999998 4279111182
0.13904238 0.035795886 0.57499999 4294966264
0.13989277 0.035734955 0.574 4294966009
0.1407394 0.035674017 0.57300001 4294768887
0.14182976 0.035675343 0.57300001 4294044909
0.14459462 0.0355548 0.57099998 4278190080
0.15033646 0.035128217 0.56400001 4280096030
0.15141007 0.035129555 0.56400001 4279898395
0.1524837 0.035130888 0.56400001 4278190080
0.15463106 0.035133574 0.56400001 4282853120
0.15542869 0.035072617 0.56300002 4290024539
0.15622254 0.03501166 0.56199998 4293446835
0.15701263 0.034950703 0.56099999 4294762695
0.15751712 0.034827437 0.55900002 4294438891
0.15801401 0.03470416 0.55699998 4293978340
-0.10948665 0.046447895 0.72500002 4279444258
-0.10810922 0.046446562 0.72500002 4280036396
-0.10761517 0.046829611 0.73100001 4284891183
-0.10651708 0.046956394 0.73299998 4292654501
-0.10526808 0.047019154 0.73400003 4294243011
-0.10387382 0.04701785 0.73400003 4294243011
-0.1008042 0.046247888 0.722 4293061615
-0.098606579 0.045862317 0.71600002 4293522166
-0.097246684 0.045861091 0.71600002 4291937778
-0.096020803 0.045923922 0.71700001 4291082726
-0.094659165 0.045922715 0.71700001 4291020190
-0.093297593 0.045921531 0.71700001 4292336050
-0.09180785 0.045856304 0.71600002 4292466145
-0.090195663 0.045727063 0.71399999 4293584627
-0.088715538 0.045661874 0.713 4291342813
-0.086994231 0.045468625 0.70999998 4290158539
-0.085404985 0.045339439 0.708 4288846706
-0.083942153 0.045274314 0.70700002 4287925604
-0.082483158 0.045209195 0.70599997 4287404611
-0.080913104 0.045080073 0.704 4288128335
-0.079576753 0.045079034 0.704 4293191075
-0.078129329 0.045013975 0.70300001 4294375605
-0.076794997 0.045012966 0.70300001 4294900989
-0.07546071 0.045011967 0.70300001 4294967295
-0.074970037 0.0455232 0.71100003 4294967289
-0.073620692 0.045522228 0.71100003 4294967287
-0.072474688 0.045649309 0.713 4293387749
-0.071121655 0.045648362 0.713 4290558394
-0.06957297 0.045519393 0.71100003 4291085508
-0.067935966 0.045326415 0.708 4292993505
-0.066592582 0.045325518 0.708 4293321187
-0.064880602 0.045068566 0.704 4293123808
-0.063544899 0.045067709 0.704 4292926685
-0.062120881 0.045002852 0.70300001 4292926685
-0.060787171 0.045002017 0.70300001 4293124057
-0.059453517 0.045001213 0.70300001 4293189851
-0.057954557 0.044872392 0.70099998 4293255135
-0.056624789 0.044871617 0.70099998 4293452257
-0.05505842 0.044678826 0.69800001 4293255648
-0.053426489 0.044422042 0.69400001 4293255648
-0.052110128 0.044421323 0.69400001 4293189599
-0.050720628 0.044356614 0.69300002 4293189599
-0.049263649 0.044227902 0.69099998 4293386464
-0.047883704 0.044163235 0.69 4293386464
-0.046575088 0.044162583 0.69 4293255135
-0.045332123 0.044225946 0.69099998 4292991706
-0.044021681 0.044225313 0.69099998 4293057501
-0.042711291 0.044224717 0.69099998 4292333779
-0.041400932 0.044224121 0.69099998 4292005842
-0.040090606 0.044223547 0.69099998 4291611085
-0.032908488 0.043388981 0.67799997 4290098095
-0.031669639 0.043452512 0.67900002 4289835180
-0.030382287 0.043452062 0.67900002 4289834659
-0.029094961 0.043451626 0.67900002 4288847764
-0.027848613 0.043515194 0.68000001 4289242023
-0.026559446 0.043514796 0.68000001 4289242023
-0.025233135 0.043450419 0.67900002 4289307300
-0.023945905 0.04345005 0.67900002 4289307300
-0.022658704 0.043449689 0.67900002 4289242273
0.030180415 0.040122688 0.62699997 4288716181
0.031268947 0.039995048 0.625 4288715661
0.032453768 0.03999541 0.625 4287597436
0.033638597 0.03999579 0.625 4286346890
0.03493489 0.040124159 0.62699997 4286018182
0.03612357 0.040124577 0.62699997 4285623140
0.049357545 0.040258035 0.62900001 4288057999
0.050550327 0.040258616 0.62900001 4287991940
0.051743142 0.040259216 0.62900001 4288123783
0.052935995 0.040259831 0.62900001 4287399303
0.054042816 0.040196449 0.62800002 4287004545
0.055145875 0.040133074 0.62699997 4286940288
0.056155346 0.04000571 0.625 4287006081
0.057340745 0.040006377 0.625 4286808195
0.058807109 0.040199097 0.62800002 4286873988
0.066611432 0.03988415 0.62300003 4287530891
0.067575738 0.03975689 0.62099999 4287859600
0.068753935 0.039757688 0.62099999 4287859854
0.069819562 0.039694469 0.62 4287662476
0.070995934 0.039695289 0.62 4287793809
0.075091399 0.039378546 0.61500001 4288057749
0.076258503 0.039379422 0.61500001 4288452251
0.087795869 0.038813412 0.60600001 4289834157
0.088652901 0.038686313 0.60399997 4289965744
0.089799739 0.038687326 0.60399997 4290096562
0.090946622 0.038688347 0.60399997 4290162355
0.10938705 0.037556101 0.58600003 4293783275
0.11050075 0.037557278 0.58600003 4293783275
0.11161448 0.037558466 0.58600003 4294045159
0.11272828 0.037559662 0.58600003 4294045159
0.11403639 0.037624966 0.58700001 4293518563
0.11515219 0.037626185 0.58700001 4293321441
0.11606997 0.037563309 0.58600003 4292927458
0.11718394 0.037564535 0.58600003 4293190886
0.11809611 0.037501663 0.58499998 4292138698
0.11900453 0.037438791 0.58399999 4280690716
0.12011487 0.03744005 0.58399999 4278199040
0.12101768 0.037377186 0.583 4278192896
0.12212621 0.037378449 0.583 4278190080
0.1281157 0.037193753 0.57999998 4278190081
0.12899607 0.037130922 0.579 4278190080
0.14491729 0.036447838 0.56800002 4278190080
0.1457413 0.036385015 0.56699997 4278258957
0.14737797 0.036259364 0.565 4279505690
0.14819066 0.036196537 0.56400001 4279637526
0.14926422 0.036197886 0.56400001 4279900698
0.15007123 0.036135055 0.56300002 4279900192
0.15114294 0.036136407 0.56300002 4279900192
0.15221468 0.036137767 0.56300002 4279242518
0.15751849 0.035889111 0.55900002 4294042848
0.15801534 0.035762053 0.55699998 4294898156
0.15850469 0.035634991 0.55500001 4294044909
-0.10918598 0.047691587 0.72299999 4278918429
-0.10781233 0.047690224 0.72299999 4280102704
-0.10673317 0.047820807 0.72500002 4286990399
-0.10651842 0.048347127 0.73299998 4294425008
-0.10526939 0.048411742 0.73400003 4294964717
-0.10387513 0.048410423 0.73400003 4293977822
-0.099688515 0.047090054 0.71399999 4292797923
-0.098332368 0.047088794 0.71399999 4292403421
-0.09697628 0.047087554 0.71399999 4288854736
-0.095888108 0.047218215 0.71600002 4284841362
-0.094528347 0.047216978 0.71600002 4283713805
-0.093168654 0.047215771 0.71600002 4288911709
-0.09155257 0.047082685 0.71399999 4293183931
-0.090196826 0.047081511 0.71399999 4292262829
-0.088716671 0.047014408 0.713 4287733672
-0.086995348 0.046815451 0.70999998 4287339170
-0.08540611 0.046682443 0.708 4286486158
-0.083943233 0.046615403 0.70700002 4286749330
-0.082484238 0.046548374 0.70599997 4289177236
-0.080914155 0.046415433 0.704 4292006335
-0.079464756 0.046348445 0.70300001 4294832365
-0.077796936 0.046149611 0.69999999 4294964723
-0.076468281 0.046148594 0.69999999 4294967282
-0.075461708 0.046345357 0.70300001 4294899690
-0.074971035 0.046871755 0.71100003 4294571744
-0.073621675 0.046870761 0.71100003 4294967278
-0.072475657 0.047001619 0.713 4293651183
-0.071122609 0.047000654 0.713 4290624705
-0.069476038 0.046801947 0.70999998 4291149752
-0.06774497 0.046537347 0.70599997 4293386714
-0.066217244 0.046404608 0.704 4293518050
-0.06478931 0.046337802 0.70300001 4293255135
-0.063274965 0.0462051 0.70099998 4292794330
-0.061856616 0.046138339 0.69999999 4293057501
-0.060528591 0.046137497 0.69999999 4293321441
-0.059200611 0.046136674 0.69999999 4293255648
-0.057872668 0.046135865 0.69999999 4292993503
-0.056302447 0.045937352 0.69700003 4292993503
-0.054743655 0.045738868 0.69400001 4292993505
-0.05335024 0.045672201 0.69300002 4292993505
-0.051885594 0.045539666 0.69099998 4292926685
-0.050501756 0.045473039 0.69 4293123808
-0.049050454 0.045340538 0.68800002 4293518050
-0.047745574 0.045339856 0.68800002 4293386464
-0.046440747 0.045339201 0.68800002 4293255135
-0.04526715 0.045470342 0.69 4293123292
-0.044022314 0.045535609 0.69099998 4293058014
-0.042711895 0.045534987 0.69099998 4292663257
-0.04140152 0.045534384 0.69099998 4292137683
-0.040091179 0.045533802 0.69099998 4291084994
-0.032908969 0.044674534 0.67799997 4290097330
-0.03162346 0.044674054 0.67799997 4289702828
-0.030337989 0.044673596 0.67799997 4289111972
-0.029052541 0.044673156 0.67799997 4289046179
-0.027808074 0.044738613 0.67900002 4289242790
-0.026520785 0.044738207 0.67900002 4289045155
-0.025233516 0.04473782 0.67900002 4289110435
-0.023946272 0.044737432 0.67900002 4289176484
-0.022659052 0.044737075 0.67900002 4289504161
0.027803596 0.041310798 0.62699997 4289043862
0.028899686 0.041179352 0.625 4289043608
0.030084485 0.041179687 0.625 4288714900
0.031369362 0.041311812 0.62699997 4287992201
0.032557987 0.04131218 0.62699997 4286873977
0.033800457 0.041378457 0.62800002 4285101423
0.034991015 0.041378859 0.62800002 4285035630
0.036181599 0.041379273 0.62800002 4284834907
0.046972629 0.041449584 0.62900001 4287597446
0.048088789 0.041384254 0.62800002 4287597448
0.049279656 0.041384831 0.62800002 4287663241
0.050470557 0.04138542 0.62800002 4287663752
0.051661495 0.041386027 0.62800002 4287532423
0.052768294 0.041320749 0.62699997 4286611071
0.053957399 0.041321382 0.62699997 4286874242
0.054882679 0.041124318 0.62400001 4287006079
0.055976313 0.041059081 0.62300003 4286940285
0.05715793 0.041059751 0.62300003 4286808195
0.058433224 0.041126348 0.62400001 4286808195
0.059712347 0.041192956 0.625 4286808195
0.063526519 0.040602691 0.616 4287466380
0.064695112 0.040603448 0.616 4287400587
0.065863758 0.04060423 0.616 4287596685
0.067250066 0.040736847 0.61799997 4287793807
0.068422586 0.040737651 0.61799997 4287859854
0.073925182 0.040544096 0.61500001 4288384661
0.088653907 0.039832093 0.60399997 4289965996
0.089800753 0.039833121 0.60399997 4290096560
0.1090149 0.038536128 0.58399999 4292402647
0.10993622 0.038471334 0.583 4292073938
0.11104427 0.038472537 0.583 4292532938
0.11215237 0.038473748 0.583 4293585883
0.11364906 0.038606957 0.58499998 4293585129
0.11456488 0.038542189 0.58399999 4293255907
0.11547697 0.038477428 0.583 4292796130
0.11658526 0.038478669 0.583 4293190632
0.11749173 0.038413912 0.58200002 4292139481
0.11839444 0.038349167 0.58099997 4285099374
0.11949908 0.038350422 0.58099997 4280358444
0.1203962 0.038285684 0.57999998 4278190080
0.12149901 0.03828695 0.57999998 4278190080
0.12260191 0.038288236 0.57999998 4278190080
0.12370484 0.038289525 0.57999998 4278784527
0.12459264 0.038224798 0.579 4278784527
0.12569375 0.038226087 0.579 4278192133
0.14766651 0.0371354 0.56199998 4279245078
0.14873625 0.037136763 0.56199998 4279376920
0.14980602 0.037138134 0.56199998 4279376670
0.15589578 0.036817249 0.55699998 4288773986
0.15695624 0.036818609 0.55699998 4292920743
0.15773302 0.036753874 0.55599999 4294236347
0.15822044 0.036623027 0.55400002 4294109417
-0.10873429 0.048859883 0.72000003 4279508257
-0.10736633 0.048858505 0.72000003 4281547583
-0.10540955 0.048585702 0.71600002 4284826424
-0.10375868 0.048448652 0.71399999 4288378989
-0.10225891 0.048379477 0.713 4285947244
-0.1009045 0.048378162 0.713 4281867822
-0.09955018 0.048376858 0.713 4278193686
-0.09819591 0.048375584 0.713 4278190082
-0.09697751 0.048442151 0.71399999 4278191115
-0.095621482 0.048440896 0.71399999 4278190080
-0.094265521 0.048439659 0.71399999 4281868033
-0.092909619 0.04843843 0.71399999 4285421111
-0.091553785 0.048437219 0.71399999 4290947939
-0.090197995 0.048436016 0.71399999 4291474540
-0.088468991 0.048231326 0.71100003 4294174890
-0.086996488 0.048162315 0.70999998 4294966204
-0.085407227 0.048025511 0.708 4294966783
-0.083825618 0.047888719 0.70599997 4294966783
-0.082251668 0.047751945 0.704 4294966271
-0.08057043 0.04754737 0.70099998 4294965759
-0.079126701 0.047478467 0.69999999 4292860134
-0.077575706 0.04734176 0.69800001 4289109933
-0.076141588 0.047272891 0.69700003 4287727471
-0.074818663 0.04727187 0.69700003 4286806369
-0.074972041 0.048220348 0.71100003 4291737768
-0.073622666 0.048219338 0.71100003 4294967288
-0.072476633 0.04835397 0.713 4294373359
-0.07112357 0.048352987 0.713 4290426036
-0.069476992 0.04814858 0.70999998 4290756030
-0.067745894 0.047876373 0.70599997 4293255907
-0.065559737 0.047265146 0.69700003 4293518304
-0.06423723 0.047264241 0.69700003 4293584097
-0.062914781 0.047263358 0.69700003 4293255135
-0.061592374 0.04726249 0.69700003 4293057499
-0.060270019 0.04726164 0.69700003 4293189601
-0.058947712 0.047260802 0.69700003 4293255394
-0.057625454 0.047259986 0.69700003 4293124578
-0.056060895 0.04705577 0.69400001 4293255907
-0.054665528 0.046987195 0.69300002 4293059298
-0.053197026 0.046850823 0.69099998 4293059298
-0.051886313 0.04685007 0.69099998 4293189601
-0.050502464 0.046781544 0.69 4293189601
-0.049051151 0.046645232 0.68800002 4293452255
-0.047607455 0.046508946 0.68599999 4293386462
-0.046306398 0.046508275 0.68599999 4293255135
-0.045005377 0.046507616 0.68599999 4293386464
-0.043704398 0.046506975 0.68599999 4293386464
-0.042403448 0.046506342 0.68599999 4292794584
-0.04110254 0.046505734 0.68599999 4292071890
-0.039163444 0.045759432 0.67500001 4290953152
-0.036657736 0.045826111 0.676 4290624439
-0.034094129 0.045825053 0.676 4289767084
-0.032812379 0.045824561 0.676 4289767851
-0.031530648 0.045824077 0.676 4289636009
-0.030248951 0.045823604 0.676 4289505445
-0.028967276 0.045823157 0.676 4289439652
-0.027685635 0.045822728 0.676 4289242275
-0.026404012 0.045822307 0.676 4288913053
-0.025233904 0.046025265 0.67900002 4288914078
-0.023946643 0.046024874 0.67900002 4289111200
-0.0067677367 0.043174751 0.63700002 4290688699
-0.0055603147 0.043174621 0.63700002 4290557113
-0.0043529021 0.043174505 0.63700002 4290426032
-0.0031454968 0.043174401 0.63700002 4290426032
-0.00073414593 0.043377586 0.63999999 4290557102
0.00047743192 0.04324197 0.63800001 4290687143
0.0016867116 0.043241937 0.63800001 4290423715
0.026700241 0.042634863 0.62900001 4286412924
0.027803915 0.042499609 0.62699997 4286412924
0.028900022 0.042364374 0.625 4286082930
0.030084832 0.042364713 0.625 4285424744
0.031369723 0.042500637 0.62699997 4285425246
0.032558363 0.042501017 0.62699997 4285557088
0.033800855 0.042569201 0.62800002 4286084195
0.034991428 0.042569604 0.62800002 4286939504
0.036182027 0.042570025 0.62800002 4286873977
0.046898499 0.042574503 0.62800002 4288057483
0.048089355 0.042575084 0.62800002 4287729288
0.049280252 0.042575672 0.62800002 4287597446
0.050390791 0.042508472 0.62699997 4287334793
0.051579844 0.04250909 0.62699997 4287334793
0.052768931 0.042509723 0.62699997 4287005831
0.053785942 0.042374771 0.625 4287071624
0.054795392 0.042239834 0.62300003 4286874490
0.055976979 0.042240508 0.62300003 4286874490
0.057158612 0.04224119 0.62300003 4287071622
0.058246635 0.042174082 0.62199998 4287202951
0.05923536 0.042039182 0.62 4287334026
0.060411412 0.042039912 0.62 4287531405
0.061190166 0.041769419 0.616 4287334541
0.0623587 0.04177016 0.616 4287531921
0.063424155 0.041703116 0.61500001 4287531921
0.064590871 0.041703891 0.61500001 4287531921
0.065757625 0.041704681 0.61500001 4287663252
0.067033246 0.041773289 0.616 4287992474
0.068201967 0.041774109 0.616 4288123540
0.096478812 0.039495878 0.58200002 4293715161
0.097584382 0.039496988 0.58200002 4293781992
0.098350853 0.039362378 0.57999998 4294242543
0.099452719 0.039363503 0.57999998 4294044909
0.10055463 0.039364636 0.57999998 4293979116
0.10148132 0.039297912 0.579 4293452509
0.10258144 0.039299063 0.579 4291544512
0.10403973 0.039435975 0.58099997 4289372593
0.10514375 0.039437145 0.58099997 4288122527
0.10624781 0.039438333 0.58099997 4282925965
0.10753669 0.039507408 0.58200002 4281544312
0.10864277 0.039508615 0.58200002 4279775508
0.10974886 0.039509818 0.58200002 4278920199
0.11085502 0.039511036 0.58200002 4285358201
0.11196122 0.039512265 0.58200002 4293911291
0.11306749 0.039513502 0.58200002 4293978603
0.1141738 0.03951475 0.58200002 4293715432
0.11508206 0.039448097 0.58099997 4293453542
0.11618656 0.039449356 0.58099997 4293519336
0.11688735 0.039314818 0.579 4293059048
0.11798816 0.039316084 0.579 4292072153
0.119089 0.039317358 0.579 4287536311
0.12018989 0.039318647 0.579 4278325291
0.12129085 0.039319936 0.579 4278190080
0.12327956 0.039254617 0.57800001 4278521362
0.12635119 0.038852341 0.57200003 4289237630
0.12743914 0.03885366 0.57200003 4293053624
0.12875181 0.03892291 0.57300001 4292987861
0.14740513 0.038134679 0.56099999 4279308561
0.15716703 0.03767392 0.55400002 4291084981
0.15765059 0.037539277 0.55199999 4293123805
0.1584141 0.037472647 0.551 4294571252
-0.10736772 0.050224703 0.72000003 4282925883
-0.10467481 0.049595524 0.71100003 4281940781
-0.10317874 0.049524412 0.70999998 4280822299
-0.10182995 0.049523067 0.70999998 4279438598
-0.10048126 0.049521733 0.70999998 4279438598
-0.099132605 0.049520422 0.70999998 4278190080
-0.097921766 0.049588881 0.71100003 4278190080
-0.096978799 0.049796809 0.71399999 4279438598
-0.095622748 0.049795534 0.71399999 4283846985
-0.09426678 0.049794272 0.71399999 4287462001
-0.092910849 0.049793024 0.71399999 4288580481
-0.091426775 0.049722053 0.713 4293244094
-0.09007287 0.049720824 0.713 4294099146
-0.088470168 0.049580161 0.71100003 4294966775
-0.08613994 0.049021121 0.70300001 4294967291
-0.084563941 0.048880506 0.70099998 4294967295
-0.083233073 0.04887937 0.70099998 4294966783
-0.081902266 0.048878241 0.70099998 4294833910
-0.080456577 0.048807405 0.69999999 4293715686
-0.078901701 0.048666868 0.69800001 4287871677
-0.077465624 0.048596084 0.69700003 4281423706
-0.076033376 0.048525296 0.69599998 4278714368
-0.074712344 0.048524264 0.69599998 4284306753
-0.073391356 0.048523225 0.69599998 4291408522
-0.070620731 0.047546197 0.68199998 4294967258
-0.069326431 0.047545228 0.68199998 4294570491
-0.068032175 0.047544271 0.68199998 4290688447
-0.067912258 0.048379868 0.69400001 4290887086
-0.066595338 0.048378933 0.69400001 4293386964
-0.065278463 0.048378006 0.69400001 4293255135
-0.064145967 0.048516501 0.69599998 4293189085
-0.062644862 0.048376191 0.69400001 4293255135
-0.061239764 0.048305608 0.69300002 4293123292
-0.059924982 0.048304755 0.69300002 4293057501
-0.058610249 0.048303906 0.69300002 4293386210
-0.057295553 0.048303075 0.69300002 4293256161
-0.055980913 0.048302263 0.69300002 4293321954
-0.054508545 0.048162062 0.69099998 4293321700
-0.053197782 0.048161294 0.69099998 4293321700
-0.051811971 0.04809083 0.69 4293518565
-0.04999084 0.047602225 0.68300003 4293584358
-0.04862408 0.04753181 0.68199998 4293649636
-0.047330547 0.047531106 0.68199998 4293583843
-0.045902055 0.047391042 0.68000001 4293518050
-0.044612397 0.047390379 0.68000001 4293649636
-0.043322779 0.047389731 0.68000001 4293452257
-0.042033192 0.047389098 0.68000001 4292991706
-0.040444057 0.047040038 0.67500001 4291875026
-0.039164022 0.047039442 0.67500001 4290822338
-0.037715647 0.046829805 0.67199999 4290887098
-0.03665828 0.047107991 0.676 4290294960
-0.035376448 0.047107447 0.676 4290489521
-0.03404421 0.047037236 0.67500001 4290160556
-0.032764334 0.04703673 0.67500001 4289964460
-0.031484485 0.047036242 0.67500001 4289701545
-0.030204665 0.047035761 0.67500001 4289374629
-0.028924871 0.047035303 0.67500001 4289242786
-0.027645105 0.047034863 0.67500001 4289045155
-0.026365362 0.047034439 0.67500001 4289110948
-0.025085645 0.047034036 0.67500001 4289111200
-0.023805952 0.047033649 0.67500001 4289308836
-0.0067678811 0.044382542 0.63700002 4290885051
-0.0055604423 0.044382397 0.63700002 4291016637
-0.0043530129 0.044382274 0.63700002 4290885812
-0.0031455918 0.044382185 0.63700002 4290688690
-0.0019381762 0.044382092 0.63700002 4290426032
-0.00073191401 0.044451695 0.63800001 4290360238
0.00047663786 0.044381965 0.63700002 4290753450
0.0016840384 0.044381924 0.63700002 4290687656
0.026700551 0.043827504 0.62900001 4285953902
0.027848583 0.043758146 0.62800002 4286019695
0.028992837 0.043688796 0.62699997 4285162593
0.030181458 0.043689147 0.62699997 4285228386
0.031370092 0.043689508 0.62699997 4285752414
0.032610681 0.043759577 0.62800002 4286278758
0.033801254 0.043759976 0.62800002 4286870897
0.034991845 0.043760389 0.62800002 4287528570
0.036182459 0.043760821 0.62800002 4287266938
0.046899069 0.043765366 0.62800002 4287794827
0.054708101 0.043351587 0.62199998 4286611323
0.055797961 0.043282568 0.62099999 4287203203
0.056975808 0.043283261 0.62099999 4287400587
0.058060054 0.043214273 0.62 4287334793
0.058853921 0.042936198 0.616 4287334026
0.060022391 0.042936921 0.616 4287531405
0.061190918 0.04293767 0.616 4287465355
0.062258232 0.042868719 0.61500001 4287662991
0.06342493 0.042869497 0.61500001 4287728786
0.064591661 0.042870287 0.61500001 4287662737
0.065758422 0.042871084 0.61500001 4287729299
0.077573262 0.042322975 0.60699999 4288716446
0.081775755 0.042117637 0.60399997 4289767597
0.082785062 0.042048901 0.60299999 4289834157
0.083790608 0.041980162 0.602 4289899951
0.084901281 0.040867403 0.58600003 4289899689
0.086013921 0.040868416 0.58600003 4289965483
0.087126613 0.040869448 0.58600003 4289899437
0.090796471 0.040524922 0.58099997 4291609288
0.091741741 0.040456247 0.57999998 4292333010
0.092843331 0.040457331 0.57999998 4293121757
0.096314147 0.040530406 0.58099997 4293978338
0.097417824 0.040531535 0.58099997 4294110701
0.098351978 0.0404629 0.57999998 4293650150
0.099453859 0.040464044 0.57999998 4293058014
0.10055579 0.040465202 0.57999998 4292268499
0.10148248 0.040396594 0.579 4288917684
0.10258261 0.040397767 0.579 4288588720
0.10368278 0.040398948 0.579 4286024062
0.10478298 0.040400129 0.579 4282142019
0.10606614 0.040471107 0.57999998 4279437596
0.10735312 0.040542092 0.58099997 4278190080
0.10845728 0.04054331 0.58099997 4278190080
0.1095615 0.040544536 0.58099997 4278190080
0.11066578 0.04054578 0.58099997 4285086976
0.11177009 0.040547024 0.58099997 4293376876
0.11287444 0.040548269 0.58099997 4293846240
0.11378267 0.040479735 0.57999998 4294043363
0.11468717 0.040411208 0.579 4293519336
0.11578787 0.040412486 0.579 4293387749
0.11668675 0.04034397 0.57800001 4293386212
0.11758189 0.040275451 0.57700002 4293254883
0.11867893 0.04027674 0.57700002 4291678942
0.11977602 0.040278036 0.57700002 4285560193
0.12087318 0.04027934 0.57700002 4278197565
0.12613161 0.03986837 0.57099998 4290679436
0.12721765 0.039869703 0.57099998 4294692553
0.12807906 0.039801214 0.56999999 4294963958
0.12893671 0.039732732 0.56900001 4294501865
0.12979059 0.039664254 0.56800002 4293715180
0.13087109 0.039665595 0.56800002 4287399051
0.13195165 0.039666954 0.56800002 4285950797
0.13279803 0.039598476 0.56699997 4288516723
0.13364066 0.039529994 0.56599998 4288846506
0.13447952 0.03946152 0.565 4291281104
0.13555454 0.039462887 0.565 4292991202
0.1366296 0.03946425 0.565 4291609549
0.13770469 0.039465629 0.565 4290558887
0.15917517 0.038450733 0.55000001 4294176748
-0.10692482 0.050732508 0.708 4278190080
-0.10557963 0.050731104 0.708 4278588170
-0.1042345 0.050729718 0.708 4280159007
-0.10318008 0.05087164 0.70999998 4282988106
-0.1018313 0.050870281 0.70999998 4285884250
-0.10048259 0.050868932 0.70999998 4289239949
-0.099133916 0.050867595 0.70999998 4293383329
-0.097785324 0.050866265 0.70999998 4294172845
-0.096436791 0.050864965 0.70999998 4294967276
-0.093749054 0.05014728 0.69999999 4294967282
-0.092155576 0.050002746 0.69800001 4294967295
-0.090830028 0.050001498 0.69800001 4294967295
-0.089504555 0.05000028 0.69800001 4294964479
-0.088179134 0.049999062 0.69800001 4294766335
-0.086853758 0.049997862 0.69800001 4292923360
-0.085528456 0.049996682 0.69800001 4290620605
-0.084203206 0.049995512 0.69800001 4284302499
-0.082878008 0.049994357 0.69800001 4282986639
-0.081786551 0.050136462 0.69999999 4280687888
-0.080227815 0.049992099 0.69800001 4278648832
-0.078902796 0.049990986 0.69800001 4278196242
-0.077466689 0.049918275 0.69700003 4278190848
-0.076034427 0.049845576 0.69599998 4278258432
-0.074713387 0.049844529 0.69599998 4284442698
-0.073392384 0.049843486 0.69599998 4291669143
-0.070621736 0.048839882 0.68199998 4294967287
-0.069327414 0.048838891 0.68199998 4294965244
-0.068033136 0.048837908 0.68199998 4290425013
-0.067521773 0.049409814 0.69 4290492851
-0.066212438 0.049408872 0.69 4293256157
-0.064997204 0.049479537 0.69099998 4293518050
-0.06368605 0.049478613 0.69099998 4293123292
-0.062374949 0.049477708 0.69099998 4293189088
-0.060975522 0.049405206 0.69 4293189088
-0.059666425 0.049404349 0.69 4293123808
-0.058357354 0.049403485 0.69 4293321187
-0.057131026 0.049474243 0.69099998 4293256161
-0.055820152 0.049473409 0.69099998 4293321954
-0.054509345 0.049472615 0.69099998 4293256677
-0.05319855 0.049471818 0.69099998 4293190884
