# .PCD v0.7 - Point Cloud Data file format
VERSION 0.7
FIELDS x y z rgba
SIZE 4 4 4 4
TYPE F F F U
COUNT 1 1 1 1
WIDTH 1041
HEIGHT 1
VIEWPOINT 0 0 0 1 0 0 0
POINTS 1041
DATA ascii
-0.15415904 -0.067245454 0.67900002 4293122261
-0.15286686 -0.067244716 0.67900002 4293122261
-0.15179798 -0.067343019 0.68000001 4293056468
-0.15050399 -0.067342274 0.68000001 4292990674
-0.14964892 -0.067539588 0.68199998 4293121748
-0.14856879 -0.067637883 0.68300003 4293121748
-0.14726929 -0.067637116 0.68300003 4293121998
-0.14618355 -0.067735374 0.68400002 4293121998
-0.14488226 -0.067734614 0.68400002 4292858319
-0.14400086 -0.06793189 0.68599999 4292858319
-0.14290389 -0.068030134 0.68699998 4292727244
-0.14180322 -0.068128385 0.68800002 4292661195
-0.14049457 -0.068127602 0.68800002 4292727244
-0.13898367 -0.068027794 0.68699998 4292727244
-0.13767706 -0.068027012 0.68699998 4292463817
-0.13656899 -0.068125248 0.68800002 4292529610
-0.1358504 -0.068421505 0.69099998 4292397768
-0.13453636 -0.068420708 0.69099998 4292200646
-0.13360798 -0.068617955 0.69300002 4292266439
-0.13362652 -0.069310255 0.69999999 4292266439
-0.13248457 -0.069408454 0.70099998 4292266693
-0.13115178 -0.069407649 0.70099998 4292398022
-0.13018942 -0.069604859 0.70300001 4292331714
-0.12903626 -0.069703065 0.704 4292200127
-0.12806074 -0.069900259 0.70599997 4292199873
-0.1268982 -0.069998465 0.70700002 4292265666
-0.12555432 -0.069997653 0.70700002 4292265920
-0.12544034 -0.070689879 0.71399999 4292265920
-0.12408329 -0.070689045 0.71399999 4292200125
-0.12358575 -0.071183249 0.71899998 4292200125
-0.12187936 -0.070984423 0.71700001 4292135104
-0.12051682 -0.070983604 0.71700001 4292200898
-0.11915435 -0.070982791 0.71700001 4291740106
-0.11779197 -0.070981972 0.71700001 4291147969
-0.24216631 -0.067436427 0.69400001 4293381837
-0.24084434 -0.067436673 0.69400001 4293118665
-0.23952225 -0.067436896 0.69400001 4292595663
-0.23820016 -0.067437075 0.69400001 4292529870
-0.23687801 -0.067437246 0.69400001 4292661199
-0.23182228 -0.066368498 0.68300003 4292726992
-0.23052107 -0.066368617 0.68300003 4292661199
-0.22787736 -0.065980025 0.67900002 4293121750
-0.22624999 -0.065882914 0.67799997 4293122259
-0.2249582 -0.065882951 0.67799997 4293056466
-0.22300665 -0.065688632 0.676 4293056468
-0.22171864 -0.065688632 0.676 4293122261
-0.22043061 -0.065688603 0.676 4293188054
-0.21914259 -0.065688565 0.676 4293188054
-0.21785453 -0.065688491 0.676 4293188054
-0.21624614 -0.065591238 0.67500001 4293188054
-0.21495999 -0.065591134 0.67500001 4293056214
-0.21367386 -0.065591 0.67500001 4293253849
-0.21207304 -0.065493688 0.67400002 4293056214
-0.21078882 -0.065493517 0.67400002 4293188056
-0.20950454 -0.065493338 0.67400002 4293188567
-0.20822032 -0.065493137 0.67400002 4293188567
-0.20632201 -0.065298572 0.67199999 4293188056
-0.20504153 -0.065298319 0.67199999 4293188056
-0.20376119 -0.065298073 0.67199999 4293188054
-0.20248076 -0.065297797 0.67199999 4293188054
-0.20090096 -0.065200329 0.671 4293056468
-0.19962251 -0.065200031 0.671 4293122261
-0.19863965 -0.065296881 0.67199999 4292990674
-0.19735931 -0.065296531 0.67199999 4293122261
-0.19578722 -0.065199018 0.671 4292990674
-0.19450882 -0.065198645 0.671 4293253847
-0.19236648 -0.064906754 0.66799998 4293254360
-0.19109388 -0.064906366 0.66799998 4293188567
-0.1898213 -0.064905949 0.66799998 4293187802
-0.1885487 -0.064905532 0.66799998 4293122009
-0.18727614 -0.064905085 0.66799998 4293122261
-0.18656054 -0.065098964 0.67000002 4293122261
-0.18556079 -0.065195657 0.671 4293056468
-0.1842826 -0.06519518 0.671 4293122261
-0.18300447 -0.065194696 0.671 4292990420
-0.18172638 -0.065194182 0.671 4292793298
-0.18044826 -0.065193675 0.671 4292989907
-0.17943729 -0.065290309 0.67199999 4292924114
-0.17815736 -0.065289758 0.67199999 4292924112
-0.17687754 -0.065289214 0.67199999 4292990161
-0.17559768 -0.065288663 0.67199999 4293055952
-0.17431791 -0.065288089 0.67199999 4292990159
-0.1735532 -0.065481819 0.67400002 4292924364
-0.17226969 -0.065481231 0.67400002 4293056206
-0.17098625 -0.065480627 0.67400002 4292859341
-0.16970284 -0.065480031 0.67400002 4292990670
-0.16866937 -0.065576561 0.67500001 4293122000
-0.16738413 -0.065575927 0.67500001 4293056206
-0.166099 -0.065575302 0.67500001 4292595655
-0.16505802 -0.065671794 0.676 4292924364
-0.16377106 -0.065671146 0.676 4293120462
-0.16296485 -0.065864779 0.67799997 4293252304
-0.16167417 -0.065864109 0.67799997 4293054669
-0.16038357 -0.065863438 0.67799997 4293120462
-0.15909299 -0.06586276 0.67799997 4292858573
-0.15780251 -0.065862074 0.67799997 4293055952
-0.15651204 -0.065861389 0.67799997 4293056214
-0.15545057 -0.065957822 0.67900002 4292859091
-0.15415832 -0.065957129 0.67900002 4292990161
-0.15286613 -0.065956414 0.67900002 4293055954
-0.15179722 -0.066052832 0.68000001 4293055952
-0.1509459 -0.066246383 0.68199998 4293055952
-0.14986764 -0.066342793 0.68300003 4293055952
-0.14856805 -0.066342056 0.68300003 4292924366
-0.14748415 -0.066438451 0.68400002 4292858058
-0.14618281 -0.066437714 0.68400002 4292923851
-0.1448815 -0.066436969 0.68400002 4292727244
-0.14421001 -0.066727608 0.68699998 4292727244
-0.14290312 -0.066726841 0.68699998 4292727244
-0.14180246 -0.066823237 0.68800002 4292727244
-0.14049378 -0.066822462 0.68800002 4292727244
-0.13918521 -0.066821709 0.68800002 4292661195
-0.13787667 -0.066820942 0.68800002 4292398022
-0.1365682 -0.066820167 0.68800002 4292266693
-0.1358496 -0.067110762 0.69099998 4292200644
-0.13492499 -0.067304246 0.69300002 4292266693
-0.13418557 -0.067594811 0.69599998 4292135364
-0.13362575 -0.067982517 0.69999999 4291938241
-0.13248377 -0.068078838 0.70099998 4292068542
-0.13115099 -0.068078063 0.70099998 4292200127
-0.13018864 -0.06827151 0.70300001 4292002749
-0.12903544 -0.068367824 0.704 4292002749
-0.12824133 -0.068658367 0.70700002 4292200127
-0.12743585 -0.06894891 0.70999998 4292265920
-0.12661904 -0.069239445 0.713 4292068542
-0.12543952 -0.069335759 0.71399999 4292068542
-0.12408249 -0.069334969 0.71399999 4292068542
-0.12358493 -0.069819704 0.71899998 4292068542
-0.12221853 -0.069818906 0.71899998 4292068542
-0.12102029 -0.069915213 0.72000003 4292397507
-0.11965211 -0.069914408 0.72000003 4291806412
-0.24286444 -0.066308998 0.69599998 4292461505
-0.24084452 -0.066118717 0.69400001 4293053385
-0.23952243 -0.066118948 0.69400001 4292595401
-0.23820032 -0.066119142 0.69400001 4292661195
-0.23687817 -0.066119328 0.69400001 4292595150
-0.23284066 -0.065357298 0.68599999 4292661199
-0.23052114 -0.065071598 0.68300003 4292661199
-0.22787742 -0.064690605 0.67900002 4292989907
-0.22625005 -0.064595409 0.67799997 4292990672
-0.22495821 -0.064595468 0.67799997 4292859343
-0.22366643 -0.064595506 0.67799997 4293055954
-0.22171862 -0.064404964 0.676 4293384663
-0.2204306 -0.064404964 0.676 4293188308
-0.21914254 -0.064404935 0.676 4293188308
-0.2178545 -0.064404882 0.676 4293122000
-0.21624604 -0.064309537 0.67500001 4293187793
-0.21495989 -0.064309441 0.67500001 4293122261
-0.21367373 -0.064309329 0.67500001 4293188054
-0.21238753 -0.064309195 0.67500001 4293122263
-0.21078864 -0.064213775 0.67400002 4293122263
-0.20950435 -0.064213596 0.67400002 4293122261
-0.20822009 -0.064213417 0.67400002 4293122261
-0.20693584 -0.064213216 0.67400002 4293188054
-0.20565157 -0.064212985 0.67400002 4293188054
-0.20376092 -0.064022198 0.67199999 4293122261
-0.20248048 -0.064021938 0.67199999 4293122261
-0.2009007 -0.063926406 0.671 4293122263
-0.19962218 -0.063926108 0.671 4293319642
-0.19863933 -0.064021081 0.67199999 4293122263
-0.19735898 -0.06402076 0.67199999 4293253849
-0.19578683 -0.063925147 0.671 4293188054
-0.19450845 -0.063924797 0.671 4293319640
-0.19236615 -0.063638635 0.66799998 4293188308
-0.19109349 -0.063638248 0.66799998 4293188308
-0.18982087 -0.06363786 0.66799998 4293122261
-0.1885483 -0.063637465 0.66799998 4293056468
-0.18727572 -0.063637041 0.66799998 4293122259
-0.18656008 -0.063827135 0.67000002 4293056466
-0.18556033 -0.063921958 0.671 4293056466
-0.18428212 -0.063921489 0.671 4293056466
-0.1832767 -0.064016275 0.67199999 4292859091
-0.1819967 -0.064015806 0.67199999 4292793298
-0.18071668 -0.064015307 0.67199999 4292793300
-0.17943673 -0.064014792 0.67199999 4292727251
-0.17868705 -0.064204805 0.67400002 4292858321
-0.17740342 -0.064204276 0.67400002 4292989907
-0.17611976 -0.064203739 0.67400002 4292990161
-0.17483617 -0.064203195 0.67400002 4292990161
-0.17355262 -0.064202629 0.67400002 4292990159
-0.17252472 -0.064297311 0.67500001 4293055952
-0.17123935 -0.064296737 0.67500001 4292859595
-0.16995402 -0.064296141 0.67500001 4292990924
-0.16866875 -0.064295545 0.67500001 4293056204
-0.16738352 -0.064294949 0.67500001 4293056204
-0.16609834 -0.064294323 0.67500001 4292924366
-0.16505739 -0.064388968 0.676 4293055952
-0.16377042 -0.064388335 0.676 4293187020
-0.16296422 -0.064578198 0.67799997 4293450449
-0.16167355 -0.06457755 0.67799997 4293121229
-0.1603829 -0.064576901 0.67799997 4293187022
-0.15909234 -0.064576238 0.67799997 4292924366
-0.15780181 -0.064575575 0.67799997 4292990159
-0.15651134 -0.064574905 0.67799997 4292858321
-0.15544988 -0.064669475 0.67900002 4292726992
-0.15415764 -0.06466879 0.67900002 4292858321
-0.15309058 -0.064763345 0.68000001 4293055700
-0.15179653 -0.064762659 0.68000001 4292990157
-0.15094519 -0.064952426 0.68199998 4292990157
-0.14986689 -0.065046959 0.68300003 4292990411
-0.14856732 -0.065046251 0.68300003 4292858569
-0.14748344 -0.065140784 0.68400002 4292727244
-0.1466095 -0.065330528 0.68599999 4292727244
-0.1455162 -0.065425031 0.68699998 4292661449
-0.14420928 -0.065424308 0.68699998 4292661449
-0.1429024 -0.065423578 0.68699998 4292661449
-0.1418017 -0.065518081 0.68800002 4292595655
-0.14090145 -0.065707795 0.69 4292595653
-0.13958904 -0.06570705 0.69 4292464067
-0.13827674 -0.065706313 0.69 4292398020
-0.13696446 -0.065705575 0.69 4292200898
-0.13683183 -0.06627617 0.69599998 4292200896
-0.13550828 -0.066275403 0.69599998 4292266689
-0.13418482 -0.066274658 0.69599998 4292266172
-0.13381584 -0.066749997 0.70099998 4291937208
-0.13248299 -0.066749245 0.70099998 4292068542
-0.13208565 -0.067224562 0.70599997 4292200127
-0.13074343 -0.06722381 0.70599997 4291936958
-0.12958454 -0.067318253 0.70700002 4291871165
-0.12878472 -0.067603126 0.70999998 4292199610
-0.12797353 -0.067888007 0.713 4292331452
-0.12661825 -0.067887224 0.713 4292002749
-0.12543873 -0.067981675 0.71399999 4291936956
-0.12442928 -0.068171315 0.71600002 4291806142
-0.12375604 -0.068551384 0.72000003 4291806142
-0.12238773 -0.068550609 0.72000003 4291936956
-0.1210195 -0.068549827 0.72000003 4292529093
-0.11965133 -0.068549059 0.72000003 4291806160
-0.12009032 -0.069595546 0.73100001 4285950840
-0.24216689 -0.064800493 0.69400001 4291932008
-0.24084482 -0.064800754 0.69400001 4293905799
-0.23952268 -0.064800985 0.69400001 4292725706
-0.23820052 -0.064801201 0.69400001 4292659913
-0.23687834 -0.064801395 0.69400001 4292397768
-0.23284082 -0.064054571 0.68599999 4292595403
-0.23085877 -0.063867956 0.68400002 4292529870
-0.22821316 -0.063494571 0.68000001 4292661712
-0.22658384 -0.063401289 0.67900002 4292661708
-0.22495832 -0.063307986 0.67799997 4292727757
-0.22366644 -0.06330803 0.67799997 4292661708
-0.22237462 -0.06330806 0.67799997 4293056466
-0.22108272 -0.06330806 0.67799997 4292859343
-0.21979086 -0.063308045 0.67799997 4292793550
-0.21849896 -0.063308001 0.67799997 4292858573
-0.21656634 -0.0631212 0.676 4293121746
-0.21527822 -0.063121118 0.676 4293122261
-0.21399012 -0.063121013 0.676 4292990674
-0.21270204 -0.063120902 0.676 4292859091
-0.21141396 -0.063120775 0.676 4293056214
-0.20981503 -0.063027248 0.67500001 4292596687
-0.20852883 -0.063027076 0.67500001 4292925652
-0.20724265 -0.06302689 0.67500001 4293056468
-0.20565136 -0.062933311 0.67400002 4293056468
-0.20376067 -0.062746339 0.67199999 4292859089
-0.20248021 -0.0627461 0.67199999 4293056468
-0.20090041 -0.062652469 0.671 4293056468
-0.19962189 -0.062652193 0.671 4293122261
-0.19863901 -0.062745281 0.67199999 4292793298
-0.19706495 -0.062651612 0.671 4292990420
-0.19578652 -0.062651284 0.671 4293055954
-0.19450809 -0.062650956 0.671 4293121748
-0.1923658 -0.062370501 0.66799998 4293056466
-0.1910931 -0.062370136 0.66799998 4293056466
-0.18982048 -0.062369775 0.66799998 4292727503
-0.18854786 -0.06236938 0.66799998 4292859089
-0.18783601 -0.062555715 0.67000002 4293056466
-0.18711656 -0.06274204 0.67199999 4292990672
-0.1858364 -0.062741607 0.67199999 4292858573
-0.18510556 -0.062927902 0.67400002 4292858573
-0.18382171 -0.062927455 0.67400002 4292858319
-0.18253787 -0.062926985 0.67400002 4292858319
-0.18125404 -0.062926508 0.67400002 4292727505
-0.17997029 -0.062926024 0.67400002 4292727505
-0.17868659 -0.06292554 0.67400002 4292661710
-0.17740288 -0.062925018 0.67400002 4292727503
-0.17611924 -0.062924504 0.67400002 4292661195
-0.17483561 -0.062923983 0.67400002 4292661195
-0.17355207 -0.062923439 0.67400002 4292661195
-0.17252415 -0.063016251 0.67500001 4292924366
-0.17123877 -0.063015692 0.67500001 4292858571
-0.16995345 -0.063015126 0.67500001 4292661449
-0.16866815 -0.063014552 0.67500001 4292725958
-0.16738294 -0.063013978 0.67500001 4292988874
-0.16634381 -0.063106731 0.676 4292923853
-0.16505679 -0.063106142 0.676 4292858060
-0.16376978 -0.063105531 0.676 4292792267
-0.16296355 -0.063291609 0.67799997 4292858060
-0.16167291 -0.063290998 0.67799997 4292661195
-0.16038226 -0.063290365 0.67799997 4292924366
-0.15932633 -0.06338308 0.67900002 4292858573
-0.15780114 -0.063289091 0.67799997 4292924366
-0.15651068 -0.063288435 0.67799997 4292726990
-0.15544923 -0.063381135 0.67900002 4292726990
-0.15415695 -0.06338048 0.67900002 4292595403
-0.15308991 -0.063473165 0.68000001 4292661197
-0.15179583 -0.06347248 0.68000001 4292595401
-0.1509445 -0.063658491 0.68199998 4292661195
-0.14986622 -0.063751161 0.68300003 4292661449
-0.14878415 -0.063843802 0.68400002 4292661449
-0.14748271 -0.063843109 0.68400002 4292595401
-0.1466088 -0.06402909 0.68599999 4292463815
-0.1455155 -0.064121738 0.68699998 4292463300
-0.14441846 -0.064214364 0.68800002 4292529093
-0.14310969 -0.064213656 0.68800002 4292398022
-0.14221318 -0.064399607 0.69 4292398022
-0.14090072 -0.064398892 0.69 4292463815
-0.13979061 -0.06449151 0.69099998 4292266693
-0.13847637 -0.06449078 0.69099998 4291938239
-0.13775772 -0.064770043 0.69400001 4291872446
-0.13683109 -0.064955972 0.69599998 4292068026
-0.13550754 -0.064955242 0.69599998 4292068026
-0.13418405 -0.064954504 0.69599998 4292068026
-0.13381511 -0.065420404 0.70099998 4291870647
-0.13248226 -0.065419659 0.70099998 4291870649
-0.13171074 -0.065698892 0.704 4292001979
-0.13092785 -0.06597811 0.70700002 4292001979
-0.12976709 -0.066070683 0.708 4292001979
-0.12896533 -0.066349901 0.71100003 4292002481
-0.12797278 -0.066535786 0.713 4292068274
-0.12661749 -0.066535026 0.713 4291871163
-0.12543799 -0.066627599 0.71399999 4291871163
-0.1244285 -0.066813484 0.71600002 4291806140
-0.12461467 -0.067652546 0.72500002 4291806140
-0.12272693 -0.067371845 0.722 4291937723
-0.12135489 -0.067371093 0.722 4292727240
-0.12147856 -0.06821014 0.73100001 4291543506
-0.12008956 -0.068209372 0.73100001 4282661451
-0.24216716 -0.063482508 0.69400001 4286802953
-0.24084505 -0.063482791 0.69400001 4293711218
-0.2395229 -0.063483037 0.69400001 4293252304
-0.23820074 -0.063483268 0.69400001 4292725704
-0.23687853 -0.063483454 0.69400001 4292266693
-0.23419864 -0.063117728 0.69 4292463815
-0.23153393 -0.062751986 0.68599999 4292530123
-0.22888449 -0.062386215 0.68199998 4292661710
-0.22691762 -0.062203366 0.68000001 4292727244
-0.22529021 -0.062111977 0.67900002 4292858573
-0.22399637 -0.06211203 0.67900002 4292858319
-0.22270264 -0.062112074 0.67900002 4293121748
-0.22108275 -0.062020615 0.67799997 4292990161
-0.21979085 -0.062020611 0.67799997 4292924112
-0.21849892 -0.062020585 0.67799997 4292924114
-0.21656631 -0.061837599 0.676 4293187543
-0.21527815 -0.061837528 0.676 4293056466
-0.21399003 -0.06183745 0.676 4292793550
-0.21270193 -0.061837353 0.676 4292859093
-0.21141383 -0.061837226 0.676 4293319644
-0.21012567 -0.061837092 0.676 4293056468
-0.2088376 -0.061836936 0.676 4293122261
-0.20724246 -0.06174529 0.67500001 4293056468
-0.2059563 -0.061745111 0.67500001 4293122261
-0.20436688 -0.061653424 0.67400002 4292859091
-0.20247997 -0.061470259 0.67199999 4293122263
-0.20090017 -0.061378542 0.671 4293121748
-0.19962163 -0.061378293 0.671 4293187541
-0.19863875 -0.061469499 0.67199999 4292793298
-0.19706465 -0.061377741 0.671 4292793298
-0.19578622 -0.061377436 0.671 4292990159
-0.19450776 -0.061377127 0.671 4293055952
-0.19322936 -0.061376799 0.671 4292990670
-0.19195096 -0.061376464 0.671 4293056720
-0.19067261 -0.061376106 0.671 4292793298
-0.18939424 -0.061375733 0.671 4292793298
-0.18839632 -0.061466824 0.67199999 4292793548
-0.18711612 -0.061466429 0.67199999 4292793548
-0.1863891 -0.061648957 0.67400002 4292858573
-0.18510516 -0.061648544 0.67400002 4292858573
-0.18382126 -0.061648108 0.67400002 4292858573
-0.18253741 -0.061647665 0.67400002 4292858573
-0.18125358 -0.06164721 0.67400002 4292858573
-0.17996983 -0.061646741 0.67400002 4292727244
-0.17868607 -0.061646271 0.67400002 4292727244
-0.17740238 -0.061645787 0.67400002 4292858573
-0.17611872 -0.061645292 0.67400002 4292661195
-0.1750945 -0.061736245 0.67500001 4292595401
-0.17380904 -0.061735731 0.67500001 4292661195
-0.17252359 -0.061735198 0.67500001 4292858573
-0.17123823 -0.061734673 0.67500001 4292858569
-0.16995287 -0.061734125 0.67500001 4292661447
-0.16866757 -0.061733574 0.67500001 4292595401
-0.16738234 -0.061733011 0.67500001 4292661195
-0.16634324 -0.061823901 0.676 4292792267
-0.16505618 -0.06182332 0.676 4292792267
-0.1642537 -0.062005647 0.67799997 4292661195
-0.16320333 -0.062096514 0.67900002 4292727244
-0.16191074 -0.062095918 0.67900002 4292661195
-0.16061822 -0.062095311 0.67900002 4292858573
-0.1593257 -0.062094692 0.67900002 4292858571
-0.15803328 -0.062094081 0.67900002 4292858571
-0.15674089 -0.062093452 0.67900002 4292727244
-0.15567751 -0.062184267 0.68000001 4292924366
-0.15438335 -0.062183633 0.68000001 4292661197
-0.15308924 -0.062182996 0.68000001 4292661197
-0.15246488 -0.062456679 0.68300003 4292661195
-0.15116517 -0.062456027 0.68300003 4292661195
-0.15008494 -0.062546805 0.68400002 4292661449
-0.14878346 -0.062546141 0.68400002 4292661449
-0.14791326 -0.062728353 0.68599999 4292595653
-0.14682183 -0.062819123 0.68699998 4292464067
-0.14572661 -0.062909886 0.68800002 4292463815
-0.14441778 -0.062909208 0.68800002 4292463815
-0.14352499 -0.063091382 0.69 4292266693
-0.14221248 -0.063090704 0.69 4292266693
-0.14171682 -0.063455753 0.69400001 4292331712
-0.14039682 -0.063455053 0.69400001 4292068796
-0.13947767 -0.063637212 0.69599998 4292199612
-0.13815399 -0.063636504 0.69599998 4292068026
-0.13702698 -0.063727245 0.69700003 4292068026
-0.13570155 -0.063726544 0.69700003 4292002233
-0.1351473 -0.064091533 0.70099998 4292002233
-0.13419616 -0.064273685 0.70300001 4292002233
-0.13304849 -0.064364389 0.704 4291870647
-0.13171001 -0.064363666 0.704 4292002233
-0.13111232 -0.064728647 0.708 4292002231
-0.1301329 -0.064910762 0.70999998 4292002231
-0.1289646 -0.065001465 0.71100003 4291936424
-0.12797202 -0.06518358 0.713 4292068011
-0.12679432 -0.065274261 0.71399999 4291871161
-0.12578861 -0.065456383 0.71600002 4291871161
-0.12547046 -0.066004165 0.722 4291740345
-0.12461393 -0.066277683 0.72500002 4291806138
-0.12323613 -0.066276953 0.72500002 4292266172
-0.12219455 -0.066459045 0.727 4293910998
-0.12131164 -0.066732548 0.73000002 4293186787
-0.11992453 -0.066731811 0.73000002 4284304732
-0.24153939 -0.062343959 0.69599998 4289180564
-0.23952316 -0.062165067 0.69400001 4293250758
-0.23820096 -0.062165305 0.69400001 4293118915
-0.23687875 -0.062165525 0.69400001 4292266439
-0.23419878 -0.061807398 0.69 4292397768
-0.23220913 -0.061628416 0.68800002 4292397768
-0.22922021 -0.061180681 0.68300003 4292529610
-0.22791882 -0.061180785 0.68300003 4292595401
-0.22628564 -0.061091308 0.68199998 4292595401
-0.22498612 -0.061091382 0.68199998 4292463817
-0.22303064 -0.060912281 0.68000001 4292661197
-0.22173493 -0.060912319 0.68000001 4292661197
-0.22011502 -0.060822748 0.67900002 4292726990
-0.21882115 -0.060822744 0.67900002 4292726990
-0.21720697 -0.060733136 0.67799997 4292858319
-0.21591499 -0.060733084 0.67799997 4292924366
-0.21462308 -0.060733024 0.67799997 4292924366
-0.21333112 -0.060732935 0.67799997 4292924112
-0.21203916 -0.060732827 0.67799997 4292924112
-0.21012555 -0.060553562 0.676 4292661197
-0.20883745 -0.060553432 0.676 4292858319
-0.2072423 -0.0604637 0.67500001 4292726990
-0.20595607 -0.060463529 0.67500001 4292858319
-0.20436667 -0.060373764 0.67400002 4292726990
-0.20308241 -0.060373563 0.67400002 4292858319
-0.20119931 -0.060194183 0.67199999 4292858573
-0.19991888 -0.060193952 0.67199999 4292858573
-0.19863848 -0.060193703 0.67199999 4292726992
-0.19735807 -0.060193442 0.67199999 4292661199
-0.19607769 -0.060193159 0.67199999 4292463817
-0.19479732 -0.060192857 0.67199999 4292661197
-0.193517 -0.060192555 0.67199999 4292661195
-0.19223669 -0.060192231 0.67199999 4292727244
-0.19095641 -0.060191892 0.67199999 4292595401
-0.18967615 -0.060191546 0.67199999 4292858573
-0.18895665 -0.06037033 0.67400002 4292924364
-0.18767264 -0.060369961 0.67400002 4292727242
-0.1863887 -0.060369574 0.67400002 4292595401
-0.18537937 -0.060458742 0.67500001 4292595401
-0.18409358 -0.060458329 0.67500001 4292595401
-0.1828078 -0.060457915 0.67500001 4292529608
-0.18152203 -0.060457472 0.67500001 4292463817
-0.18023637 -0.060457032 0.67500001 4292463817
-0.1789507 -0.060456581 0.67500001 4292463815
-0.1776651 -0.060456112 0.67500001 4292463815
-0.17637952 -0.060455639 0.67500001 4292265666
-0.17509401 -0.060455155 0.67500001 4292463302
-0.17380852 -0.060454663 0.67500001 4292463815
-0.17252308 -0.06045416 0.67500001 4292661195
-0.17123768 -0.060453646 0.67500001 4292661449
-0.1702041 -0.060542684 0.676 4292595655
-0.16891693 -0.060542155 0.676 4292463815
-0.16762976 -0.060541615 0.676 4292529608
-0.1668348 -0.060720183 0.67799997 4292463815
-0.16554393 -0.060719628 0.67799997 4292595401
-0.16425315 -0.060719069 0.67799997 4292660424
-0.16320275 -0.060808055 0.67900002 4292726217
-0.16214858 -0.060897026 0.68000001 4292661195
-0.16085415 -0.060896456 0.68000001 4292595401
-0.15955974 -0.060895868 0.68000001 4292529095
-0.15826541 -0.060895268 0.68000001 4292660424
-0.15697113 -0.060894668 0.68000001 4292725704
-0.1556769 -0.060894065 0.68000001 4292725704
-0.15483677 -0.061072536 0.68199998 4292529095
-0.15353887 -0.061071921 0.68199998 4292463302
-0.15246424 -0.061160848 0.68300003 4292463302
-0.15138586 -0.061249759 0.68400002 4292660424
-0.15052314 -0.061428219 0.68599999 4292463813
-0.14921784 -0.061427575 0.68599999 4292266691
-0.14812823 -0.061516467 0.68699998 4292397507
-0.14746231 -0.061784454 0.69 4292331714
-0.14614959 -0.061783802 0.69 4292200127
-0.14483692 -0.061783131 0.69 4292200127
-0.14373232 -0.061872009 0.69099998 4292068542
-0.14303623 -0.062139973 0.69400001 4292068542
-0.14212455 -0.062318362 0.69599998 4291870649
-0.14080074 -0.062317688 0.69599998 4291870649
-0.13947697 -0.06231701 0.69599998 4291739061
-0.1381533 -0.062316321 0.69599998 4291870647
-0.13702627 -0.06240518 0.69700003 4291870649
-0.1364796 -0.062762633 0.70099998 4291739063
-0.1355322 -0.062941007 0.70300001 4291739061
-0.13438635 -0.063029841 0.704 4291804854
-0.13361476 -0.063297749 0.70700002 4291607475
-0.13245763 -0.063386567 0.708 4291673268
-0.13111159 -0.063385867 0.708 4291673266
-0.1301322 -0.063564226 0.70999998 4291673266
-0.12896389 -0.063653052 0.71100003 4291673516
-0.12797131 -0.063831396 0.713 4291871151
-0.12679362 -0.063920215 0.71399999 4291608247
-0.12684196 -0.064635687 0.722 4291739576
-0.12546974 -0.064634986 0.722 4291542965
-0.1246132 -0.064902835 0.72500002 4291542965
-0.1232354 -0.064902119 0.72500002 4292330430
-0.12219383 -0.065080442 0.727 4293777876
-0.12131091 -0.06534829 0.73000002 4294171117
-0.1199238 -0.065347575 0.73000002 4285618027
-0.24153967 -0.061022174 0.69599998 4284307012
-0.24021366 -0.061022449 0.69599998 4290354319
-0.23888764 -0.061022699 0.69599998 4293972678
-0.23756155 -0.061022922 0.69599998 4293054671
-0.23521723 -0.060760088 0.69300002 4292725706
-0.23322181 -0.060584914 0.69099998 4292397768
-0.2315696 -0.060497399 0.69 4292463817
-0.23025484 -0.060497526 0.69 4292463817
-0.22894011 -0.060497642 0.69 4292529610
-0.22630575 -0.060147014 0.68599999 4292463563
-0.22434263 -0.059971735 0.68400002 4292529356
-0.2230393 -0.05997178 0.68400002 4292595150
-0.22108755 -0.059796445 0.68199998 4292726992
-0.21914342 -0.059621103 0.68000001 4292661199
-0.21784766 -0.059621092 0.68000001 4292661199
-0.21623343 -0.059533384 0.67900002 4292858319
-0.21493958 -0.059533335 0.67900002 4292924112
-0.213331 -0.059445575 0.67799997 4292924366
-0.21203904 -0.059445489 0.67799997 4292924366
-0.21074711 -0.0594454 0.67799997 4292857808
-0.20945515 -0.059445269 0.67799997 4293120723
-0.20816317 -0.059445128 0.67799997 4292792015
-0.20687124 -0.059444979 0.67799997 4292857808
-0.20466968 -0.059181776 0.67500001 4292726990
-0.20338349 -0.059181601 0.67500001 4292858319
-0.20209731 -0.059181392 0.67500001 4292858573
-0.20110862 -0.059268851 0.676 4292727244
-0.19952501 -0.059180953 0.67500001 4292726992
-0.19823886 -0.059180696 0.67500001 4292726992
-0.19695275 -0.059180439 0.67500001 4292529104
-0.19566666 -0.059180163 0.67500001 4292858069
-0.19438063 -0.05917988 0.67500001 4292661195
-0.19309457 -0.059179567 0.67500001 4292727244
-0.19180855 -0.05917925 0.67500001 4292661195
-0.19052258 -0.059178926 0.67500001 4292727244
-0.18923666 -0.059178587 0.67500001 4292661449
-0.18795073 -0.059178229 0.67500001 4292595655
-0.18694139 -0.059265539 0.676 4292595401
-0.18565361 -0.059265155 0.676 4292595401
-0.1843659 -0.059264764 0.676 4292463817
-0.18307818 -0.059264358 0.676 4292463817
-0.18179055 -0.059263956 0.676 4292463817
-0.18050297 -0.059263539 0.676 4292463817
-0.17921537 -0.059263099 0.676 4292463302
-0.17792787 -0.059262667 0.676 4292529095
-0.17664038 -0.059262209 0.676 4292331462
-0.17509355 -0.059174076 0.67500001 4292529097
-0.17380805 -0.059173614 0.67500001 4292463815
-0.17277819 -0.059260793 0.676 4292595401
-0.17149088 -0.059260305 0.676 4292595655
-0.17020363 -0.059259802 0.676 4292529606
-0.1689164 -0.059259299 0.676 4292463815
-0.16812518 -0.059434097 0.67799997 4292529608
-0.16683426 -0.059433572 0.67799997 4292660424
-0.16578759 -0.059520707 0.67900002 4292660424
-0.16449487 -0.059520174 0.67900002 4292660424
-0.16344255 -0.059607275 0.68000001 4292660424
-0.16214803 -0.059606727 0.68000001 4292660678
-0.16085358 -0.059606172 0.68000001 4292660678
-0.15955918 -0.059605602 0.68000001 4292660424
-0.1587303 -0.059780326 0.68199998 4292660424
-0.1574322 -0.059779759 0.68199998 4292529095
-0.15613416 -0.059779163 0.68199998 4292529095
-0.1550632 -0.059866231 0.68300003 4292463302
-0.15376338 -0.059865635 0.68300003 4292397509
-0.15268682 -0.05995268 0.68400002 4292398272
-0.15182786 -0.06012737 0.68599999 4292529858
-0.15074192 -0.060214408 0.68699998 4292397761
-0.14943475 -0.060213789 0.68699998 4292200125
-0.14834324 -0.060300823 0.68800002 4292200898
-0.14767537 -0.060563121 0.69099998 4292200898
-0.14636073 -0.060562495 0.69099998 4292069057
-0.14504619 -0.060561862 0.69099998 4292069057
-0.1447717 -0.060999438 0.69599998 4292199614
-0.14344777 -0.06099879 0.69599998 4292133821
-0.14212386 -0.060998134 0.69599998 4292001981
-0.14080007 -0.060997486 0.69599998 4291804602
-0.13967673 -0.061084475 0.69700003 4291804856
-0.13835114 -0.061083812 0.69700003 4291870649
-0.13702562 -0.061083157 0.69700003 4291804854
-0.13647892 -0.061433032 0.70099998 4291673268
-0.13553151 -0.061607644 0.70300001 4291673016
-0.13476744 -0.061869878 0.70599997 4291870652
-0.13380305 -0.062044468 0.708 4291607223
-0.13245696 -0.062043793 0.708 4291541430
-0.13148129 -0.062218379 0.70999998 4291476405
-0.13013151 -0.062217698 0.70999998 4291476405
-0.12896319 -0.06230465 0.71100003 4291542198
-0.12761167 -0.062303975 0.71100003 4291871163
-0.12874635 -0.063530087 0.72500002 4291674302
-0.12736833 -0.063529387 0.72500002 4291740095
-0.12599038 -0.063528702 0.72500002 4291280309
-0.12512814 -0.06379088 0.72799999 4291346102
-0.12374461 -0.06379018 0.72799999 4288453818
-0.1223612 -0.063789502 0.72799999 4284505981
-0.24188699 -0.05978616 0.69700003 4279174400
-0.24055907 -0.05978645 0.69700003 4287914496
-0.23888789 -0.059700929 0.69599998 4294625370
-0.23756181 -0.059701163 0.69599998 4293184459
-0.23555686 -0.059529826 0.69400001 4292658114
-0.23389703 -0.059444249 0.69300002 4292134599
-0.23190536 -0.059272848 0.69099998 4292397770
-0.23025499 -0.059187226 0.69 4292398022
-0.2289402 -0.059187349 0.69 4292529608
-0.22696565 -0.059015896 0.68800002 4292529610
-0.22532664 -0.058930188 0.68699998 4292529610
-0.22369142 -0.058844477 0.68599999 4292463817
-0.22141173 -0.05858719 0.68300003 4292529610
-0.21978796 -0.058501426 0.68199998 4292529356
-0.21848837 -0.058501426 0.68199998 4292529356
-0.21655186 -0.058329865 0.68000001 4292529356
-0.21493953 -0.058244053 0.67900002 4292595150
-0.21364564 -0.058244005 0.67900002 4292595401
-0.21235174 -0.058243934 0.67900002 4292661195
-0.21105784 -0.058243856 0.67900002 4292792267
-0.20976399 -0.058243744 0.67900002 4292989646
-0.20847009 -0.058243621 0.67900002 4292858060
-0.20687108 -0.058157701 0.67799997 4292858060
-0.20557918 -0.058157556 0.67799997 4292529870
-0.20428719 -0.058157381 0.67799997 4292398540
-0.20299532 -0.058157202 0.67799997 4292463817
-0.20170338 -0.058157001 0.67799997 4292595403
-0.19982035 -0.057985242 0.676 4292595150
-0.1985323 -0.057985011 0.676 4292595150
-0.19724429 -0.057984769 0.676 4292463817
-0.19595626 -0.057984516 0.676 4292529610
-0.19466829 -0.057984244 0.676 4292529095
-0.19338033 -0.057983968 0.676 4292726217
-0.19180828 -0.057897903 0.67500001 4292661195
-0.19052227 -0.057897594 0.67500001 4292463815
-0.18923631 -0.057897273 0.67500001 4292397509
-0.18795034 -0.057896931 0.67500001 4292529095
-0.18694103 -0.05798237 0.676 4292463815
-0.1862025 -0.058153551 0.67799997 4292463815
-0.18491095 -0.058153182 0.67799997 4292266693
-0.18307783 -0.057981268 0.676 4292398022
-0.18179013 -0.057980869 0.676 4292267206
-0.1805025 -0.057980467 0.676 4292201157
-0.17974515 -0.058151595 0.67799997 4292200644
-0.17792743 -0.057979647 0.676 4292200644
-0.1766399 -0.057979211 0.676 4292331716
-0.17535245 -0.057978768 0.676 4292331716
-0.17406505 -0.057978321 0.676 4292331714
-0.17277771 -0.057977863 0.676 4292331714
-0.17199776 -0.058148928 0.67799997 4292266691
-0.17070667 -0.058148455 0.67799997 4292200898
-0.16941565 -0.058147967 0.67799997 4292200896
-0.16812466 -0.058147475 0.67799997 4292266689
-0.16683373 -0.058146965 0.67799997 4292397761
-0.16578704 -0.058232225 0.67900002 4292397761
-0.1647366 -0.058317479 0.68000001 4292396994
-0.16344202 -0.05831695 0.68000001 4292396994
-0.16214749 -0.058316417 0.68000001 4292331200
-0.16179921 -0.058658917 0.68400002 4292528323
-0.1604972 -0.058658376 0.68400002 4292265407
-0.15896249 -0.058572069 0.68300003 4292528323
-0.15766247 -0.058571499 0.68300003 4292331712
-0.15636253 -0.058570955 0.68300003 4292331712
-0.15528966 -0.058656134 0.68400002 4291936956
-0.15398793 -0.05865556 0.68400002 4292068542
-0.15313269 -0.05882648 0.68599999 4292331712
-0.1520486 -0.058911659 0.68699998 4292068796
-0.15096076 -0.058996823 0.68800002 4291871163
-0.14965166 -0.058996227 0.68800002 4292002749
-0.14877382 -0.059167113 0.69 4292135104
-0.14810216 -0.05942376 0.69300002 4291937469
-0.14678372 -0.059423149 0.69300002 4291805369
-0.14567527 -0.059508283 0.69400001 4291805369
-0.14477107 -0.059679162 0.69599998 4291870649
-0.14344712 -0.059678528 0.69599998 4291739063
-0.14212325 -0.05967791 0.69599998 4291607221
-0.14100173 -0.059763025 0.69700003 4291673270
-0.13967608 -0.059762403 0.69700003 4291672755
-0.13854899 -0.059847504 0.69800001 4291672755
-0.13722156 -0.059846871 0.69800001 4291607475
-0.13686764 -0.060274921 0.70300001 4291607475
-0.13572365 -0.060360026 0.704 4291607221
-0.13495767 -0.06061659 0.70700002 4291607221
-0.13380238 -0.060701679 0.708 4291476405
-0.13245627 -0.060701031 0.708 4291476405
-0.13148059 -0.06087184 0.70999998 4291477172
-0.13031413 -0.060956933 0.71100003 4291477172
-0.12896252 -0.06095627 0.71100003 4291345841
-0.12761098 -0.060955621 0.71100003 4291608756
-0.12910081 -0.062326666 0.727 4291477692
-0.127719 -0.062325992 0.727 4291345850
-0.12633726 -0.062325321 0.727 4291017651
-0.12512745 -0.062410381 0.72799999 4291215286
-0.24188733 -0.058462471 0.69700003 4278190131
-0.24055935 -0.058462761 0.69700003 4278714368
-0.23888816 -0.058379151 0.69599998 4290618027
-0.23756203 -0.058379412 0.69599998 4292659132
-0.23555708 -0.058211882 0.69400001 4292724925
-0.23423471 -0.058212083 0.69400001 4292200396
-0.23257674 -0.058128387 0.69300002 4292463311
-0.23025511 -0.057876907 0.69 4292398022
-0.22894034 -0.057877049 0.69 4292266693
-0.22696576 -0.057709411 0.68800002 4292398022
-0.22532675 -0.057625625 0.68699998 4292463815
-0.22369155 -0.057541832 0.68599999 4292397768
-0.22173595 -0.057374123 0.68400002 4292397768
-0.22011027 -0.057290282 0.68300003 4292463563
-0.21880876 -0.057290301 0.68300003 4292463563
-0.21655183 -0.057038665 0.68000001 4292463563
-0.21493948 -0.056954771 0.67900002 4292397770
-0.21364558 -0.056954738 0.67900002 4292529610
-0.21235168 -0.056954693 0.67900002 4292661197
-0.21105774 -0.056954622 0.67900002 4292726217
-0.20976387 -0.056954533 0.67900002 4292792267
-0.20846996 -0.056954432 0.67900002 4292792267
-0.20717612 -0.056954324 0.67900002 4292989646
-0.20588224 -0.056954194 0.67900002 4292595403
-0.20458838 -0.056954037 0.67900002 4292397768
-0.20329453 -0.056953862 0.67900002 4292463563
-0.20200071 -0.056953687 0.67900002 4292595150
-0.20041133 -0.056869619 0.67799997 4292529610
-0.19911945 -0.05686941 0.67799997 4292529610
-0.19811939 -0.056953069 0.67900002 4292463817
-0.19653575 -0.056868955 0.67799997 4292463817
-0.19524398 -0.056868702 0.67799997 4292529095
-0.19395216 -0.056868441 0.67799997 4292660424
-0.19209214 -0.056700416 0.676 4292529093
-0.1908042 -0.056700129 0.676 4292463300
-0.18951635 -0.056699831 0.676 4292463300
-0.18822849 -0.056699522 0.676 4292529093
-0.18749376 -0.056866944 0.67799997 4292594116
-0.18620212 -0.056866601 0.67799997 4292594116
-0.18491061 -0.056866258 0.67799997 4292529095
-0.18361905 -0.056865901 0.67799997 4292529095
-0.18178976 -0.056697793 0.676 4292266691
-0.18050215 -0.05669741 0.676 4292266691
-0.17921454 -0.056697026 0.676 4292331716
-0.17845342 -0.056864377 0.67799997 4292331716
-0.17716208 -0.05686396 0.67799997 4292265666
-0.17587084 -0.056863546 0.67799997 4292199873
-0.17457959 -0.056863111 0.67799997 4292265918
-0.17328845 -0.056862682 0.67799997 4292331712
-0.17199726 -0.056862228 0.67799997 4292201150
-0.17095798 -0.056945648 0.67900002 4292135100
-0.16966504 -0.056945186 0.67900002 4292265918
-0.16837218 -0.056944728 0.67900002 4292331712
-0.16707933 -0.056944244 0.67900002 4292331712
-0.16603072 -0.057027623 0.68000001 4292331712
-0.16473608 -0.057027128 0.68000001 4292331200
-0.16344148 -0.057026632 0.68000001 4292265407
-0.16214697 -0.057026129 0.68000001 4292331202
-0.16132559 -0.057193331 0.68199998 4292725704
-0.16049664 -0.057360534 0.68400002 4292463552
-0.15919468 -0.057360012 0.68400002 4292397759
-0.15789276 -0.057359479 0.68400002 4292397248
-0.15659089 -0.057358932 0.68400002 4292528577
-0.15528911 -0.057358399 0.68400002 4292068542
-0.15443762 -0.057525564 0.68599999 4292002749
-0.15313213 -0.057525001 0.68599999 4291936958
-0.15271199 -0.057859864 0.69 4291936958
-0.15161842 -0.057943147 0.69099998 4291740095
-0.1503036 -0.057942569 0.69099998 4291740095
-0.14942008 -0.058109708 0.69300002 4291674553
-0.14831528 -0.05819298 0.69400001 4291608504
-0.14699493 -0.058192383 0.69400001 4291608247
-0.14609449 -0.058359496 0.69599998 4291739576
-0.14477047 -0.058358908 0.69599998 4291805108
-0.14344652 -0.058358304 0.69599998 4291673266
-0.14232683 -0.058441542 0.69700003 4291607221
-0.14100112 -0.058440953 0.69700003 4291673270
-0.13987587 -0.058524188 0.69800001 4291541682
-0.13894533 -0.058691256 0.69999999 4291541682
-0.1376141 -0.058690656 0.69999999 4291606962
-0.13745107 -0.059193086 0.70599997 4291541168
-0.13610858 -0.059192467 0.70599997 4291410099
-0.13514793 -0.059359532 0.708 4291410099
-0.13380174 -0.059358902 0.708 4291410612
-0.13245563 -0.05935828 0.708 4291542198
-0.13147996 -0.059525322 0.70999998 4291673266
-0.13031347 -0.059608541 0.71100003 4291673266
-0.12932466 -0.059775576 0.713 4291673520
-0.13012308 -0.060780987 0.72500002 4291739313
-0.12874499 -0.060780343 0.72500002 4291410614
-0.12736699 -0.060779694 0.72500002 4290884014
-0.12633659 -0.060946718 0.727 4291737778
-0.12512679 -0.061029896 0.72799999 4294961635
-0.23923168 -0.057139371 0.69700003 4287994772
-0.23790358 -0.05713962 0.69700003 4291477186
-0.23623614 -0.057057884 0.69599998 4292595667
-0.23490994 -0.057058096 0.69599998 4292266191
-0.23291251 -0.05689434 0.69400001 4292134349
-0.23058899 -0.056648578 0.69099998 4292200648
-0.2289405 -0.05656676 0.69 4292134599
-0.22762562 -0.056566887 0.69 4292134853
-0.22565486 -0.056403045 0.68800002 4292266439
-0.22401766 -0.056321159 0.68699998 4292201159
-0.22238435 -0.056239244 0.68599999 4292266952
-0.22043256 -0.056075338 0.68400002 4292266952
-0.21912912 -0.056075379 0.68400002 4292266952
-0.21718875 -0.055911433 0.68199998 4292397768
-0.21525604 -0.055747479 0.68000001 4292463817
-0.21364552 -0.055665478 0.67900002 4292397768
-0.21235161 -0.055665441 0.67900002 4292397768
-0.21105766 -0.055665392 0.67900002 4292397509
-0.20976381 -0.055665329 0.67900002 4292397509
-0.2084699 -0.055665251 0.67900002 4292397509
-0.20717596 -0.055665143 0.67900002 4292660424
-0.20588212 -0.055665039 0.67900002 4292266952
-0.20458825 -0.055664912 0.67900002 4292201159
-0.20329441 -0.055664763 0.67900002 4292463817
-0.20200057 -0.055664606 0.67900002 4292397768
-0.20070677 -0.055664439 0.67900002 4292200644
-0.19941294 -0.055664241 0.67900002 4292266693
-0.19811916 -0.05566404 0.67900002 4292331462
-0.19682541 -0.055663828 0.67900002 4292265669
-0.19553173 -0.055663601 0.67900002 4292331202
-0.1939519 -0.055581369 0.67799997 4292396996
-0.19266018 -0.055581123 0.67799997 4292199360
-0.19136843 -0.055580862 0.67799997 4292265153
-0.19007672 -0.055580579 0.67799997 4292331200
-0.18878506 -0.055580288 0.67799997 4292331200
-0.18776998 -0.055661965 0.67900002 4292331452
-0.18647647 -0.055661652 0.67900002 4292331452
-0.18518302 -0.055661336 0.67900002 4292331200
-0.18361871 -0.055579018 0.67799997 4292265407
-0.1817894 -0.055414725 0.676 4292199614
-0.18050176 -0.055414375 0.676 4292133821
-0.17921416 -0.055414006 0.676 4292133821
-0.178453 -0.055577565 0.67799997 4292199614
-0.17716169 -0.055577189 0.67799997 4292068542
-0.17587039 -0.05557679 0.67799997 4292068542
-0.17457917 -0.055576395 0.67799997 4292068544
-0.17354359 -0.055657949 0.67900002 4292002751
-0.17225054 -0.055657528 0.67900002 4292068026
-0.17095758 -0.055657104 0.67900002 4292068026
-0.16966461 -0.055656664 0.67900002 4291871163
-0.16861968 -0.055738185 0.68000001 4292002749
-0.16732493 -0.055737726 0.68000001 4292001979
-0.16603023 -0.055737264 0.68000001 4292067772
-0.1652201 -0.055900734 0.68199998 4292067772
-0.1639217 -0.055900253 0.68199998 4292133821
-0.16262336 -0.055899773 0.68199998 4292067774
-0.16132508 -0.055899289 0.68199998 4292133567
-0.16049615 -0.056062717 0.68400002 4292199614
-0.15965964 -0.056226138 0.68599999 4292067772
-0.15835391 -0.056225624 0.68599999 4292001465
-0.15704824 -0.05622511 0.68599999 4292067259
-0.15574263 -0.056224588 0.68599999 4292199360
-0.15466221 -0.056306023 0.68699998 4292133567
-0.15335479 -0.05630549 0.68699998 4291674813
-0.15293275 -0.056632783 0.69099998 4291609020
-0.15205672 -0.05679616 0.69300002 4291674813
-0.1509556 -0.056877572 0.69400001 4291477690
-0.15006633 -0.057040919 0.69599998 4291476918
-0.14874214 -0.057040356 0.69599998 4291345589
-0.14741796 -0.057039786 0.69599998 4291279025
-0.14630379 -0.05712118 0.69700003 4291344819
-0.14497788 -0.057120614 0.69700003 4291344816
-0.14365205 -0.057120048 0.69700003 4291279023
-0.14232624 -0.057119466 0.69700003 4291409326
-0.14120282 -0.057200842 0.69800001 4291475119
-0.14027603 -0.057364143 0.69999999 4291277997
-0.13914321 -0.057445504 0.70099998 4291409326
-0.1378101 -0.057444919 0.70099998 4291344303
-0.13745047 -0.057854056 0.70599997 4291410096
-0.13610795 -0.057853457 0.70599997 4291344305
-0.13514732 -0.058016755 0.708 4291278512
-0.13380115 -0.058016159 0.708 4291475121
-0.13282919 -0.058179442 0.70999998 4291409328
-0.13166454 -0.05826078 0.71100003 4291278510
-0.13086271 -0.058505986 0.71399999 4291410096
-0.13041231 -0.05891509 0.71899998 4291410348
-0.12922505 -0.058996413 0.72000003 4291410348
-0.12874436 -0.059405494 0.72500002 4291410101
-0.12736633 -0.059404872 0.72500002 4291080879
-0.12633595 -0.059568129 0.727 4292524470
-0.12495428 -0.059567511 0.727 4294963181
-0.23957515 -0.055895753 0.69800001 4286547074
-0.23790386 -0.05581595 0.69700003 4291082942
-0.23623636 -0.055736125 0.69599998 4293648868
-0.23491015 -0.055736359 0.69599998 4293253066
-0.23358393 -0.055736579 0.69599998 4291805619
-0.23125656 -0.055496521 0.69300002 4291871946
-0.22927243 -0.055336528 0.69099998 4292069069
-0.22762579 -0.055256601 0.69 4292134599
-0.22631094 -0.055256728 0.69 4292266441
-0.22401777 -0.055016588 0.68699998 4292397509
-0.22238444 -0.054936603 0.68599999 4292463302
-0.22107716 -0.054936673 0.68599999 4292397509
-0.21912916 -0.054776564 0.68400002 4292331716
-0.21750724 -0.054696515 0.68300003 4292201157
-0.21588914 -0.054616455 0.68199998 4292332999
-0.21396016 -0.054456297 0.68000001 4292398022
-0.21266434 -0.054456282 0.68000001 4292200644
-0.21105765 -0.054376166 0.67900002 4292331716
-0.20976375 -0.054376118 0.67900002 4292331716
-0.20846982 -0.054376058 0.67900002 4292331716
-0.20717587 -0.054375976 0.67900002 4292660424
-0.20588198 -0.054375883 0.67900002 4292266693
-0.2045881 -0.054375775 0.67900002 4292266693
-0.20329423 -0.054375645 0.67900002 4292266693
-0.20200041 -0.054375511 0.67900002 4292266693
-0.20070657 -0.054375354 0.67900002 4292331716
-0.19941276 -0.054375194 0.67900002 4292331716
-0.19811897 -0.054375015 0.67900002 4292265669
-0.19682521 -0.054374825 0.67900002 4292199875
-0.19553146 -0.054374605 0.67900002 4292330949
-0.19423777 -0.054374393 0.67900002 4292396742
-0.19294411 -0.054374162 0.67900002 4292199364
-0.19136818 -0.054293834 0.67799997 4292133315
-0.19007647 -0.054293577 0.67799997 4292265153
-0.18878478 -0.054293305 0.67799997 4292331202
-0.18776968 -0.054373108 0.67900002 4292331198
-0.18647616 -0.054372821 0.67900002 4292331198
-0.18518266 -0.054372523 0.67900002 4292199360
-0.18388923 -0.05437221 0.67900002 4292133567
-0.18232687 -0.054291803 0.67799997 4292133567
-0.18103544 -0.054291472 0.67799997 4292067774
-0.17974399 -0.054291129 0.67799997 4292067774
-0.17871587 -0.054370854 0.67900002 4292133567
-0.17742263 -0.054370493 0.67900002 4292002749
-0.17587 -0.054290041 0.67799997 4292002749
-0.17457879 -0.054289669 0.67799997 4292067772
-0.17354316 -0.054369349 0.67900002 4292067772
-0.17225014 -0.05436895 0.67900002 4291936956
-0.1712089 -0.054448623 0.68000001 4292002749
-0.16991405 -0.054448206 0.68000001 4292067774
-0.16861923 -0.054447781 0.68000001 4292133567
-0.16732448 -0.05444736 0.68000001 4291871165
-0.16651809 -0.054607056 0.68199998 4291871165
-0.16546191 -0.05468668 0.68300003 4292067774
-0.16416159 -0.054686233 0.68300003 4292199360
-0.16286135 -0.054685775 0.68300003 4292067774
-0.16156116 -0.05468531 0.68300003 4292001981
-0.16096494 -0.054925028 0.68599999 4292067774
-0.15989187 -0.055004612 0.68699998 4292001981
-0.1588151 -0.055084202 0.68800002 4291804604
-0.1575056 -0.055083703 0.68800002 4291870398
-0.15665022 -0.055243324 0.69 4291739576
-0.15533705 -0.055242829 0.69 4291739576
-0.15424718 -0.055322379 0.69099998 4291476920
-0.15337488 -0.055481993 0.69300002 4291345591
-0.15227559 -0.055561524 0.69400001 4291410614
-0.15139006 -0.055721115 0.69599998 4291344565
-0.15006579 -0.05572059 0.69599998 4291344816
-0.1489553 -0.055800114 0.69700003 4291476659
-0.14762925 -0.055799566 0.69700003 4291278773
-0.14630325 -0.055799033 0.69700003 4291147444
-0.14497732 -0.055798486 0.69700003 4291278512
-0.14385758 -0.055877995 0.69800001 4291344305
-0.14252988 -0.05587744 0.69800001 4291278508
-0.14180912 -0.056117035 0.70099998 4291212715
-0.14087664 -0.056276586 0.70300001 4291277997
-0.13953963 -0.05627602 0.70300001 4291277997
-0.13839927 -0.056355502 0.704 4291278762
-0.1376446 -0.056595091 0.70700002 4291410348
-0.13630019 -0.056594513 0.70700002 4291278762
-0.13552849 -0.056834087 0.70999998 4291212969
-0.1343675 -0.056913558 0.71100003 4291212465
-0.13301571 -0.056912981 0.71100003 4291212465
-0.13203432 -0.057072487 0.713 4291278512
-0.13141195 -0.057392083 0.71700001 4291410099
-0.1304117 -0.057551581 0.71899998 4291410348
-0.12922443 -0.057631038 0.72000003 4291673520
-0.12874374 -0.058030661 0.72500002 4291083448
-0.12736575 -0.058030073 0.72500002 4290030503
-0.1259878 -0.058029477 0.72500002 4291804577
-0.24090542 -0.054569855 0.69800001 4278190080
-0.23824544 -0.054570451 0.69800001 4290881467
-0.23657604 -0.054492552 0.69700003 4294565875
-0.23491038 -0.054414615 0.69599998 4293515761
-0.23358414 -0.054414839 0.69599998 4291936986
-0.23125672 -0.054180503 0.69300002 4291477700
-0.2292726 -0.054024324 0.69099998 4291872457
-0.22762592 -0.053946301 0.69 4292134853
-0.22631101 -0.05394645 0.69 4292134853
-0.22434399 -0.053790215 0.68800002 4292265666
-0.2227087 -0.053712141 0.68699998 4292397509
-0.2213995 -0.053712226 0.68699998 4292265666
-0.22009033 -0.053712305 0.68699998 4292331716
-0.21846265 -0.053634174 0.68599999 4292200898
-0.2162057 -0.053399663 0.68300003 4292266691
-0.21458946 -0.053321496 0.68199998 4292201157
-0.21328977 -0.053321503 0.68199998 4292201157
-0.21136846 -0.053165123 0.68000001 4292200644
-0.20976369 -0.053086914 0.67900002 4292200644
-0.20846975 -0.053086866 0.67900002 4292003264
-0.20717581 -0.053086817 0.67900002 4292266693
-0.20588194 -0.053086735 0.67900002 4292069570
-0.204588 -0.05308665 0.67900002 4291872448
-0.20359352 -0.053164721 0.68000001 4292069055
-0.20229776 -0.053164609 0.68000001 4292069055
-0.201002 -0.053164475 0.68000001 4291937471
-0.1997063 -0.053164337 0.68000001 4292134850
-0.19841059 -0.053164169 0.68000001 4292003012
-0.1971149 -0.053164002 0.68000001 4292003012
-0.19581926 -0.053163815 0.68000001 4292199873
-0.19423756 -0.053085435 0.67900002 4292199873
-0.19294387 -0.053085223 0.67900002 4292002753
-0.19165021 -0.053085007 0.67900002 4292002753
-0.19035657 -0.053084768 0.67900002 4292068542
-0.18906295 -0.053084519 0.67900002 4292068542
-0.18804593 -0.053162441 0.68000001 4292133821
-0.1867505 -0.053162172 0.68000001 4292133821
-0.18545511 -0.0531619 0.68000001 4292067774
-0.18415974 -0.053161606 0.68000001 4292199360
-0.18259549 -0.053083129 0.67900002 4291936958
-0.18130215 -0.053082816 0.67900002 4291936958
-0.18000877 -0.053082503 0.67900002 4292067772
-0.17871553 -0.053082172 0.67900002 4292001979
-0.17768355 -0.053160008 0.68000001 4291673016
-0.17612909 -0.05308149 0.67900002 4291804602
-0.17483591 -0.053081132 0.67900002 4291804856
-0.17379835 -0.053158931 0.68000001 4291870649
-0.17250343 -0.053158566 0.68000001 4291871163
-0.17120852 -0.053158186 0.68000001 4291871163
-0.16991363 -0.053157795 0.68000001 4291805116
-0.16861883 -0.053157397 0.68000001 4291805116
-0.16781619 -0.053313337 0.68199998 4291870652
-0.16651766 -0.05331292 0.68199998 4291870652
-0.16546148 -0.053390678 0.68300003 4291870652
-0.16416116 -0.053390246 0.68300003 4291804602
-0.16309935 -0.053467985 0.68400002 4291608245
-0.16227032 -0.053623874 0.68599999 4291871161
