# .PCD v0.7 - Point Cloud Data file format
VERSION 0.7
FIELDS x y z rgba
SIZE 4 4 4 4
TYPE F F F U
COUNT 1 1 1 1
WIDTH 1070
HEIGHT 1
VIEWPOINT 0 0 0 1 0 0 0
POINTS 1070
DATA ascii
0.05150979 -0.12908576 0.79000002 4294967295
0.053007852 -0.12908633 0.79000002 4294967295
0.054505944 -0.12908693 0.79000002 4294967295
0.055933163 -0.12892412 0.78899997 4294967295
0.057429414 -0.12892474 0.78899997 4294967295
0.058925692 -0.1289254 0.78899997 4294967295
0.060268842 -0.12859923 0.787 4294967295
0.061761394 -0.12859991 0.787 4294967295
0.063414723 -0.12892742 0.78899997 4294967295
0.064911127 -0.12892815 0.78899997 4294967295
0.066491738 -0.12909229 0.79000002 4294967295
0.067990109 -0.12909302 0.79000002 4294967295
0.069488518 -0.12909381 0.79000002 4294967295
0.070986964 -0.1290946 0.79000002 4294967295
0.072485439 -0.12909539 0.79000002 4294967295
0.074171267 -0.12942305 0.792 4294967295
0.075673603 -0.12942387 0.792 4294967295
0.07717599 -0.12942472 0.792 4294967295
0.078678422 -0.12942559 0.792 4294967295
0.080180906 -0.12942648 0.792 4294967295
0.081683405 -0.12942739 0.792 4294967295
0.084236287 -0.13106248 0.80199999 4294967295
0.0097292373 -0.12967898 0.80299997 4279566336
0.011251514 -0.12967898 0.80299997 4290354576
0.012773788 -0.12967898 0.80299997 4293712853
0.014296068 -0.12967902 0.80299997 4294967295
0.015818352 -0.1296791 0.80299997 4294967295
0.01734064 -0.12967916 0.80299997 4294967295
0.018862931 -0.12967926 0.80299997 4294967295
0.020309078 -0.12919495 0.80000001 4294967295
0.02171657 -0.1285491 0.796 4294967295
0.023225617 -0.12854926 0.796 4294967295
0.024610378 -0.12790346 0.792 4294967295
0.026111862 -0.12790366 0.792 4294967295
0.02761336 -0.12790389 0.792 4294967295
0.029114867 -0.12790415 0.792 4294967295
0.030539077 -0.12758142 0.79000002 4294967295
0.032036822 -0.12758173 0.79000002 4294967295
0.033534586 -0.12758201 0.79000002 4294967295
0.034988012 -0.12742084 0.78899997 4294967295
0.03648391 -0.1274212 0.78899997 4294967295
0.037787285 -0.12677559 0.78500003 4294967295
0.039175563 -0.12645297 0.78299999 4294967295
0.040660143 -0.12645337 0.78299999 4294967295
0.0420371 -0.12613082 0.78100002 4294967295
0.043517925 -0.12613125 0.78100002 4294967295
0.04499878 -0.12613171 0.78100002 4294967295
0.046598673 -0.12645519 0.78299999 4294967295
0.048206188 -0.12677872 0.78500003 4294967295
0.049821302 -0.12710223 0.787 4294967295
0.051444028 -0.12742577 0.78899997 4294967295
0.052940179 -0.12742634 0.78899997 4294967295
0.054436348 -0.12742691 0.78899997 4294967295
0.055790767 -0.12710451 0.787 4294967295
0.057283208 -0.12710512 0.787 4294967295
0.058775671 -0.12710576 0.787 4294967295
0.060115017 -0.12678342 0.78500003 4294967295
0.061603755 -0.12678409 0.78500003 4294967295
0.063092537 -0.12678476 0.78500003 4294967295
0.064745866 -0.12710848 0.787 4294967295
0.066406831 -0.12743224 0.78899997 4294967295
0.067903288 -0.12743297 0.78899997 4294967295
0.069399782 -0.12743373 0.78899997 4294967295
0.070896313 -0.12743452 0.78899997 4294967295
0.072484627 -0.12759683 0.79000002 4294967295
0.07398314 -0.12759764 0.79000002 4294967295
0.075481668 -0.12759846 0.79000002 4294967295
0.076980248 -0.1275993 0.79000002 4294967295
0.078478888 -0.12760018 0.79000002 4294967295
0.080180012 -0.12792408 0.792 4294967295
0.081682496 -0.12792496 0.792 4294967295
0.083185039 -0.12792589 0.792 4294967295
0.0066764252 -0.12799643 0.80199999 4278190128
0.011251506 -0.12815595 0.80299997 4294967242
0.012773762 -0.12815599 0.80299997 4294967295
0.014296021 -0.12815602 0.80299997 4294967295
0.015798582 -0.12799646 0.80199999 4294967295
0.017318955 -0.12799656 0.80199999 4294967295
0.018745368 -0.12735829 0.79799998 4294967295
0.020258171 -0.12735841 0.79799998 4294967295
0.021607287 -0.12640095 0.792 4294967295
0.023108734 -0.12640113 0.792 4294967295
0.024548035 -0.12608209 0.79000002 4294967295
0.026045712 -0.12608233 0.79000002 4294967295
0.027543392 -0.12608255 0.79000002 4294967295
0.029041089 -0.12608278 0.79000002 4294967295
0.030538803 -0.12608305 0.79000002 4294967295
0.032036528 -0.12608334 0.79000002 4294967295
0.033491816 -0.12592405 0.78899997 4294967295
0.034987677 -0.12592438 0.78899997 4294967295
0.036391068 -0.12560551 0.787 4294967295
0.037690636 -0.12496747 0.78299999 4294967295
0.039175171 -0.12496787 0.78299999 4294967295
0.040555872 -0.12464905 0.78100002 4294967295
0.04203666 -0.12464948 0.78100002 4294967295
0.043517474 -0.12464991 0.78100002 4294967295
0.044998311 -0.12465037 0.78100002 4294967295
0.046598189 -0.12497007 0.78299999 4294967295
0.048082855 -0.12497055 0.78299999 4294967295
0.049694173 -0.1252903 0.78500003 4294967295
0.051182687 -0.12529084 0.78500003 4294967295
0.052805416 -0.1256106 0.787 4294967295
0.05415979 -0.12529196 0.78500003 4294967295
0.055648383 -0.12529254 0.78500003 4294967295
0.057137016 -0.12529317 0.78500003 4294967295
0.058476306 -0.12497456 0.78299999 4294967295
0.059961203 -0.1249752 0.78299999 4294967295
0.061446127 -0.12497588 0.78299999 4294967295
0.063091837 -0.12529579 0.78500003 4294967295
0.064580627 -0.12529647 0.78500003 4294967295
0.066406094 -0.12593564 0.78899997 4294967295
0.067902535 -0.12593637 0.78899997 4294967295
0.069223113 -0.12561791 0.787 4294967295
0.07071583 -0.12561867 0.787 4294967295
0.072392084 -0.12593868 0.78899997 4294967295
0.073888667 -0.12593949 0.78899997 4294967295
0.075385295 -0.12594029 0.78899997 4294967295
0.076881953 -0.12594114 0.78899997 4294967295
0.078478016 -0.12610163 0.79000002 4294967295
0.079976656 -0.12610251 0.79000002 4294967295
0.081475347 -0.12610339 0.79000002 4294967295
0.083184123 -0.12642351 0.792 4294967295
0.084900536 -0.12674367 0.79400003 4294967295
0.086406954 -0.1267446 0.79400003 4294967295
0.087913387 -0.12674555 0.79400003 4294967295
0.091613516 -0.12770528 0.80000001 4294967295
0.093131483 -0.12770627 0.80000001 4294967295
0.094649509 -0.12770729 0.80000001 4294967295
0.096167564 -0.12770832 0.80000001 4294967295
0.097685665 -0.12770934 0.80000001 4294967295
0.099203825 -0.12771039 0.80000001 4294440951
0.10072201 -0.12771145 0.80000001 4288461004
0.0097171534 -0.12647532 0.80199999 4294966518
0.011209467 -0.12615992 0.80000001 4294967295
0.012726012 -0.12615992 0.80000001 4294967295
0.014242562 -0.12615995 0.80000001 4294967295
0.015719717 -0.12584463 0.79799998 4294967295
0.017189298 -0.1255293 0.796 4294967295
0.018698281 -0.12552941 0.796 4294967295
0.020207267 -0.12552953 0.796 4294967295
0.021607136 -0.12489886 0.792 4294967295
0.023108557 -0.12489901 0.792 4294967295
0.024547847 -0.12458382 0.79000002 4294967295
0.026045499 -0.124584 0.79000002 4294967295
0.027543161 -0.12458424 0.79000002 4294967295
0.029040841 -0.12458447 0.79000002 4294967295
0.030499868 -0.12442701 0.78899997 4294967295
0.031914577 -0.12411191 0.787 4294967295
0.033406604 -0.12411221 0.787 4294967295
0.034898657 -0.12411254 0.787 4294967295
0.036205761 -0.12348206 0.78299999 4294967295
0.037690267 -0.12348241 0.78299999 4294967295
0.039074719 -0.12316738 0.78100002 4294967295
0.04055547 -0.12316779 0.78100002 4294967295
0.042036239 -0.12316821 0.78100002 4294967295
0.043461304 -0.12301093 0.77999997 4294967295
0.044940222 -0.12301137 0.77999997 4294967295
0.046478674 -0.12316956 0.78100002 4294967295
0.047959533 -0.12317006 0.78100002 4294967295
0.049440417 -0.12317056 0.78100002 4294967295
0.050921328 -0.12317109 0.78100002 4294967295
0.052536465 -0.12348705 0.78299999 4294967295
0.054021228 -0.12348763 0.78299999 4294967295
0.055506002 -0.1234882 0.78299999 4294967295
0.056990832 -0.12348882 0.78299999 4294967295
0.058475669 -0.12348942 0.78299999 4294967295
0.059960548 -0.12349008 0.78299999 4294967295
0.061445463 -0.12349074 0.78299999 4294967295
0.063091159 -0.12380686 0.78500003 4294967295
0.064579919 -0.12380753 0.78500003 4294967295
0.066237055 -0.12412366 0.787 4294967295
0.067729689 -0.12412441 0.787 4294967295
0.069222346 -0.12412514 0.787 4294967295
0.070715055 -0.12412591 0.787 4294967295
0.072207786 -0.12412668 0.787 4294967295
0.07370057 -0.12412747 0.787 4294967295
0.07519339 -0.12412829 0.787 4294967295
0.076686248 -0.12412911 0.787 4294967295
0.078377821 -0.1244454 0.78899997 4294967295
0.079874553 -0.12444625 0.78899997 4294967295
0.081371315 -0.12444711 0.78899997 4294967295
0.083183229 -0.12492119 0.792 4294967295
0.084685773 -0.1249221 0.792 4294967295
0.086188368 -0.12492302 0.792 4294967295
0.087691009 -0.12492397 0.792 4294967295
0.089418918 -0.12524037 0.79400003 4294967295
0.09092544 -0.12524134 0.79400003 4294967295
0.092897661 -0.12587327 0.79799998 4294967295
0.094411865 -0.12587425 0.79799998 4294967295
0.095926113 -0.12587525 0.79799998 4294967295
0.097684629 -0.12619177 0.80000001 4294967295
0.099202767 -0.12619279 0.80000001 4294967295
0.10072096 -0.12619385 0.80000001 4294114047
0.1024948 -0.1265104 0.80199999 4287008418
0.10401688 -0.12651147 0.80199999 4278192974
0.0097171674 -0.12495428 0.80199999 4294967295
0.011237483 -0.1249543 0.80199999 4294967295
0.012694172 -0.12433111 0.79799998 4294967295
0.014206907 -0.12433115 0.79799998 4294967295
0.015680254 -0.12401961 0.796 4294967295
0.017146016 -0.12370807 0.79400003 4294967295
0.018651187 -0.12370816 0.79400003 4294967295
0.020105589 -0.12339666 0.792 4294967295
0.021606987 -0.12339684 0.792 4294967295
0.023050034 -0.12308537 0.79000002 4294967295
0.024547657 -0.12308556 0.79000002 4294967295
0.026012318 -0.12292995 0.78899997 4294967295
0.027508063 -0.12293016 0.78899997 4294967295
0.029003823 -0.12293041 0.78899997 4294967295
0.030422289 -0.12261907 0.787 4294967295
0.03175208 -0.12199613 0.78299999 4294967295
0.033236507 -0.1219964 0.78299999 4294967295
0.03472095 -0.12199673 0.78299999 4294967295
0.036112931 -0.12168544 0.78100002 4294967295
0.037593629 -0.12168581 0.78100002 4294967295
0.039074335 -0.12168619 0.78100002 4294967295
0.040503133 -0.12153077 0.77999997 4294967295
0.041981988 -0.12153118 0.77999997 4294967295
0.043460865 -0.12153161 0.77999997 4294967295
0.044939764 -0.12153206 0.77999997 4294967295
0.046418685 -0.12153251 0.77999997 4294967295
0.047897633 -0.12153301 0.77999997 4294967295
0.049376599 -0.12153351 0.77999997 4294967295
0.050855592 -0.12153403 0.77999997 4294967295
0.052401721 -0.12169039 0.78100002 4294967295
0.053882662 -0.12169095 0.78100002 4294967295
0.055363644 -0.12169153 0.78100002 4294967295
0.056771867 -0.12153631 0.77999997 4294967295
0.058250997 -0.12153692 0.77999997 4294967295
0.059730176 -0.12153754 0.77999997 4294967295
0.061209373 -0.12153818 0.77999997 4294967295
0.062769003 -0.1216947 0.78100002 4294967295
0.064250164 -0.12169538 0.78100002 4294967295
0.066068009 -0.12231936 0.78500003 4294967295
0.067556843 -0.12232009 0.78500003 4294967295
0.069045693 -0.12232081 0.78500003 4294967295
0.070354864 -0.12200989 0.78299999 4294967295
0.071840011 -0.12201065 0.78299999 4294967295
0.073512487 -0.12232311 0.78500003 4294967295
0.075001486 -0.12232389 0.78500003 4294967295
0.076490529 -0.12232471 0.78500003 4294967295
0.078178294 -0.12263719 0.787 4294967295
0.079671226 -0.12263805 0.787 4294967295
0.081164189 -0.1226389 0.787 4294967295
0.082972281 -0.12310729 0.79000002 4294967295
0.084471017 -0.12310816 0.79000002 4294967295
0.085860975 -0.12295325 0.78899997 4294967295
0.087357908 -0.12295415 0.78899997 4294967295
0.088967502 -0.12311094 0.79000002 4294967295
0.090466417 -0.12311189 0.79000002 4294967295
0.092663862 -0.12404789 0.796 4294967295
0.094410859 -0.12436052 0.79799998 4294967295
0.0959251 -0.12436154 0.79799998 4294967295
0.097683609 -0.12467424 0.80000001 4294967295
0.099201731 -0.12467527 0.80000001 4294967295
0.10097169 -0.124988 0.80199999 4294967295
0.10249373 -0.12498905 0.80199999 4294967295
0.0096929502 -0.12312553 0.80000001 4294967295
0.011209453 -0.12312555 0.80000001 4294967295
0.012662329 -0.12250993 0.796 4294967295
0.014171254 -0.12250995 0.796 4294967295
0.015601388 -0.12189439 0.792 4294967295
0.017102741 -0.12189446 0.792 4294967295
0.018604096 -0.12189455 0.792 4294967295
0.020054691 -0.12158687 0.79000002 4294967295
0.021552278 -0.12158703 0.79000002 4294967295
0.023049863 -0.12158716 0.79000002 4294967295
0.024516394 -0.12143343 0.78899997 4294967295
0.026012106 -0.12143365 0.78899997 4294967295
0.027507838 -0.12143385 0.78899997 4294967295
0.029003574 -0.12143409 0.78899997 4294967295
0.030344706 -0.12081872 0.78500003 4294967295
0.031751793 -0.12051117 0.78299999 4294967295
0.033151302 -0.12020364 0.78100002 4294967295
0.034631941 -0.12020396 0.78100002 4294967295
0.036112592 -0.12020428 0.78100002 4294967295
0.037593268 -0.12020465 0.78100002 4294967295
0.039023921 -0.12005111 0.77999997 4294967295
0.040502734 -0.12005149 0.77999997 4294967295
0.04198157 -0.1200519 0.77999997 4294967295
0.04334899 -0.1197445 0.778 4294967295
0.044824082 -0.11974494 0.778 4294967295
0.046299186 -0.1197454 0.778 4294967295
0.047651514 -0.11943806 0.77600002 4294967295
0.049122881 -0.11943854 0.77600002 4294967295
0.050594278 -0.11943907 0.77600002 4294967295
0.052199889 -0.11974742 0.778 4294967295
0.053675123 -0.11974797 0.778 4294967295
0.055150405 -0.11974856 0.778 4294967295
0.056625701 -0.11974914 0.778 4294967295
0.058101028 -0.11974973 0.778 4294967295
0.059576388 -0.11975036 0.778 4294967295
0.061051782 -0.119751 0.778 4294967295
0.062527217 -0.11975167 0.778 4294967295
0.06400267 -0.11975233 0.778 4294967295
0.065478168 -0.11975303 0.778 4294967295
0.06712582 -0.12006158 0.77999997 4294967295
0.06860517 -0.1200623 0.77999997 4294967295
0.070174418 -0.12021697 0.78100002 4294967295
0.071655735 -0.1202177 0.78100002 4294967295
0.073137119 -0.12021849 0.78100002 4294967295
0.074809588 -0.12052713 0.78299999 4294967295
0.076489709 -0.12083579 0.78500003 4294967295
0.07797879 -0.12083662 0.78500003 4294967295
0.079467915 -0.12083746 0.78500003 4294967295
0.081163317 -0.12114616 0.787 4294967295
0.082866371 -0.12145491 0.78899997 4294967295
0.0843632 -0.1214558 0.78899997 4294967295
0.085860066 -0.1214567 0.78899997 4294967295
0.087356977 -0.12145761 0.78899997 4294967295
0.088966571 -0.12161247 0.79000002 4294967295
0.090465464 -0.12161342 0.79000002 4294967295
0.091964416 -0.12161435 0.79000002 4294967295
0.09417326 -0.12253898 0.796 4294967295
0.095924102 -0.12284786 0.79799998 4294967295
0.09743838 -0.12284885 0.79799998 4294967295
0.099200703 -0.12315775 0.80000001 4294967295
0.10071887 -0.12315881 0.80000001 4294967295
0.1022371 -0.12315985 0.80000001 4294967295
0.10375535 -0.12316089 0.80000001 4294967295
0.10527368 -0.12316196 0.80000001 4288982194
0.10679205 -0.12316302 0.80000001 4278200177
0.0066600027 -0.1216085 0.80000001 4294967295
0.0081764841 -0.12160845 0.80000001 4294967295
0.0096929651 -0.12160844 0.80000001 4294967295
0.0111534 -0.12100038 0.796 4294967295
0.012630488 -0.12069639 0.79400003 4294967295
0.0141356 -0.12069641 0.79400003 4294967295
0.015601321 -0.12039245 0.792 4294967295
0.017059468 -0.12008853 0.79000002 4294967295
0.01855701 -0.12008859 0.79000002 4294967295
0.020054564 -0.12008873 0.79000002 4294967295
0.021524847 -0.11993685 0.78899997 4294967295
0.023020517 -0.119937 0.78899997 4294967295
0.024391914 -0.11932912 0.78500003 4294967295
0.025880028 -0.11932933 0.78500003 4294967295
0.027368154 -0.11932956 0.78500003 4294967295
0.028782772 -0.11902575 0.78299999 4294967295
0.030189821 -0.11872197 0.78100002 4294967295
0.031670406 -0.11872226 0.78100002 4294967295
0.033108562 -0.11857054 0.77999997 4294967295
0.034587279 -0.11857083 0.77999997 4294967295
0.036066014 -0.11857117 0.77999997 4294967295
0.037544768 -0.11857151 0.77999997 4294967295
0.038923483 -0.11826784 0.778 4294967295
0.04039849 -0.11826823 0.778 4294967295
0.041873515 -0.11826863 0.778 4294967295
0.043348558 -0.11826906 0.778 4294967295
0.044823632 -0.1182695 0.778 4294967295
0.046179701 -0.11796592 0.77600002 4294967295
0.047651026 -0.11796641 0.77600002 4294967295
0.049122378 -0.11796687 0.77600002 4294967295
0.050593756 -0.11796739 0.77600002 4294967295
0.052065156 -0.1179679 0.77600002 4294967295
0.053536594 -0.11796848 0.77600002 4294967295
0.055008054 -0.11796902 0.77600002 4294967295
0.05647954 -0.11796961 0.77600002 4294967295
0.057951059 -0.11797019 0.77600002 4294967295
0.059269454 -0.11766676 0.77399999 4294967295
0.060737245 -0.11766739 0.77399999 4294967295
0.062365822 -0.1179721 0.77600002 4294967295
0.063837469 -0.11797275 0.77600002 4294967295
0.065477468 -0.11827747 0.778 4294967295
0.066952989 -0.11827818 0.778 4294967295
0.068428539 -0.11827891 0.778 4294967295
0.070083827 -0.11858369 0.77999997 4294967295
0.071563236 -0.11858443 0.77999997 4294967295
0.073042691 -0.1185852 0.77999997 4294967295
0.074617736 -0.11873801 0.78100002 4294967295
0.076294042 -0.11904287 0.78299999 4294967295
0.077779301 -0.11904369 0.78299999 4294967295
0.079467073 -0.11934858 0.78500003 4294967295
0.081162468 -0.11965349 0.787 4294967295
0.082655445 -0.11965436 0.787 4294967295
0.084148467 -0.11965523 0.787 4294967295
0.085423887 -0.11935201 0.78500003 4294967295
0.086913206 -0.11935291 0.78500003 4294967295
0.088853009 -0.11996199 0.78899997 4294967295
0.090350002 -0.11996292 0.78899997 4294967295
0.091847062 -0.11996388 0.78899997 4294967295
0.09346246 -0.12011688 0.79000002 4294967295
0.095442303 -0.12072604 0.79400003 4294967295
0.097193182 -0.12103111 0.796 4294967295
0.09895169 -0.12133621 0.79799998 4294967295
0.10046604 -0.12133723 0.79799998 4294967295
0.10198046 -0.12133826 0.79799998 4294967295
0.10349493 -0.12133929 0.79799998 4294967295
0.10500943 -0.12134035 0.79799998 4294967295
0.10625701 -0.1210373 0.796 4289185023
0.0036407332 -0.12054192 0.80299997 4294967295
0.0051564542 -0.12039173 0.80199999 4294967295
0.0066600563 -0.12009144 0.80000001 4294967295
0.0081765186 -0.1200914 0.80000001 4294967295
0.009644513 -0.11949091 0.796 4294967295
0.011153393 -0.11949092 0.796 4294967295
0.012598644 -0.11889048 0.792 4294967295
0.014099948 -0.11889051 0.792 4294967295
0.015561857 -0.11859035 0.79000002 4294967295
0.017059378 -0.11859041 0.79000002 4294967295
0.018533412 -0.11844039 0.78899997 4294967295
0.020029051 -0.11844049 0.78899997 4294967295
0.021524698 -0.11844064 0.78899997 4294967295
0.022962004 -0.11814057 0.787 4294967295
0.024329586 -0.11754028 0.78299999 4294967295
0.025813889 -0.11754047 0.78299999 4294967295
0.027298201 -0.11754069 0.78299999 4294967295
0.028709009 -0.11724069 0.78100002 4294967295
0.030150905 -0.11709082 0.77999997 4294967295
0.031548474 -0.11679085 0.778 4294967295
0.033023365 -0.11679115 0.778 4294967295
0.034498278 -0.11679145 0.778 4294967295
0.035973199 -0.11679176 0.778 4294967295
0.037448145 -0.1167921 0.778 4294967295
0.038823057 -0.11649225 0.77600002 4294967295
0.040294245 -0.11649262 0.77600002 4294967295
0.041765459 -0.11649301 0.77600002 4294967295
0.043236699 -0.11649344 0.77600002 4294967295
0.044707958 -0.11649387 0.77600002 4294967295
0.046179242 -0.11649432 0.77600002 4294967295
0.04752773 -0.11619452 0.77399999 4294967295
0.048995275 -0.11619502 0.77399999 4294967295
0.050462849 -0.11619552 0.77399999 4294967295
0.051930431 -0.11619603 0.77399999 4294967295
0.053536046 -0.11649683 0.77600002 4294967295
0.05486571 -0.11619712 0.77399999 4294967295
0.056333389 -0.11619769 0.77399999 4294967295
0.057801098 -0.11619829 0.77399999 4294967295
0.059268851 -0.11619889 0.77399999 4294967295
0.060736619 -0.11619952 0.77399999 4294967295
0.062365171 -0.11650041 0.77600002 4294967295
0.063836806 -0.11650109 0.77600002 4294967295
0.065308459 -0.11650173 0.77600002 4294967295
0.066952281 -0.11680269 0.778 4294967295
0.068427816 -0.11680339 0.778 4294967295
0.069903396 -0.11680411 0.778 4294967295
0.071378998 -0.11680485 0.778 4294967295
0.073041923 -0.11710586 0.77999997 4294967295
0.0745214 -0.11710664 0.77999997 4294967295
0.076098368 -0.11725757 0.78100002 4294967295
0.077579819 -0.11725837 0.78100002 4294967295
0.079061314 -0.11725917 0.78100002 4294967295
0.080749109 -0.11756028 0.78299999 4294967295
0.082234472 -0.11756112 0.78299999 4294967295
0.083719894 -0.11756198 0.78299999 4294967295
0.085423008 -0.11786315 0.78500003 4294967295
0.086912304 -0.11786402 0.78500003 4294967295
0.088626884 -0.11816524 0.787 4294967295
0.089891039 -0.11786585 0.78500003 4294967295
0.091380477 -0.11786677 0.78500003 4294967295
0.093343183 -0.1184683 0.78899997 4294967295
0.095200926 -0.11891972 0.792 4294967295
0.09694799 -0.11922101 0.79400003 4294967295
0.098702691 -0.1195223 0.796 4294967295
0.10046504 -0.1198236 0.79799998 4294967295
0.10197943 -0.11982462 0.79799998 4294967295
0.1032345 -0.11952534 0.796 4294967295
0.10474521 -0.11952638 0.796 4294967295
0.10625597 -0.11952742 0.796 4294967295
0.10803753 -0.1198288 0.79799998 4288784818
0.0021186939 -0.11901931 0.80299997 4294967295
0.0036362933 -0.11887102 0.80199999 4294967295
0.0051565277 -0.11887094 0.80199999 4294967295
0.0066601108 -0.11857444 0.80000001 4294967295
0.0081561105 -0.11827795 0.79799998 4294967295
0.009644527 -0.11798149 0.796 4294967295
0.011125364 -0.11768508 0.79400003 4294967295
0.012566803 -0.11709219 0.79000002 4294967295
0.014064297 -0.11709223 0.79000002 4294967295
0.015561792 -0.11709231 0.79000002 4294967295
0.017037699 -0.11694414 0.78899997 4294967295
0.018533306 -0.11694424 0.78899997 4294967295
0.019978158 -0.11664791 0.787 4294967295
0.021415435 -0.11635163 0.78500003 4294967295
0.022903485 -0.11635176 0.78500003 4294967295
0.024267264 -0.11575907 0.78100002 4294967295
0.025747757 -0.11575927 0.78100002 4294967295
0.027228257 -0.11575948 0.78100002 4294967295
0.02867201 -0.11561147 0.77999997 4294967295
0.030073335 -0.11531527 0.778 4294967295
0.031548198 -0.11531554 0.778 4294967295
0.033023067 -0.11531581 0.778 4294967295
0.034409277 -0.11501967 0.77600002 4294967295
0.035880394 -0.11502 0.77600002 4294967295
0.037351534 -0.11502034 0.77600002 4294967295
0.038822688 -0.1150207 0.77600002 4294967295
0.040190011 -0.11472464 0.77399999 4294967295
0.041657418 -0.11472502 0.77399999 4294967295
0.04312484 -0.11472543 0.77399999 4294967295
0.044592299 -0.11472587 0.77399999 4294967295
0.046059757 -0.11472628 0.77399999 4294967295
0.047527261 -0.11472675 0.77399999 4294967295
0.048994791 -0.11472724 0.77399999 4294967295
0.050462339 -0.11472775 0.77399999 4294967295
0.051929913 -0.11472826 0.77399999 4294967295
0.05339751 -0.11472877 0.77399999 4294967295
0.054865159 -0.11472934 0.77399999 4294967295
0.056332808 -0.11472988 0.77399999 4294967295
0.057800513 -0.11473048 0.77399999 4294967295
0.05926824 -0.11473106 0.77399999 4294967295
0.060735986 -0.11473168 0.77399999 4294967295
0.062364526 -0.1150288 0.77600002 4294967295
0.063836135 -0.11502943 0.77600002 4294967295
0.065307796 -0.1150301 0.77600002 4294967295
0.066779479 -0.11503079 0.77600002 4294967295
0.068427116 -0.11532795 0.778 4294967295
0.069902673 -0.11532865 0.778 4294967295
0.071378253 -0.11532938 0.778 4294967295
0.072853893 -0.11533014 0.778 4294967295
0.074329555 -0.11533088 0.778 4294967295
0.076000132 -0.11562812 0.77999997 4294967295
0.077479683 -0.11562893 0.77999997 4294967295
0.079060502 -0.11577798 0.78100002 4294967295
0.080542028 -0.1157788 0.78100002 4294967295
0.082023591 -0.11577962 0.78100002 4294967295
0.083719037 -0.11607696 0.78299999 4294967295
0.085422136 -0.11637434 0.78500003 4294967295
0.086911418 -0.11637519 0.78500003 4294967295
0.088400744 -0.11637608 0.78500003 4294967295
0.089890137 -0.116377 0.78500003 4294967295
0.091379553 -0.11637791 0.78500003 4294967295
0.093105637 -0.11667533 0.787 4294967295
0.094839349 -0.11697278 0.78899997 4294967295
0.096458614 -0.11712201 0.79000002 4294967295
0.098453708 -0.11771599 0.79400003 4294967295
0.10021224 -0.1180135 0.796 4294967295
0.10197843 -0.11831103 0.79799998 4294967295
0.10323349 -0.11801551 0.796 4294967295
0.10474417 -0.11801655 0.796 4294967295
0.10652187 -0.11831408 0.79799998 4294967295
0.10803648 -0.11831514 0.79799998 4294967295
0.10982569 -0.11861273 0.80000001 4288791023
0.11134417 -0.1186138 0.80000001 4278193981
0.0021188073 -0.11749671 0.80299997 4294967295
0.003636386 -0.11735027 0.80199999 4294967295
0.0051437416 -0.11705755 0.80000001 4294967295
0.0066435128 -0.11676486 0.79799998 4294967294
0.0081357006 -0.11647215 0.796 4294967295
0.0096203079 -0.1161795 0.79400003 4294967295
0.011097332 -0.11588684 0.792 4294967295
0.012566775 -0.11559422 0.79000002 4294967295
0.014046447 -0.11544793 0.78899997 4294967295
0.015542026 -0.11544798 0.78899997 4294967295
0.016994426 -0.11515541 0.787 4294967295
0.018486228 -0.11515552 0.787 4294967295
0.019927263 -0.11486298 0.78500003 4294967295
0.021360727 -0.11457046 0.78299999 4294967295
0.022844972 -0.11457063 0.78299999 4294967295
0.024267083 -0.11427816 0.78100002 4294967295
0.025714586 -0.11413199 0.77999997 4294967295
0.027193174 -0.1141322 0.77999997 4294967295
0.028598264 -0.1138398 0.778 4294967295
0.03007309 -0.11384003 0.778 4294967295
0.031466827 -0.11354765 0.77600002 4294967295
0.032937892 -0.11354793 0.77600002 4294967295
0.034408972 -0.11354822 0.77600002 4294967295
0.03588007 -0.11354855 0.77600002 4294967295
0.037351187 -0.11354887 0.77600002 4294967295
0.038722266 -0.11325657 0.77399999 4294967295
0.040189628 -0.11325694 0.77399999 4294967295
0.041657012 -0.11325732 0.77399999 4294967295
0.043124419 -0.11325774 0.77399999 4294967295
0.044591855 -0.11325815 0.77399999 4294967295
0.045999806 -0.11311227 0.773 4294967295
0.047465384 -0.11311271 0.773 4294967295
0.048931003 -0.1131132 0.773 4294967295
0.05039664 -0.11311369 0.773 4294967295
0.051862303 -0.11311419 0.773 4294967295
0.053327993 -0.11311471 0.773 4294967295
0.054793708 -0.11311526 0.773 4294967295
0.056259464 -0.11311581 0.773 4294967295
0.057725243 -0.11311638 0.773 4294967295
0.059191059 -0.11311699 0.773 4294967295
0.060656901 -0.11311758 0.773 4294967295
0.06220315 -0.11326452 0.77399999 4294967295
0.063835494 -0.11355787 0.77600002 4294967295
0.065307125 -0.11355851 0.77600002 4294967295
0.066778794 -0.11355918 0.77600002 4294967295
0.0682505 -0.11355986 0.77600002 4294967295
0.069901943 -0.11385326 0.778 4294967295
0.071377523 -0.11385398 0.778 4294967295
0.072853133 -0.1138547 0.778 4294967295
0.074328803 -0.11385545 0.778 4294967295
0.075999349 -0.1141489 0.77999997 4294967295
0.077478893 -0.11414968 0.77999997 4294967295
0.078958467 -0.11415047 0.77999997 4294967295
0.080438077 -0.1141513 0.77999997 4294967295
0.08191774 -0.11415211 0.77999997 4294967295
0.083504356 -0.11429929 0.78100002 4294967295
0.084985986 -0.11430013 0.78100002 4294967295
0.086689107 -0.11459371 0.78299999 4294967295
0.088174641 -0.1145946 0.78299999 4294967295
0.089889228 -0.11488819 0.78500003 4294967295
0.091378644 -0.11488909 0.78500003 4294967295
0.092868105 -0.11489002 0.78500003 4294967295
0.09459801 -0.11518365 0.787 4294967295
0.096335553 -0.11547729 0.78899997 4294967295
0.098204739 -0.11591735 0.792 4294967295
0.10021126 -0.11650379 0.796 4294967295
0.10172184 -0.11650477 0.796 4294967295
0.10349183 -0.11679847 0.79799998 4294967295
0.10500631 -0.1167995 0.79799998 4294967295
0.10652084 -0.11680052 0.79799998 4294967295
0.10830621 -0.11709428 0.80000001 4294967295
0.10982462 -0.11709535 0.80000001 4294508543
0.11134312 -0.1170964 0.80000001 4285299079
0.0005968216 -0.11597422 0.80299997 4294967295
0.002118919 -0.11597411 0.80299997 4294967295
0.0036274095 -0.11554072 0.80000001 4294967294
0.0051309536 -0.1152518 0.79799998 4294967294
0.0066269152 -0.11496288 0.796 4294967295
0.0081357332 -0.11496285 0.796 4294967295
0.009596087 -0.11438511 0.792 4294967295
0.011069302 -0.11409626 0.79000002 4294967295
0.012550844 -0.11395185 0.78899997 4294967295
0.014046401 -0.11395188 0.78899997 4294967295
0.015502565 -0.11366308 0.787 4294967295
0.016951153 -0.11337431 0.78500003 4294967295
0.018439146 -0.11337442 0.78500003 4294967295
0.019876374 -0.11308566 0.78299999 4294967295
0.021360587 -0.11308578 0.78299999 4294967295
0.022786463 -0.1127971 0.78100002 4294967295
0.02423583 -0.11265282 0.77999997 4294967295
0.025714388 -0.11265301 0.77999997 4294967295
0.027192958 -0.1126532 0.77999997 4294967295
0.028598024 -0.11236459 0.778 4294967295
0.029995531 -0.11207598 0.77600002 4294967295
0.031466555 -0.11207624 0.77600002 4294967295
0.032937605 -0.11207651 0.77600002 4294967295
0.034408666 -0.1120768 0.77600002 4294967295
0.035787273 -0.11178825 0.77399999 4294967295
0.037254579 -0.11178856 0.77399999 4294967295
0.038721908 -0.11178894 0.77399999 4294967295
0.040189255 -0.11178929 0.77399999 4294967295
0.041602805 -0.11164525 0.773 4294967295
0.043068297 -0.11164563 0.773 4294967295
0.044533819 -0.11164606 0.773 4294967295
0.045999363 -0.1116465 0.773 4294967295
0.047464926 -0.11164694 0.773 4294967295
0.04893053 -0.11164743 0.773 4294967295
0.050265763 -0.11135904 0.77100003 4294967295
0.051727608 -0.11135953 0.77100003 4294967295
0.053189486 -0.11136004 0.77100003 4294967295
0.054651402 -0.11136056 0.77100003 4294967295
0.05611334 -0.11136112 0.77100003 4294967295
0.057575323 -0.11136169 0.77100003 4294967295
0.059037324 -0.11136229 0.77100003 4294967295
0.060499359 -0.11136286 0.77100003 4294967295
0.062122162 -0.11165237 0.773 4294967295
0.063588068 -0.11165299 0.773 4294967295
0.065053992 -0.11165363 0.773 4294967295
0.066606015 -0.11179873 0.77399999 4294967295
0.068249822 -0.11208831 0.77600002 4294967295
0.06972155 -0.11208899 0.77600002 4294967295
0.071193323 -0.11208971 0.77600002 4294967295
0.072665125 -0.11209044 0.77600002 4294967295
0.074136965 -0.11209115 0.77600002 4294967295
0.075803727 -0.11238081 0.778 4294967295
0.077279449 -0.11238158 0.778 4294967295
0.078755215 -0.11238235 0.778 4294967295
0.080231026 -0.11238315 0.778 4294967295
0.081706867 -0.11238395 0.778 4294967295
0.083396591 -0.1126737 0.77999997 4294967295
0.084876321 -0.11267453 0.77999997 4294967295
0.086466812 -0.11281982 0.78100002 4294967295
0.088173755 -0.11310962 0.78299999 4294967295
0.089659311 -0.11311048 0.78299999 4294967295
0.091144919 -0.11311138 0.78299999 4294967295
0.09263058 -0.11311228 0.78299999 4294967295
0.094356678 -0.11340214 0.78500003 4294967295
0.096090414 -0.11369199 0.787 4294967295
0.097831786 -0.11398184 0.78899997 4294967295
0.099706687 -0.1144162 0.792 4294967295
0.10146528 -0.11470611 0.79400003 4294967295
0.10323147 -0.11499602 0.796 4294967295
0.1050053 -0.11528594 0.79799998 4294967295
0.10651983 -0.11528698 0.79799998 4294967295
0.10830517 -0.11557694 0.80000001 4294967295
0.10982358 -0.11557799 0.80000001 4294967295
0.11134207 -0.11557903 0.80000001 4293454826
0.11286058 -0.11558007 0.80000001 4285108673
0.11437917 -0.11558113 0.80000001 4278190127
0.1158978 -0.11558219 0.80000001 4278190080
-0.00092743564 -0.11473688 0.80500001 4294967295
0.00059695129 -0.11445168 0.80299997 4294967295
0.0021190292 -0.11445156 0.80299997 4294967294
0.0036274993 -0.11402388 0.80000001 4294967294
0.0051310249 -0.11373873 0.79799998 4294967295
0.0066269655 -0.11345363 0.796 4294967295
0.0081357649 -0.11345357 0.796 4294967295
0.009571868 -0.11259838 0.79000002 4294967295
0.011055283 -0.11245583 0.78899997 4294967295
0.012519003 -0.1121708 0.787 4294967295
0.014010753 -0.11217085 0.787 4294967295
0.015463107 -0.11188582 0.78500003 4294967295
0.016951073 -0.11188591 0.78500003 4294967295
0.018392066 -0.11160093 0.78299999 4294967295
0.019876253 -0.11160103 0.78299999 4294967295
0.021305891 -0.11131611 0.78100002 4294967295
0.022786306 -0.11131626 0.78100002 4294967295
0.024235655 -0.11117388 0.77999997 4294967295
0.025648262 -0.11088901 0.778 4294967295
0.027123028 -0.1108892 0.778 4294967295
0.028597794 -0.11088943 0.778 4294967295
0.029995285 -0.11060462 0.77600002 4294967295
0.031466294 -0.11060486 0.77600002 4294967295
0.032937326 -0.11060513 0.77600002 4294967295
0.034408364 -0.11060543 0.77600002 4294967295
0.035786953 -0.11032066 0.77399999 4294967295
0.037254244 -0.11032099 0.77399999 4294967295
0.038721554 -0.11032133 0.77399999 4294967295
0.040136956 -0.11017914 0.773 4294967295
0.041602414 -0.11017954 0.773 4294967295
0.043067891 -0.11017992 0.773 4294967295
0.044533391 -0.11018033 0.773 4294967295
0.045998927 -0.11018078 0.773 4294967295
0.047341667 -0.10989613 0.77100003 4294967295
0.048803456 -0.10989662 0.77100003 4294967295
0.050134882 -0.109612 0.76899999 4294967295
0.051592924 -0.10961249 0.76899999 4294967295
0.053050987 -0.109613 0.76899999 4294967295
0.054509096 -0.10961352 0.76899999 4294967295
0.055967234 -0.10961407 0.76899999 4294967295
0.057425402 -0.10961463 0.76899999 4294967295
0.058883589 -0.10961519 0.76899999 4294967295
0.06034182 -0.10961577 0.76899999 4294967295
0.06196082 -0.10990147 0.77100003 4294967295
0.063587427 -0.11018718 0.773 4294967295
0.065053344 -0.11018781 0.773 4294967295
0.066605352 -0.11033101 0.77399999 4294967295
0.068073228 -0.11033166 0.77399999 4294967295
0.069720849 -0.11061746 0.77600002 4294967295
0.071192607 -0.11061818 0.77600002 4294967295
0.072664395 -0.11061887 0.77600002 4294967295
0.074136242 -0.11061962 0.77600002 4294967295
0.075608112 -0.11062035 0.77600002 4294967295
0.077080019 -0.11062109 0.77600002 4294967295
0.078754425 -0.11090697 0.778 4294967295
0.080230229 -0.11090776 0.778 4294967295
0.081706062 -0.11090858 0.778 4294967295
0.08318194 -0.11090938 0.778 4294967295
0.084875487 -0.11119533 0.77999997 4294967295
0.086355254 -0.11119615 0.77999997 4294967295
0.087947667 -0.11133956 0.78100002 4294967295
0.089429423 -0.11134044 0.78100002 4294967295
0.091144025 -0.11162643 0.78299999 4294967295
0.092629671 -0.11162733 0.78299999 4294967295
0.094355755 -0.11191336 0.78500003 4294967295
0.09584529 -0.11191428 0.78500003 4294967295
0.097582877 -0.11220035 0.787 4294967295
0.099328056 -0.11248641 0.78899997 4294967295
0.10095315 -0.11262995 0.79000002 4294967295
0.10271174 -0.11291604 0.792 4294967295
0.10474114 -0.11348733 0.796 4294967295
0.10651882 -0.11377347 0.79799998 4294967295
0.10803338 -0.11377448 0.79799998 4294967295
0.109548 -0.1137755 0.79799998 4294967295
0.11134104 -0.11406168 0.80000001 4294967295
0.11285955 -0.11406273 0.80000001 4291353855
0.11437811 -0.11406376 0.80000001 4279642709
0.11589672 -0.11406481 0.80000001 4278190092
0.11814927 -0.1147788 0.80500001 4278190084
-0.0024653384 -0.11377329 0.80900002 4294967295
-0.00092728809 -0.11321061 0.80500001 4294967295
0.0005970794 -0.1129292 0.80299997 4294967293
0.0021191374 -0.11292906 0.80299997 4294967291
0.0036185195 -0.1122258 0.79799998 4294967294
0.0051182345 -0.11194447 0.796 4294967295
0.0066103661 -0.11166313 0.79400003 4294967295
0.0080744727 -0.11110057 0.79000002 4294967295
0.0095718782 -0.11110052 0.79000002 4294967295
0.011027254 -0.11067864 0.787 4294967295
0.01251898 -0.11067865 0.787 4294967295
0.013975102 -0.11039741 0.78500003 4294967295
0.015423649 -0.11011621 0.78299999 4294967295
0.016907804 -0.11011627 0.78299999 4294967295
0.018391967 -0.11011636 0.78299999 4294967295
0.019825365 -0.10983519 0.78100002 4294967295
0.021278476 -0.1096947 0.77999997 4294967295
0.022756973 -0.10969484 0.77999997 4294967295
0.024173344 -0.10941373 0.778 4294967295
0.025582142 -0.10913265 0.77600002 4294967295
0.027053092 -0.10913286 0.77600002 4294967295
0.02852406 -0.10913306 0.77600002 4294967295
0.029995035 -0.10913328 0.77600002 4294967295
0.031466033 -0.10913355 0.77600002 4294967295
0.032937042 -0.10913382 0.77600002 4294967295
0.034408066 -0.10913409 0.77600002 4294967295
0.035786636 -0.1088531 0.77399999 4294967295
0.037253916 -0.10885344 0.77399999 4294967295
0.038671177 -0.10871315 0.773 4294967295
0.040136598 -0.1087135 0.773 4294967295
0.04160203 -0.10871386 0.773 4294967295
0.043067496 -0.10871426 0.773 4294967295
0.044417765 -0.1084334 0.77100003 4294967295
0.045879476 -0.10843379 0.77100003 4294967295
0.047341216 -0.10843424 0.77100003 4294967295
0.048676394 -0.10815343 0.76899999 4294967295
0.050134387 -0.10815388 0.76899999 4294967295
0.051592425 -0.10815436 0.76899999 4294967295
0.053050477 -0.10815487 0.76899999 4294967295
0.054508567 -0.10815539 0.76899999 4294967295
0.055966683 -0.10815592 0.76899999 4294967295
0.057424836 -0.10815647 0.76899999 4294967295
0.058729876 -0.10787574 0.76700002 4294967295
0.060184296 -0.10787633 0.76700002 4294967295
0.061960213 -0.10843951 0.77100003 4294967295
0.063422285 -0.10844012 0.77100003 4294967295
0.064884402 -0.10844076 0.77100003 4294967295
0.066346534 -0.10844139 0.77100003 4294967295
0.067808717 -0.10844204 0.77100003 4294967295
0.069450624 -0.10872402 0.773 4294967295
0.070916675 -0.10872471 0.773 4294967295
0.072382763 -0.10872543 0.773 4294967295
0.073848896 -0.10872613 0.773 4294967295
0.075412497 -0.10886752 0.77399999 4294967295
0.076781273 -0.1087276 0.773 4294967295
0.078247532 -0.10872836 0.773 4294967295
0.080023192 -0.1091511 0.77600002 4294967295
0.081495225 -0.10915191 0.77600002 4294967295
0.082967296 -0.1091527 0.77600002 4294967295
0.084657028 -0.10943481 0.778 4294967295
0.086132996 -0.10943565 0.778 4294967295
0.087834202 -0.10971781 0.77999997 4294967295
0.089428566 -0.10985935 0.78100002 4294967295
0.090910345 -0.1098602 0.78100002 4294967295
0.092628777 -0.1101424 0.78299999 4294967295
0.094114453 -0.1101433 0.78299999 4294967295
0.095600195 -0.11014423 0.78299999 4294967295
0.09733396 -0.11042647 0.78500003 4294967295
0.09907534 -0.11070874 0.787 4294967295
0.10056882 -0.11070968 0.787 4294967295
0.1024514 -0.11113266 0.79000002 4294967295
0.104477 -0.11169633 0.79400003 4294967295
0.10625086 -0.11197865 0.796 4294967295
0.1077616 -0.11197964 0.796 4294967295
0.10954697 -0.112262 0.79799998 4294967295
0.11106165 -0.11226303 0.79799998 4294967295
0.1128585 -0.11254541 0.80000001 4294967295
0.11437706 -0.11254644 0.80000001 4288717989
0.11618543 -0.11282885 0.80199999 4278200662
0.11814821 -0.11325196 0.80500001 4278190383
0.11967643 -0.11325303 0.80500001 4278190080
-0.0039887181 -0.11196217 0.80699998 4294967295
-0.0024529838 -0.11168453 0.80500001 4294967295
-0.00092483894 -0.11140688 0.80299997 4294967295
0.0005972056 -0.11140674 0.80299997 4294967292
0.0021060493 -0.11071292 0.79799998 4294967293
0.0036186073 -0.11071283 0.79799998 4294967295
0.0051183035 -0.1104353 0.796 4294967295
0.0065937638 -0.10988028 0.792 4294967295
0.0080642812 -0.10946401 0.78899997 4294967295
0.0095597748 -0.10946401 0.78899997 4294967295
0.010999224 -0.10890906 0.78500003 4294967295
0.01248714 -0.10890908 0.78500003 4294967295
0.013939451 -0.10863163 0.78299999 4294967295
0.015423586 -0.10863169 0.78299999 4294967295
0.016864536 -0.10835428 0.78100002 4294967295
0.01834489 -0.10835437 0.78100002 4294967295
0.019799864 -0.10821572 0.77999997 4294967295
0.021278339 -0.10821585 0.77999997 4294967295
0.022756819 -0.10821599 0.77999997 4294967295
0.024173172 -0.10793869 0.778 4294967295
0.025581952 -0.10766138 0.77600002 4294967295
0.027052887 -0.10766159 0.77600002 4294967295
0.028523834 -0.10766178 0.77600002 4294967295
0.02991749 -0.10738452 0.77399999 4294967295
0.031384677 -0.10738479 0.77399999 4294967295
0.032809436 -0.10724631 0.773 4294967295
0.034274757 -0.1072466 0.773 4294967295
0.035786334 -0.10738564 0.77399999 4294967295
0.037253588 -0.10738595 0.77399999 4294967295
0.03867083 -0.10724753 0.773 4294967295
0.040136229 -0.10724789 0.773 4294967295
0.041494019 -0.10697076 0.77100003 4294967295
0.042955674 -0.10697115 0.77100003 4294967295
0.044302128 -0.10669405 0.76899999 4294967295
0.045760032 -0.10669447 0.76899999 4294967295
0.047095168 -0.10641742 0.76700002 4294967295
0.048549347 -0.10641787 0.76700002 4294967295
0.050003532 -0.10641833 0.76700002 4294967295
0.051457755 -0.10641881 0.76700002 4294967295
0.052912004 -0.1064193 0.76700002 4294967295
0.054295406 -0.10628106 0.76599997 4294967295
0.055747814 -0.10628159 0.76599997 4294967295
0.057274934 -0.10642085 0.76700002 4294967295
0.058729302 -0.10642143 0.76700002 4294967295
0.060183719 -0.10642201 0.76700002 4294967295
0.061798882 -0.10670009 0.76899999 4294967295
0.063421667 -0.1069782 0.77100003 4294967295
0.064883761 -0.10697882 0.77100003 4294967295
0.066345893 -0.10697946 0.77100003 4294967295
0.067808054 -0.10698009 0.77100003 4294967295
0.069270268 -0.10698077 0.77100003 4294967295
0.070732504 -0.10698143 0.77100003 4294967295
0.072194785 -0.10698213 0.77100003 4294967295
0.07365711 -0.10698283 0.77100003 4294967295
0.075314336 -0.10726107 0.773 4294967295
0.076780535 -0.10726181 0.773 4294967295
0.078246772 -0.10726255 0.773 4294967295
0.079816185 -0.10740209 0.77399999 4294967295
0.081284396 -0.10740283 0.77399999 4294967295
0.082966499 -0.10768116 0.77600002 4294967295
0.084438592 -0.10768196 0.77600002 4294967295
0.085910752 -0.10768278 0.77600002 4294967295
0.087833375 -0.10823867 0.77999997 4294967295
0.089313194 -0.10823952 0.77999997 4294967295
0.090909481 -0.10837914 0.78100002 4294967295
0.09239132 -0.10838001 0.78100002 4294967295
0.094113573 -0.10865844 0.78299999 4294967295
0.095599294 -0.10865931 0.78299999 4294967295
0.097333029 -0.10893776 0.78500003 4294967295
0.098822638 -0.10893868 0.78500003 4294967295
0.10056789 -0.10921716 0.787 4294967295
0.10232075 -0.10949565 0.78899997 4294967295
0.1039497 -0.10963539 0.79000002 4294967295
0.10571596 -0.10991391 0.792 4294967295
0.10748989 -0.11019246 0.79400003 4294967295
0.10954598 -0.11074857 0.79799998 4294967295
0.11106063 -0.11074955 0.79799998 4294967295
0.11285748 -0.11102815 0.80000001 4294967295
0.11437605 -0.11102915 0.80000001 4293980400
0.11618438 -0.11130776 0.80199999 4284387516
0.11814715 -0.11172517 0.80500001 4278190122
0.11967538 -0.11172622 0.80500001 4278190080
-0.0039885361 -0.11043219 0.80699998 4294967292
-0.0024528217 -0.11015836 0.80500001 4294967294
-0.00092469546 -0.1098845 0.80299997 4294967037
0.00059658638 -0.10974753 0.80199999 4294967294
0.0021061543 -0.10920005 0.79799998 4294967295
0.0036096245 -0.10892627 0.796 4294967295
0.0051055108 -0.10865252 0.79400003 4294967295
0.0065938132 -0.10837877 0.792 4294967295
0.008064311 -0.10796819 0.78899997 4294967295
0.0095355548 -0.10769448 0.787 4294967295
0.010999217 -0.10742079 0.78500003 4294967295
0.012455299 -0.10714713 0.78299999 4294967295
0.01393941 -0.10714716 0.78299999 4294967295
0.015384129 -0.10687354 0.78100002 4294967295
0.01686446 -0.1068736 0.78100002 4294967295
0.018321302 -0.10673685 0.77999997 4294967295
0.01974898 -0.10646327 0.778 4294967295
0.021223648 -0.10646339 0.778 4294967295
0.022639971 -0.10618985 0.77600002 4294967295
0.024110869 -0.10619002 0.77600002 4294967295
0.025581772 -0.10619018 0.77600002 4294967295
0.026982963 -0.10591669 0.77399999 4294967295
0.0284501 -0.10591689 0.77399999 4294967295
0.029917255 -0.10591711 0.77399999 4294967295
0.031384423 -0.10591736 0.77399999 4294967295
0.032724272 -0.10550709 0.77100003 4294967295
0.034185786 -0.10550737 0.77100003 4294967295
0.035647321 -0.10550768 0.77100003 4294967295
0.037108876 -0.10550798 0.77100003 4294967295
0.038670495 -0.10578199 0.773 4294967295
0.040032044 -0.10550866 0.77100003 4294967295
0.041493647 -0.10550901 0.77100003 4294967295
0.042843852 -0.10523569 0.76899999 4294967295
0.044301722 -0.10523608 0.76899999 4294967295
0.04564061 -0.10496281 0.76700002 4294967295
0.047094729 -0.10496321 0.76700002 4294967295
0.048548888 -0.10496365 0.76700002 4294967295
0.049937874 -0.10482726 0.76599997 4294967295
0.051390179 -0.10482772 0.76599997 4294967295
0.05284252 -0.10482822 0.76599997 4294967295
0.054294892 -0.10482871 0.76599997 4294967295
0.055747285 -0.10482923 0.76599997 4294967295
0.057199713 -0.10482976 0.76599997 4294967295
0.058652177 -0.10483032 0.76599997 4294967295
0.060104668 -0.10483088 0.76599997 4294967295
0.061798286 -0.10524201 0.76899999 4294967295
0.063421063 -0.10551633 0.77100003 4294967295
0.064883143 -0.10551695 0.77100003 4294967295
0.066173151 -0.10524385 0.76899999 4294967295
0.067631505 -0.10524448 0.76899999 4294967295
0.069269605 -0.10551888 0.77100003 4294967295
0.070731826 -0.10551953 0.77100003 4294967295
0.072194099 -0.10552023 0.77100003 4294967295
0.073656395 -0.1055209 0.77100003 4294967295
0.075118758 -0.10552161 0.77100003 4294967295
0.076581143 -0.10552233 0.77100003 4294967295
0.07804358 -0.10552307 0.77100003 4294967295
0.079815418 -0.10593441 0.77399999 4294967295
0.081283614 -0.10593517 0.77399999 4294967295
0.082965702 -0.10620969 0.77600002 4294967295
0.084437802 -0.10621047 0.77600002 4294967295
0.085909933 -0.10621128 0.77600002 4294967295
0.087607317 -0.10648583 0.778 4294967295
0.08931236 -0.10676041 0.77999997 4294967295
0.090908617 -0.10689812 0.78100002 4294967295
0.092390448 -0.10689899 0.78100002 4294967295
0.094112687 -0.10717358 0.78299999 4294967295
0.095598392 -0.10717447 0.78299999 4294967295
0.097332127 -0.10744911 0.78500003 4294967295
0.098821737 -0.10745003 0.78500003 4294967295
0.10056695 -0.10772469 0.787 4294967295
0.10206045 -0.10772561 0.787 4294967295
0.10394875 -0.1081372 0.79000002 4294967295
0.10544804 -0.10813814 0.79000002 4294967295
0.10721815 -0.10841288 0.792 4294967295
0.10927043 -0.10896139 0.796 4294967295
0.11105965 -0.10923616 0.79799998 4294967295
0.11257432 -0.10923714 0.79799998 4294967295
0.11437501 -0.10951193 0.80000001 4294967295
0.11618337 -0.10978673 0.80199999 4292602367
0.11814611 -0.11019842 0.80500001 4278786096
0.11967432 -0.11019946 0.80500001 4278190100
-0.005504292 -0.10863256 0.80500001 4294967295
-0.0039784722 -0.10863237 0.80500001 4294967295
-0.0024465674 -0.10836229 0.80299997 4294966267
-0.00092340284 -0.10822721 0.80199999 4294967294
0.00059522106 -0.10795718 0.80000001 4294967293
0.0021062582 -0.10768718 0.79799998 4294967295
0.0036006402 -0.10714731 0.79400003 4294967295
0.0050798566 -0.10660744 0.79000002 4294967295
0.0065688849 -0.10647244 0.78899997 4294967295
0.0080439001 -0.10620251 0.787 4294967295
0.009511333 -0.10593259 0.78500003 4294967295
0.010971188 -0.1056627 0.78299999 4294967295
0.012423462 -0.10539283 0.78100002 4294967295
0.013903765 -0.10539287 0.78100002 4294967295
0.015364369 -0.10525795 0.77999997 4294967295
0.016842788 -0.10525803 0.77999997 4294967295
0.018227255 -0.10471833 0.77600002 4294967295
0.019698102 -0.10471844 0.77600002 4294967295
0.021168958 -0.10471854 0.77600002 4294967295
0.022639826 -0.1047187 0.77600002 4294967295
0.024110703 -0.10471886 0.77600002 4294967295
0.025515651 -0.10444911 0.77399999 4294967295
0.026982758 -0.1044493 0.77399999 4294967295
0.02844988 -0.1044495 0.77399999 4294967295
0.029917018 -0.10444974 0.77399999 4294967295
0.031343624 -0.10431502 0.773 4294967295
0.032724012 -0.10404539 0.77100003 4294967295
0.034185503 -0.10404566 0.77100003 4294967295
0.035554551 -0.10377605 0.76899999 4294967295
0.03701229 -0.10377634 0.76899999 4294967295
0.038470063 -0.10377669 0.76899999 4294967295
0.040031683 -0.10404691 0.77100003 4294967295
0.041493282 -0.10404728 0.77100003 4294967295
0.042843472 -0.10377774 0.76899999 4294967295
0.044186112 -0.10350823 0.76700002 4294967295
0.045640197 -0.10350864 0.76700002 4294967295
0.047094304 -0.10350905 0.76700002 4294967295
0.048548441 -0.10350949 0.76700002 4294967295
0.049937416 -0.10337497 0.76599997 4294967295
0.051389709 -0.10337543 0.76599997 4294967295
0.052842028 -0.10337592 0.76599997 4294967295
0.054294378 -0.10337641 0.76599997 4294967295
0.055746771 -0.10337692 0.76599997 4294967295
0.057199184 -0.10337745 0.76599997 4294967295
0.058651622 -0.10337798 0.76599997 4294967295
0.060104109 -0.10337856 0.76599997 4294967295
0.061636988 -0.10351407 0.76700002 4294967295
0.063255958 -0.10378458 0.76899999 4294967295
0.064714216 -0.10378516 0.76899999 4294967295
0.066172525 -0.10378578 0.76899999 4294967295
0.067630865 -0.10378642 0.76899999 4294967295
0.069089256 -0.10378706 0.76899999 4294967295
0.070547678 -0.10378772 0.76899999 4294967295
0.072006129 -0.10378838 0.76899999 4294967295
0.073464639 -0.10378906 0.76899999 4294967295
0.07492318 -0.10378976 0.76899999 4294967295
0.07658042 -0.10406041 0.77100003 4294967295
0.078042842 -0.10406113 0.77100003 4294967295
0.079505309 -0.10406188 0.77100003 4294967295
0.080967814 -0.10406262 0.77100003 4294967295
0.082751095 -0.10446829 0.77399999 4294967295
0.084219374 -0.10446907 0.77399999 4294967295
0.085909128 -0.10473981 0.77600002 4294967295
0.087381303 -0.10474061 0.77600002 4294967295
