# .PCD v0.7 - Point Cloud Data file format
VERSION 0.7
FIELDS x y z rgba
SIZE 4 4 4 4
TYPE F F F U
COUNT 1 1 1 1
WIDTH 1052
HEIGHT 1
VIEWPOINT 0 0 0 1 0 0 0
POINTS 1052
DATA ascii
-0.14423412 0.0057379934 0.63 4293780697
-0.14303486 0.0057372288 0.63 4293649370
-0.14161052 0.0057273642 0.62900001 4293846750
-0.14041328 0.0057266112 0.62900001 4293780956
-0.13921608 0.0057258634 0.62900001 4293715163
-0.13801895 0.0057251211 0.62900001 4293780445
-0.1368219 0.0057243854 0.62900001 4293780445
-0.1356249 0.0057236543 0.62900001 4293715165
-0.13442793 0.0057229283 0.62900001 4293780958
-0.13323106 0.0057222084 0.62900001 4293780958
-0.13203424 0.0057214946 0.62900001 4293649116
-0.13062946 0.0057116919 0.62800002 4293583062
-0.12922856 0.0057018944 0.62699997 4293780697
-0.12803572 0.0057011996 0.62699997 4293780443
-0.12684298 0.00570051 0.62699997 4293846236
-0.12565029 0.0056998259 0.62699997 4293780445
-0.12465616 0.0057082386 0.62800002 4293780445
-0.12346167 0.0057075643 0.62800002 4293846752
-0.12226725 0.005706897 0.62800002 4293780958
-0.1210729 0.0057062344 0.62800002 4293846490
-0.1200695 0.0057146638 0.62900001 4293977820
-0.1188734 0.0057140118 0.62900001 4293977822
-0.11749025 0.0057042828 0.62800002 4294109408
-0.11629616 0.0057036448 0.62800002 4294109667
-0.11510214 0.0057030125 0.62800002 4294109667
-0.11390817 0.0057023843 0.62800002 4294044644
-0.11271428 0.0057017631 0.62800002 4294044644
-0.11152045 0.0057011484 0.62800002 4294109667
-0.11032667 0.0057005389 0.62800002 4294109667
-0.10913294 0.0056999349 0.62800002 4293846754
-0.10811119 0.0057084127 0.62900001 4294109669
-0.10691571 0.0057078199 0.62900001 4294175462
-0.10555223 0.0056981607 0.62800002 4294109669
-0.10435876 0.0056975805 0.62800002 4294109669
-0.10316537 0.0056970068 0.62800002 4294109669
-0.10213442 0.0057055107 0.62900001 4293978338
-0.10093925 0.0057049477 0.62900001 4294175716
-0.099744156 0.0057043927 0.62900001 4294044644
-0.09854912 0.0057038418 0.62900001 4293978851
-0.09750893 0.0057123657 0.63 4293913060
-0.096464984 0.0057208925 0.63099998 4293978853
-0.095266335 0.0057203588 0.63099998 4294044646
-0.094067752 0.0057198317 0.63099998 4294110439
-0.093016401 0.0057283747 0.63200003 4293913058
-0.092106603 0.0057459855 0.634 4293913058
-0.090902492 0.0057454742 0.634 4293978851
-0.089839928 0.0057540308 0.63499999 4294044644
-0.088773623 0.0057625915 0.63599998 4294175716
-0.087565914 0.0057620974 0.63599998 4294109667
-0.086358242 0.0057616108 0.63599998 4293912547
-0.085150644 0.0057611293 0.63599998 4294109669
-0.083943099 0.0057606548 0.63599998 4293912545
-0.082735628 0.0057601868 0.63599998 4293978338
-0.081528187 0.0057597244 0.63599998 4293913060
-0.080573425 0.0057773804 0.63800001 4293978853
-0.079611085 0.0057950383 0.63999999 4293978853
-0.078396246 0.0057945931 0.63999999 4293978853
-0.077302046 0.0058032069 0.64099997 4293913058
-0.076204121 0.0058118277 0.64200002 4293913058
-0.075452842 0.0058476073 0.64600003 4293978853
-0.074226834 0.0058471845 0.64600003 4293978853
-0.073000878 0.0058467672 0.64600003 4293913060
-0.071774967 0.0058463565 0.64600003 4293847267
-0.07054913 0.0058459542 0.64600003 4293912547
-0.069323324 0.0058455556 0.64600003 4293912547
-0.068308413 0.0058632628 0.648 4293846752
-0.067078911 0.0058628763 0.648 4293912545
-0.065951101 0.0058715455 0.64899999 4293847004
-0.064819537 0.0058802199 0.64999998 4293847004
-0.063586406 0.0058798529 0.64999998 4293715934
-0.062641121 0.0059066308 0.653 4293715934
-0.061496422 0.0059153209 0.65399998 4293649888
-0.060347978 0.0059240167 0.65499997 4293584095
-0.059286032 0.0059417626 0.65700001 4293584347
-0.058216549 0.0059595127 0.65899998 4293518554
-0.057139523 0.0059772688 0.66100001 4293320405
-0.05605495 0.0059950291 0.66299999 4293386199
-0.055128139 0.0060308781 0.667 4293386199
-0.054266967 0.0060757711 0.67199999 4293254612
-0.053150285 0.0060935444 0.67400002 4293123796
-0.051949106 0.0061022821 0.67500001 4292992210
-0.050669119 0.0061019869 0.67500001 4292794834
-0.049462326 0.0061107371 0.676 4292926163
-0.048180521 0.0061104549 0.676 4293713365
-0.18072392 0.00726313 0.65799999 4290822088
-0.17947008 0.0072621764 0.65799999 4291412145
-0.17794544 0.0072501907 0.65700001 4292135868
-0.17427312 0.0071499432 0.648 4292398022
-0.17277144 0.0071379859 0.64700001 4292661195
-0.17127359 0.0071260352 0.64600003 4292661708
-0.1695164 0.0071030636 0.64399999 4292793550
-0.16828948 0.0071021584 0.64399999 4292793550
-0.16680324 0.0070902319 0.64300001 4293056466
-0.16532081 0.0070783137 0.64200002 4292990924
-0.16384225 0.0070664017 0.64099997 4293056718
-0.16236755 0.0070544984 0.63999999 4293188558
-0.16114855 0.0070536248 0.63999999 4293188558
-0.15942977 0.0070307166 0.63800001 4293188306
-0.15821466 0.0070298556 0.63800001 4293385685
-0.15675351 0.0070179831 0.63700002 4293320146
-0.15529621 0.0070061176 0.63599998 4293517269
-0.15408505 0.0070052757 0.63599998 4293253847
-0.15263359 0.0069934241 0.63499999 4293253847
-0.15142445 0.0069925939 0.63499999 4293517269
-0.14997883 0.0069807577 0.634 4293517269
-0.14830239 0.0069579212 0.63200003 4293517269
-0.14709915 0.0069571105 0.63200003 4293583062
-0.14566509 0.0069452967 0.63099998 4293714648
-0.14446387 0.0069444985 0.63099998 4293714648
-0.14303562 0.0069327005 0.63 4293714650
-0.1418364 0.0069319145 0.63 4293977822
-0.14063726 0.0069311322 0.63 4293715163
-0.13921684 0.0069193575 0.62900001 4293649370
-0.13801971 0.0069185882 0.62900001 4293518302
-0.13682264 0.006917825 0.62900001 4293518302
-0.13562563 0.0069170673 0.62900001 4293518302
-0.13442869 0.0069163148 0.62900001 4293584095
-0.13323177 0.0069155679 0.62900001 4293584093
-0.13203496 0.0069148266 0.62900001 4293452507
-0.13063018 0.0069030994 0.62800002 4293517789
-0.12922928 0.0068913791 0.62699997 4293780704
-0.12803644 0.0068906583 0.62699997 4293780445
-0.12684366 0.0068899416 0.62699997 4293780445
-0.12565097 0.0068892315 0.62699997 4293780191
-0.12465684 0.0068995147 0.62800002 4293714398
-0.12346236 0.0068988148 0.62800002 4293714911
-0.12226793 0.0068981205 0.62800002 4293780704
-0.12107358 0.0068974332 0.62800002 4293780958
-0.12007019 0.0069077341 0.62900001 4293912545
-0.11887405 0.0069070561 0.62900001 4293847263
-0.1174909 0.0068954043 0.62800002 4293913056
-0.11629682 0.0068947412 0.62800002 4293978851
-0.11510277 0.0068940818 0.62800002 4294110693
-0.11390883 0.0068934304 0.62800002 4293978853
-0.11271489 0.0068927836 0.62800002 4293913060
-0.11152107 0.0068921433 0.62800002 4293912547
-0.11032729 0.0068915086 0.62800002 4293912547
-0.10913357 0.0068908809 0.62800002 4293978340
-0.10811179 0.0069012311 0.62900001 4293978340
-0.10691632 0.0069006141 0.62900001 4293912806
-0.10572089 0.0069000032 0.62900001 4293978599
-0.10452552 0.0068993978 0.62900001 4293978340
-0.10333022 0.0068987999 0.62900001 4293978340
-0.102135 0.0068982076 0.62900001 4293978338
-0.10093983 0.0068976213 0.62900001 4294109667
-0.099744722 0.0068970411 0.62900001 4293913058
-0.098549679 0.0068964683 0.62900001 4293913058
-0.097509474 0.0069068642 0.63 4293848035
-0.096465535 0.0069172648 0.63099998 4293782242
-0.095266886 0.0069167088 0.63099998 4293978592
-0.094068281 0.0069161588 0.63099998 4294109921
-0.093016937 0.0069265752 0.63200003 4294109667
-0.092107125 0.0069479542 0.634 4293912545
-0.090903014 0.006947421 0.634 4293978851
-0.089840442 0.0069578514 0.63499999 4294044644
-0.088774145 0.0069682868 0.63599998 4293978851
-0.087566428 0.0069677723 0.63599998 4293913058
-0.086358733 0.0069672619 0.63599998 4293912806
-0.085418902 0.0069886683 0.63800001 4293912806
-0.084207572 0.0069881715 0.63800001 4293912547
-0.082996279 0.0069876807 0.63800001 4293912547
-0.081785046 0.0069871964 0.63800001 4293847267
-0.080826454 0.0070086196 0.63999999 4293978853
-0.07961154 0.0070081484 0.63999999 4293979103
-0.078519188 0.0070186323 0.64099997 4293979103
-0.077302493 0.0070181726 0.64099997 4293979103
-0.076323256 0.0070396159 0.64300001 4293979103
-0.075453274 0.0070720105 0.64600003 4294109921
-0.074227273 0.0070715686 0.64600003 4294109921
-0.073001303 0.0070711328 0.64600003 4293912545
-0.071886502 0.0070816483 0.64700001 4293846752
-0.070658743 0.007081225 0.64700001 4293780704
-0.069431044 0.0070808092 0.64700001 4293780704
-0.0683088 0.0070913429 0.648 4293846752
-0.067182824 0.0071018832 0.64899999 4293912545
-0.0660531 0.0071124281 0.64999998 4293847004
-0.064819917 0.0071120383 0.64999998 4293847004
-0.063586779 0.0071116551 0.64999998 4293781210
-0.062641479 0.0071441 0.653 4293715161
-0.061496783 0.0071546687 0.65399998 4293715163
-0.060624745 0.0071980618 0.65799999 4293518041
-0.059376627 0.0071977023 0.65799999 4293649370
-0.058393572 0.0072301645 0.66100001 4293715163
-0.057226297 0.007240755 0.662 4293386203
-0.056308925 0.0072841635 0.66600001 4293386203
-0.055376425 0.0073275752 0.67000002 4293255637
-0.05426728 0.0073491167 0.67199999 4293189587
-0.053150598 0.0073706647 0.67400002 4293188817
-0.051949419 0.0073812837 0.67500001 4292465351
-0.050669406 0.0073809726 0.67500001 4292530892
-0.04946262 0.0073916051 0.676 4292991443
-0.048180807 0.0073913089 0.676 4293450962
-0.1807249 0.0085124588 0.65799999 4291085004
-0.17947105 0.0085114762 0.65799999 4291541164
-0.17821725 0.0085104993 0.65799999 4292330680
-0.17454302 0.0083931359 0.64899999 4292331716
-0.17277235 0.0083663194 0.64700001 4292792267
-0.17153966 0.0083653731 0.64700001 4292727242
-0.16951731 0.0083256476 0.64399999 4292924364
-0.16829041 0.0083247162 0.64399999 4292924364
-0.16680412 0.0083108628 0.64300001 4292924364
-0.16557923 0.0083099427 0.64300001 4292793546
-0.16384315 0.0082831811 0.64099997 4293056718
-0.16236846 0.0082693528 0.63999999 4293056718
-0.16114946 0.0082684522 0.63999999 4293122511
-0.15993044 0.0082675554 0.63999999 4293122513
-0.15821554 0.008240832 0.63800001 4293188306
-0.15675437 0.0082270326 0.63700002 4292990924
-0.15529707 0.0082132416 0.63599998 4293254097
-0.15408592 0.0082123717 0.63599998 4293254101
-0.15263446 0.0081985965 0.63499999 4293254101
-0.15142532 0.0081977388 0.63499999 4293319894
-0.14997967 0.0081839766 0.634 4293254101
-0.14877254 0.0081831319 0.634 4293122511
-0.14709994 0.0081564784 0.63200003 4293583062
-0.14566588 0.0081427405 0.63099998 4293583062
-0.14446466 0.0081419153 0.63099998 4293583062
-0.14326349 0.0081410948 0.63099998 4293517271
-0.14183721 0.0081273792 0.63 4293648857
-0.14063805 0.0081265708 0.63 4293518041
-0.13943894 0.0081257671 0.63 4293649370
-0.13823992 0.0081249708 0.63 4293518300
-0.13682343 0.0081112841 0.62900001 4293452507
-0.13562641 0.008110499 0.62900001 4293518300
-0.13442944 0.0081097195 0.62900001 4293584093
-0.13302073 0.0080960551 0.62800002 4293584347
-0.13182582 0.0080952896 0.62800002 4293518554
-0.13063094 0.0080945287 0.62800002 4293451994
-0.12923001 0.0080808839 0.62699997 4293715165
-0.12803718 0.008080136 0.62699997 4293780443
-0.1270467 0.0080922805 0.62800002 4293780443
-0.12585211 0.0080915429 0.62800002 4293649116
-0.12465756 0.0080908118 0.62800002 4293649116
-0.12346306 0.0080900853 0.62800002 4293649370
-0.12226864 0.0080893654 0.62800002 4293780956
-0.12107429 0.008088652 0.62800002 4293780958
-0.12007087 0.0081008216 0.62900001 4293912545
-0.11887474 0.0081001204 0.62900001 4293847263
-0.11749159 0.0080865463 0.62800002 4293913056
-0.11629748 0.0080858562 0.62800002 4293913058
-0.11510345 0.0080851736 0.62800002 4294044644
-0.11390946 0.0080844946 0.62800002 4293978853
-0.11271556 0.0080838231 0.62800002 4293913060
-0.11152171 0.0080831591 0.62800002 4293847267
-0.11032794 0.0080825007 0.62800002 4293913060
-0.1091342 0.0080818459 0.62800002 4293978853
-0.10811242 0.0080940686 0.62900001 4293913060
-0.10691693 0.008093426 0.62900001 4293780704
-0.1057215 0.0080927908 0.62900001 4293912547
-0.10452613 0.0080921631 0.62900001 4293978340
-0.10333084 0.008091541 0.62900001 4293978340
-0.10213561 0.0080909254 0.62900001 4293780958
-0.10094043 0.0080903154 0.62900001 4293978338
-0.099745318 0.0080897119 0.62900001 4293913058
-0.098550268 0.0080891149 0.62900001 4293913058
-0.097510055 0.0081013842 0.63 4293978851
-0.096466109 0.0081136571 0.63099998 4293978851
-0.095267437 0.0081130788 0.63099998 4294109921
-0.094217926 0.0081253629 0.63200003 4294175714
-0.093311854 0.0081505068 0.634 4294175462
-0.092107683 0.0081499461 0.634 4294109669
-0.091046937 0.0081622433 0.63499999 4293715682
-0.089840978 0.0081616938 0.63499999 4293913060
-0.088774674 0.0081740031 0.63599998 4293913056
-0.087566935 0.0081734648 0.63599998 4293847263
-0.086359255 0.0081729349 0.63599998 4293913060
-0.085419431 0.0081981113 0.63800001 4293847267
-0.084208064 0.0081975926 0.63800001 4293847265
-0.082996763 0.0081970803 0.63800001 4293715936
-0.082041919 0.0082222708 0.63999999 4293715936
-0.080826946 0.0082217706 0.63999999 4293847265
-0.079736419 0.0082341246 0.64099997 4293847263
-0.078519665 0.0082336385 0.64099997 4293847263
-0.077423558 0.0082460027 0.64200002 4293715936
-0.076323718 0.0082583744 0.64300001 4293715936
-0.075453743 0.0082964348 0.64600003 4293847265
-0.074227713 0.0082959719 0.64600003 4293913058
-0.073001735 0.0082955165 0.64600003 4293780958
-0.071886942 0.0083079115 0.64700001 4293780958
-0.070659176 0.0083074691 0.64700001 4293846752
-0.069538765 0.0083198724 0.648 4293846752
-0.068309218 0.0083194459 0.648 4293715163
-0.067183234 0.0083318623 0.64899999 4293780956
-0.066256747 0.0083699599 0.65200001 4293847004
-0.065019757 0.008369551 0.65200001 4293715161
-0.063782826 0.0083691496 0.65200001 4293320405
-0.062641859 0.0083815893 0.653 4293386199
-0.061497148 0.0083940374 0.65399998 4293452248
-0.060717247 0.0084578292 0.65899998 4293386199
-0.059467223 0.0084574521 0.65899998 4293320405
-0.058393929 0.0084827496 0.66100001 4293386199
-0.057745323 0.0085722152 0.66799998 4293320405
-0.056647465 0.0085975211 0.67000002 4293320405
-0.055459414 0.0086099999 0.671 4293189589
-0.054267623 0.0086224852 0.67199999 4293123796
-0.053150922 0.0086478079 0.67400002 4292991695
-0.051949739 0.0086603072 0.67500001 4292596937
-0.050744791 0.0086728111 0.676 4292858571
-0.049462933 0.0086724944 0.676 4293384915
-0.18154985 0.0098063136 0.66100001 4292203739
-0.17974477 0.0097756311 0.65899998 4291017662
-0.17821822 0.0097597931 0.65799999 4291544006
-0.17454398 0.0096253157 0.64899999 4292265669
-0.17304039 0.0096095037 0.648 4292726219
-0.1715406 0.009593701 0.64700001 4292661447
-0.17004474 0.0095779058 0.64600003 4292858569
-0.16829135 0.0095472932 0.64399999 4292924618
-0.16680509 0.0095315138 0.64300001 4292924618
-0.16558017 0.0095305648 0.64300001 4292793548
-0.16384408 0.0094999811 0.64099997 4292990670
-0.16262305 0.0094990451 0.64099997 4293056204
-0.16140214 0.0094981156 0.64099997 4293056204
-0.15993133 0.0094823744 0.63999999 4293056204
-0.15871239 0.0094814571 0.63999999 4293187791
-0.15675525 0.0094361026 0.63700002 4293187795
-0.15554217 0.0094351992 0.63700002 4293450710
-0.15408678 0.0094194887 0.63599998 4293254099
-0.15263534 0.0094037885 0.63499999 4293188306
-0.15142617 0.0094029019 0.63499999 4293253847
-0.14998052 0.0093872156 0.634 4293253847
-0.14877339 0.009386342 0.634 4293254101
-0.14710081 0.0093558673 0.63200003 4293517017
-0.14589761 0.0093550067 0.63200003 4293517271
-0.14469445 0.0093541527 0.63200003 4293517271
-0.14349134 0.0093533034 0.63200003 4293517017
-0.14206319 0.0093376618 0.63099998 4293582810
-0.14086211 0.0093368255 0.63099998 4293583064
-0.13943975 0.0093211979 0.63 4293714650
-0.13824072 0.0093203736 0.63 4293649370
-0.13682419 0.0093047628 0.62900001 4293649370
-0.1356272 0.0093039516 0.62900001 4293649370
-0.13443023 0.009303146 0.62900001 4293780956
-0.13302152 0.0092875576 0.62800002 4293781210
-0.13182658 0.0092867641 0.62800002 4293847004
-0.13083972 0.0093007637 0.62900001 4293648603
-0.1294369 0.0092851948 0.62800002 4293582810
-0.12824215 0.009284419 0.62800002 4293583064
-0.12724976 0.0092984317 0.62900001 4293648857
-0.12605326 0.009297668 0.62900001 4293648857
-0.1248568 0.009296909 0.62900001 4293648857
-0.12366041 0.0092961565 0.62900001 4293452248
-0.12246408 0.0092954086 0.62900001 4293715163
-0.12126778 0.0092946673 0.62900001 4293977822
-0.1200716 0.0092939334 0.62900001 4293846236
-0.11887546 0.0092932032 0.62900001 4293846490
-0.11767937 0.0092924815 0.62900001 4293977820
-0.11648338 0.0092917653 0.62900001 4293978592
-0.11528742 0.0092910556 0.62900001 4294175714
-0.11409154 0.0092903515 0.62900001 4294044648
-0.11289573 0.009289654 0.62900001 4293978599
-0.1115224 0.0092741949 0.62800002 4293913060
-0.11032861 0.0092735114 0.62800002 4293913060
-0.10913486 0.0092728334 0.62800002 4293913056
-0.10811307 0.0092869261 0.62900001 4293913056
-0.10691759 0.0092862612 0.62900001 4293780704
-0.10572215 0.0092856027 0.62900001 4293780704
-0.10452678 0.0092849489 0.62900001 4293912545
-0.10333146 0.0092843017 0.62900001 4293978338
-0.10213621 0.0092836618 0.62900001 4293912797
-0.10094103 0.0092830304 0.62900001 4293847004
-0.099745937 0.0092824036 0.62900001 4293846752
-0.098707534 0.0092965392 0.63 4293846752
-0.097510651 0.0092959246 0.63 4293978592
-0.096466713 0.0093100714 0.63099998 4294175714
-0.095268026 0.0093094697 0.63099998 4294109921
-0.094069429 0.0093088737 0.63099998 4294241507
-0.09331242 0.0093525415 0.634 4294175462
-0.092253521 0.0093667069 0.63499999 4293978340
-0.091047503 0.0093661286 0.63499999 4293847267
-0.08984153 0.0093655558 0.63499999 4293913060
-0.088775218 0.0093797389 0.63599998 4293913310
-0.087567486 0.0093791811 0.63599998 4293979103
-0.086495578 0.0093933754 0.63700002 4293913056
-0.085687734 0.0094370665 0.63999999 4293847263
-0.084472559 0.0094365245 0.63999999 4293715936
-0.083257474 0.0094359918 0.63999999 4293452507
-0.082042426 0.0094354628 0.63999999 4293715936
-0.080953747 0.0094496859 0.64099997 4293715936
-0.079736918 0.0094491718 0.64099997 4293715936
-0.078642659 0.0094634062 0.64200002 4293715936
-0.077424042 0.009462907 0.64200002 4293650142
-0.076324195 0.0094771525 0.64300001 4293584093
-0.0752206 0.0094914036 0.64399999 4293847004
-0.074228175 0.0095203985 0.64600003 4293912797
-0.073002197 0.0095199253 0.64600003 4293780445
-0.071887374 0.0095341932 0.64700001 4293714652
-0.070659623 0.009533735 0.64700001 4293780443
-0.069539204 0.009548015 0.648 4293977822
-0.068415068 0.0095623042 0.64899999 4293781210
-0.067287184 0.0095765982 0.64999998 4293781210
-0.066257171 0.0096056303 0.65200001 4293781210
-0.065020166 0.0096052028 0.65200001 4293649368
-0.063881055 0.0096195163 0.653 4293451996
-0.062738188 0.0096338335 0.65399998 4293386203
-0.061591581 0.0096481591 0.65499997 4293386201
-0.060717635 0.0097066797 0.65899998 4293386201
-0.059467599 0.0097062867 0.65899998 4293517271
-0.058217619 0.0097059021 0.65899998 4293517271
-0.057918582 0.0098675294 0.67000002 4293517269
-0.05664783 0.0098671531 0.67000002 4293385939
-0.055459768 0.0098815113 0.671 4293188817
-0.054267965 0.009895876 0.67199999 4292925902
-0.053230129 0.0099397013 0.67500001 4293056718
-0.051950067 0.009939353 0.67500001 4292727753
-0.050745115 0.0099537382 0.676 4292661960
-0.04946325 0.0099534076 0.676 4293254097
-0.18100154 0.01102791 0.65899998 4293190634
-0.17947306 0.011010137 0.65799999 4291611085
-0.1779484 0.010992376 0.65700001 4291216583
-0.17562076 0.010924431 0.653 4292068544
-0.17304137 0.010839777 0.648 4292463302
-0.17154162 0.010822049 0.64700001 4292463813
-0.1700457 0.010804327 0.64600003 4292727242
-0.168815 0.010803337 0.64600003 4292858569
-0.16706544 0.010768909 0.64399999 4292858569
-0.16558111 0.010751209 0.64300001 4292858571
-0.16410066 0.010733522 0.64200002 4292990157
-0.16262402 0.010715838 0.64099997 4292793546
-0.16140307 0.01071488 0.64099997 4292990924
-0.16043206 0.010730643 0.64200002 4293056204
-0.15896131 0.01071298 0.64099997 4293187791
-0.15700227 0.010661905 0.63800001 4293122513
-0.15554307 0.010644262 0.63700002 4293188306
-0.15408769 0.010626627 0.63599998 4293187793
-0.1528766 0.010625709 0.63599998 4293187793
-0.15142708 0.010608087 0.63499999 4293187795
-0.14998139 0.010590476 0.634 4293384917
-0.14877427 0.010589574 0.634 4293319892
-0.14756717 0.010588679 0.634 4293385685
-0.14636016 0.010587789 0.634 4293385939
-0.14515319 0.010586906 0.634 4293517269
-0.14349222 0.010552632 0.63200003 4293582810
-0.14228918 0.010551761 0.63200003 4293582810
-0.14086294 0.010534201 0.63099998 4293582810
-0.13944061 0.010516651 0.63 4293582810
-0.13824156 0.010515798 0.63 4293517271
-0.13682503 0.010498264 0.62900001 4293583064
-0.13562803 0.010497426 0.62900001 4293517271
-0.13443105 0.010496594 0.62900001 4293648857
-0.13302232 0.01047908 0.62800002 4293780443
-0.13182738 0.010478261 0.62800002 4293846236
-0.13084051 0.010494131 0.62900001 4293582810
-0.1296438 0.010493322 0.62900001 4293582810
-0.12844715 0.010492519 0.62900001 4293583064
-0.12725054 0.010491721 0.62900001 4293648857
-0.12605402 0.010490931 0.62900001 4293714650
-0.12485755 0.010490145 0.62900001 4293714650
-0.12366116 0.010489365 0.62900001 4293452248
-0.12246483 0.010488592 0.62900001 4293846750
-0.12146132 0.010504497 0.63 4293912545
-0.12026323 0.010503738 0.63 4293846752
-0.1188762 0.01048631 0.62900001 4293846236
-0.11768012 0.010485562 0.62900001 4293977822
-0.11648409 0.010484821 0.62900001 4293977568
-0.11528814 0.010484084 0.62900001 4293977568
-0.11409225 0.010483356 0.62900001 4293978340
-0.11289643 0.010482633 0.62900001 4293912547
-0.11170068 0.010481917 0.62900001 4293847267
-0.11050496 0.010481208 0.62900001 4293847267
-0.10930932 0.010480504 0.62900001 4293847263
-0.10811374 0.010479806 0.62900001 4293913056
-0.10691826 0.010479119 0.62900001 4293715936
-0.10572281 0.010478433 0.62900001 4293715936
-0.10452744 0.010477756 0.62900001 4293650142
-0.10333214 0.010477087 0.62900001 4293715936
-0.10213686 0.010476422 0.62900001 4293847263
-0.1009417 0.010475766 0.62900001 4293715934
-0.099746563 0.010475117 0.62900001 4293846752
-0.098708168 0.010491124 0.63 4293846752
-0.097511277 0.010490489 0.63 4293977568
-0.096467316 0.010506507 0.63099998 4293977568
-0.095268637 0.010505881 0.63099998 4293846238
-0.094070025 0.010505265 0.63099998 4294043361
-0.093313023 0.010554599 0.634 4293912547
-0.092254095 0.010570635 0.63499999 4293978340
-0.091048077 0.010570037 0.63499999 4293913060
-0.089842118 0.010569442 0.63499999 4293913060
-0.088775776 0.010585498 0.63599998 4293847263
-0.087705731 0.010601562 0.63700002 4293847263
-0.086631931 0.01061763 0.63800001 4293847265
-0.085688286 0.010650343 0.63999999 4293847265
-0.084473111 0.010649783 0.63999999 4293715936
-0.083258018 0.010649228 0.63999999 4293650142
-0.08217115 0.010665319 0.64099997 4293847265
-0.080954269 0.010664776 0.64099997 4293715936
-0.07986185 0.010680879 0.64200002 4293650142
-0.078643173 0.010680353 0.64200002 4293650142
-0.077545151 0.010696467 0.64300001 4293715936
-0.076324701 0.010695955 0.64300001 4293650142
-0.075221092 0.010712082 0.64399999 4293649370
-0.074228659 0.010744849 0.64600003 4293649370
-0.073002674 0.010744356 0.64600003 4293648857
-0.071887858 0.010760502 0.64700001 4293583064
-0.070660084 0.010760022 0.64700001 4293648857
-0.069539666 0.010776181 0.648 4293780443
-0.068415523 0.010792348 0.64899999 4293715161
-0.067287624 0.010808518 0.64999998 4293649368
-0.066257611 0.010841324 0.65200001 4293386966
-0.065120324 0.010857507 0.653 4293386966
-0.064077131 0.010890323 0.65499997 4293517787
-0.063026398 0.010923145 0.65700001 4293386201
-0.061874088 0.010939346 0.65799999 4293320405
-0.060718037 0.010955554 0.65899998 4293386199
-0.059467997 0.010955146 0.65899998 4293188565
-0.058394697 0.010987991 0.66100001 4293057236
-0.057746071 0.011103954 0.66799998 4293188306
-0.056732763 0.011153433 0.671 4293122513
-0.055460155 0.011153049 0.671 4292925648
-0.054268334 0.011169293 0.67199999 4292925648
-0.053230491 0.011218786 0.67500001 4293056718
-0.051950414 0.011218423 0.67500001 4292727753
-0.0506704 0.011218073 0.67500001 4292596165
-0.18100263 0.012279199 0.65899998 4294243576
-0.17947409 0.012259502 0.65799999 4292663525
-0.17794946 0.012239813 0.65700001 4291018443
-0.17562178 0.012164246 0.653 4291412156
-0.17330942 0.012088696 0.64899999 4291872707
-0.17180775 0.012069042 0.648 4292267206
-0.17030995 0.012049392 0.64700001 4292727757
-0.16881596 0.012029753 0.64600003 4292858823
-0.16706647 0.011991499 0.64399999 4292727494
-0.16583961 0.011990492 0.64399999 4292727242
-0.16435723 0.011970878 0.64300001 4292924364
-0.16287872 0.01195127 0.64200002 4292793548
-0.16165587 0.011950282 0.64200002 4292859341
-0.16043305 0.011949301 0.64200002 4292990924
-0.15896226 0.011929713 0.64099997 4292990924
-0.15749539 0.011910133 0.63999999 4293056204
-0.15578818 0.011871954 0.63800001 4293187791
-0.15408865 0.011833786 0.63599998 4293122765
-0.15287752 0.011832839 0.63599998 4293056716
-0.15142798 0.011813293 0.63499999 4293056466
-0.15021889 0.011812357 0.63499999 4293254101
-0.14900985 0.011811431 0.63499999 4293254099
-0.14780085 0.011810506 0.63499999 4293254099
-0.14636107 0.011790989 0.634 4293319892
-0.1451541 0.011790077 0.634 4293385685
-0.1439472 0.011789171 0.634 4293385687
-0.14229004 0.011751083 0.63200003 4293517017
-0.14108707 0.011750191 0.63200003 4293582810
-0.13966279 0.011730714 0.63099998 4293582810
-0.13824239 0.011711244 0.63 4293517019
-0.13704343 0.011710375 0.63 4293517019
-0.13562886 0.011690921 0.62900001 4293517017
-0.13443188 0.011690062 0.62900001 4293582810
-0.13323496 0.011689208 0.62900001 4293648857
-0.13203812 0.011688359 0.62900001 4293714650
-0.13084134 0.01168752 0.62900001 4293714652
-0.1296446 0.011686683 0.62900001 4293846238
-0.12844798 0.011685856 0.62900001 4293714650
-0.12725136 0.01168503 0.62900001 4293648857
-0.12605484 0.011684213 0.62900001 4293648605
-0.12505685 0.011701975 0.63 4293714398
-0.12385855 0.011701168 0.63 4293649118
-0.12266029 0.011700368 0.63 4293912547
-0.12146213 0.011699575 0.63 4293978340
-0.12026399 0.011698787 0.63 4293780704
-0.11887695 0.011679437 0.62900001 4293846238
-0.11768086 0.011678664 0.62900001 4293977568
-0.11648484 0.011677897 0.62900001 4293780958
-0.11528889 0.011677137 0.62900001 4293780958
-0.11409298 0.011676381 0.62900001 4293846754
-0.11289716 0.011675635 0.62900001 4293846754
-0.1117014 0.011674894 0.62900001 4293846752
-0.11050569 0.011674159 0.62900001 4293846752
-0.10931004 0.01167343 0.62900001 4293912797
-0.10828634 0.011691268 0.63 4293912797
-0.10708893 0.01169055 0.63 4293846752
-0.10589159 0.011689843 0.63 4293780958
-0.1046943 0.01168914 0.63 4293780958
-0.10349707 0.011688445 0.63 4293780958
-0.10229993 0.011687757 0.63 4293780958
-0.10110281 0.011687075 0.63 4293715165
-0.099905796 0.0116864 0.63 4293780443
-0.098708823 0.011685733 0.63 4293977822
-0.097511917 0.011685073 0.63 4293977568
-0.096467949 0.011702965 0.63099998 4293977568
-0.095420249 0.011720863 0.63200003 4293780704
-0.094219737 0.011720224 0.63200003 4293780704
-0.093313634 0.011756676 0.634 4293715682
-0.092399999 0.011793132 0.63599998 4293913060
-0.091192082 0.011792507 0.63599998 4293913058
-0.089984201 0.011791891 0.63599998 4293978851
-0.088915989 0.011809823 0.63700002 4293715936
-0.08770632 0.011809219 0.63700002 4293715936
-0.086632513 0.011827162 0.63800001 4293715936
-0.085688844 0.011863645 0.63999999 4293715936
-0.084473677 0.011863061 0.63999999 4293715936
-0.083258569 0.011862487 0.63999999 4293715936
-0.082171716 0.011880453 0.64099997 4293715934
-0.080954805 0.011879889 0.64099997 4293847263
-0.079862379 0.01189787 0.64200002 4293781210
-0.078643702 0.011897322 0.64200002 4293715161
-0.077545673 0.011915311 0.64300001 4293780958
-0.076325215 0.011914779 0.64300001 4293780958
-0.075221621 0.011932784 0.64399999 4293649370
-0.074229166 0.011969323 0.64600003 4293518041
-0.073116191 0.011987338 0.64700001 4293583064
-0.071888357 0.011986834 0.64700001 4293517271
-0.070660576 0.011986336 0.64700001 4293648855
-0.069647461 0.012022896 0.64899999 4293714648
-0.068415985 0.012022412 0.64899999 4293648855
-0.067288086 0.01204046 0.64999998 4293648855
-0.066359691 0.012095564 0.653 4293452246
-0.065320231 0.012132146 0.65499997 4293386453
-0.064371064 0.012187256 0.65799999 4293255383
-0.063122764 0.012186807 0.65799999 4293123796
-0.061968554 0.012204885 0.65899998 4293254610
-0.060902737 0.012241492 0.66100001 4293254610
-0.059648894 0.012241065 0.66100001 4293122259
-0.058395106 0.012240649 0.66100001 4293056466
-0.057746481 0.012369861 0.66799998 4292925648
-0.056648608 0.012406492 0.67000002 4292925648
-0.055460535 0.012424609 0.671 4292990924
-0.054268714 0.012442734 0.67199999 4293056718
-0.053152002 0.012479381 0.67400002 4292859593
-0.05195079 0.012497522 0.67500001 4292530371
-0.050670754 0.012497154 0.67500001 4292595905
-0.1810037 0.01353051 0.65899998 4294967039
-0.17947517 0.013508888 0.65799999 4293454070
-0.17795052 0.013487272 0.65700001 4290691020
-0.17589177 0.01342461 0.65399998 4291017137
-0.17357749 0.013341438 0.64999998 4291675067
-0.17207389 0.013319854 0.64899999 4292135618
-0.1705742 0.01329828 0.648 4292332997
-0.16907832 0.013276711 0.64700001 4292464067
-0.16758631 0.013255152 0.64600003 4292529860
-0.16584064 0.013213083 0.64399999 4292792265
-0.16435826 0.013191538 0.64300001 4292923851
-0.16287972 0.013170004 0.64200002 4292858569
-0.16165684 0.01316899 0.64200002 4292858569
-0.16043404 0.013167982 0.64200002 4292858571
-0.15896326 0.013146466 0.64099997 4293056206
-0.15749638 0.013124962 0.63999999 4292859591
-0.15578915 0.013082959 0.63800001 4293056970
-0.15457416 0.013081976 0.63800001 4293056716
-0.15311886 0.013060496 0.63700002 4293056716
-0.15166742 0.013039024 0.63599998 4293056718
-0.1504564 0.013038062 0.63599998 4293188304
-0.14901078 0.013016605 0.63499999 4293188304
-0.14780179 0.013015654 0.63499999 4293320146
-0.14659286 0.013014708 0.63499999 4293254610
-0.14515503 0.012993272 0.634 4293320659
-0.14394811 0.012992339 0.634 4293320659
-0.14274125 0.01299141 0.634 4293320659
-0.14108798 0.01294951 0.63200003 4293517017
-0.13988505 0.012948597 0.63200003 4293517017
-0.13846274 0.012927201 0.63099998 4293386203
-0.1370443 0.012905815 0.63 4293451996
-0.13584536 0.012904922 0.63 4293452248
-0.13443276 0.012883553 0.62900001 4293452248
-0.13323583 0.01288267 0.62900001 4293583064
-0.13203898 0.0128818 0.62900001 4293714650
-0.13084219 0.01288093 0.62900001 4293649116
-0.12964547 0.012880068 0.62900001 4293649116
-0.1284488 0.012879213 0.62900001 4293780443
-0.12745447 0.012898834 0.63 4293714650
-0.12625605 0.012897991 0.63 4293648603
-0.12505767 0.012897153 0.63 4293714652
-0.12385936 0.012896321 0.63 4293649370
-0.12266111 0.012895495 0.63 4293780956
-0.12146292 0.012894674 0.63 4293715682
-0.12026479 0.01289386 0.63 4293649888
-0.11887774 0.012872588 0.62900001 4293715165
-0.11768165 0.01287179 0.62900001 4293780958
-0.11648563 0.012870998 0.62900001 4293780958
-0.11528966 0.012870212 0.62900001 4293780958
-0.11409376 0.012869434 0.62900001 4293780958
-0.11289791 0.012868659 0.62900001 4293780958
-0.11170215 0.012867895 0.62900001 4293780956
-0.11050642 0.012867133 0.62900001 4293912799
-0.10931078 0.012866383 0.62900001 4293780956
-0.10828708 0.012886091 0.63 4293780956
-0.10708966 0.012885351 0.63 4293780958
-0.10589229 0.012884616 0.63 4293780958
-0.10469501 0.01288389 0.63 4293977822
-0.1034978 0.012883173 0.63 4294043615
-0.10230061 0.012882461 0.63 4293977822
-0.10110352 0.012881755 0.63 4293648857
-0.099906474 0.012881057 0.63 4293583064
-0.098709501 0.012880368 0.63 4293714650
-0.097667374 0.012900127 0.63099998 4293648857
-0.096621498 0.012919892 0.63200003 4293846236
-0.095722884 0.012960105 0.634 4293780958
-0.094518557 0.012959437 0.634 4293780958
-0.093461469 0.012979219 0.63499999 4293715936
-0.092400648 0.012999004 0.63599998 4293847265
-0.0911927 0.012998358 0.63599998 4293847263
-0.089984812 0.012997719 0.63599998 4293715934
-0.088916592 0.013017526 0.63700002 4293584093
-0.087844633 0.013037336 0.63800001 4293650142
-0.086633101 0.013036716 0.63800001 4293715936
-0.085689448 0.013076972 0.63999999 4293715936
-0.084474273 0.01307637 0.63999999 4293650140
-0.083259143 0.013075771 0.63999999 4293650140
-0.082172275 0.013095612 0.64099997 4293650140
-0.080955379 0.01309503 0.64099997 4293650140
-0.079862945 0.013114884 0.64200002 4293650142
-0.078766748 0.013134743 0.64300001 4293452507
-0.077546224 0.013134182 0.64300001 4293386201
-0.076325744 0.01313363 0.64300001 4293451994
-0.075455755 0.013194361 0.64600003 4293517271
-0.074229702 0.013193822 0.64600003 4293583064
-0.073116705 0.013213715 0.64700001 4293385685
-0.071999975 0.013233612 0.648 4293517271
-0.070770279 0.013233094 0.648 4293517269
-0.069647953 0.013253008 0.64899999 4293385939
-0.068416484 0.013252507 0.64899999 4293320146
-0.067495607 0.013313272 0.65200001 4293583062
-0.066461787 0.013353621 0.65399998 4293386199
-0.06552016 0.013414396 0.65700001 4293320405
-0.064371526 0.013434337 0.65799999 4293189587
-0.063123226 0.013433871 0.65799999 4293123794
-0.062157076 0.01349466 0.66100001 4292925648
-0.060903173 0.013494208 0.66100001 4292991697
-0.059649326 0.013493767 0.66100001 4293122511
-0.058483861 0.013513744 0.662 4293056718
-0.057746898 0.013635796 0.66799998 4293056718
-0.056649014 0.013676199 0.67000002 4292990924
-0.055460934 0.013696197 0.671 4292859595
-0.054269105 0.0137162 0.67199999 4292793546
-0.053152386 0.013756623 0.67400002 4292530119
-0.051951163 0.013776644 0.67500001 4292332997
-0.049391117 0.013775889 0.67500001 4294176739
-0.1779516 0.014734753 0.65700001 4291677141
-0.17589287 0.014666368 0.65399998 4290755511
-0.17411268 0.014620422 0.65200001 4291347649
-0.17234012 0.014574485 0.64999998 4291938754
-0.17083849 0.014550984 0.64899999 4292136134
-0.16907938 0.014505071 0.64700001 4292398020
-0.16758738 0.014481582 0.64600003 4292463813
-0.16584167 0.014435687 0.64399999 4292463817
-0.1643593 0.014412221 0.64300001 4292726990
-0.16313446 0.014411174 0.64300001 4292858569
-0.16190967 0.014410128 0.64300001 4292858569
-0.16043505 0.014386685 0.64200002 4292858573
-0.15896426 0.014363244 0.64099997 4293055952
-0.15749738 0.014339811 0.63999999 4292990409
-0.15627851 0.014338793 0.63999999 4293056202
-0.15457518 0.014292978 0.63800001 4293056456
-0.15336023 0.014291974 0.63800001 4293122250
-0.15190689 0.014268574 0.63700002 4293056718
-0.15045737 0.014245181 0.63599998 4293056718
-0.14924642 0.014244199 0.63599998 4293187791
-0.1480355 0.014243216 0.63599998 4293450962
-0.14659381 0.014219848 0.63499999 4293320142
-0.14538491 0.01421888 0.63499999 4293386191
-0.14394906 0.01419553 0.634 4293385937
-0.14274219 0.014194573 0.634 4293517267
-0.14153539 0.014193625 0.634 4293517271
-0.13988598 0.014147911 0.63200003 4293319892
-0.13846365 0.014124589 0.63099998 4293385687
-0.13704519 0.014101279 0.63 4293648603
-0.13584627 0.01410036 0.63 4293583062
-0.13443366 0.014077067 0.62900001 4293517269
-0.13323674 0.01407616 0.62900001 4293648855
-0.13224979 0.014097637 0.63 4293648855
-0.13084307 0.014074367 0.62900001 4293518041
-0.12964635 0.014073476 0.62900001 4293452248
-0.12865387 0.014094966 0.63 4293648603
-0.12745534 0.014094089 0.63 4293648603
-0.12625693 0.014093219 0.63 4293648603
-0.12505852 0.014092353 0.63 4293780445
-0.12386022 0.014091495 0.63 4293780697
-0.12285664 0.014113007 0.63099998 4293780697
-0.12146377 0.014089798 0.63 4293780443
-0.12026562 0.014088959 0.63 4293714650
-0.11887855 0.014065765 0.62900001 4293780445
-0.11768246 0.01406494 0.62900001 4293780445
-0.11648642 0.014064121 0.62900001 4293846238
-0.11547373 0.014085668 0.63 4293780445
-0.11427593 0.014084862 0.63 4293780956
-0.11289871 0.014061709 0.62900001 4293715163
-0.11170291 0.014060917 0.62900001 4293780956
-0.11050721 0.014060134 0.62900001 4293912799
-0.10948532 0.014081709 0.63 4293780956
-0.10828783 0.014080937 0.63 4293780956
-0.10709041 0.014080172 0.63 4293780958
-0.10589304 0.014079416 0.63 4293780958
-0.10469575 0.014078666 0.63 4293846236
-0.10349851 0.014077922 0.63 4293846236
-0.10230133 0.014077187 0.63 4293846490
-0.10110424 0.014076457 0.63 4293648855
-0.09990719 0.014075736 0.63 4293517789
-0.098866872 0.014097365 0.63099998 4293780704
-0.097668067 0.014096656 0.63099998 4293780958
-0.096622199 0.014118295 0.63200003 4293780958
-0.095723554 0.014162276 0.634 4293715165
-0.094519228 0.014161589 0.634 4293649116
-0.093462139 0.014183243 0.63499999 4293780958
-0.092401318 0.014204903 0.63599998 4293912545
-0.091193363 0.014204234 0.63599998 4293912797
-0.089985467 0.014203575 0.63599998 4293847004
-0.088917233 0.014225253 0.63700002 4293780956
-0.087845258 0.014246938 0.63800001 4293715163
-0.086905323 0.014290959 0.63999999 4293780956
-0.085690074 0.014290324 0.63999999 4293846750
-0.084474877 0.014289696 0.63999999 4293781210
-0.083389856 0.014311407 0.64099997 4293781210
-0.082172878 0.014310796 0.64099997 4293715415
-0.080955967 0.014310191 0.64099997 4293320657
-0.079863518 0.014331923 0.64200002 4293386203
-0.078767322 0.014353657 0.64300001 4293386203
-0.07754679 0.014353078 0.64300001 4293320153
-0.076326311 0.014352507 0.64300001 4293320153
-0.075456306 0.014418904 0.64600003 4293517017
-0.074230246 0.014418347 0.64600003 4293517017
-0.073117241 0.014440113 0.64700001 4293385685
-0.071889386 0.014439569 0.64700001 4293517271
-0.070661597 0.014439039 0.64700001 4293320146
-0.069541156 0.014460828 0.648 4293320146
-0.068522401 0.014504937 0.64999998 4293319894
-0.067496106 0.014549057 0.65200001 4293582810
-0.066563904 0.014615493 0.65499997 4293386453
-0.065620355 0.014681933 0.65799999 4293254610
-0.064469837 0.014703754 0.65899998 4293254610
-0.063219622 0.014703272 0.65899998 4293254610
-0.062157542 0.014747418 0.66100001 4293056720
-0.060903631 0.014746951 0.66100001 4293056720
-0.059649777 0.01474649 0.66100001 4293056716
-0.058484305 0.014768351 0.662 4293122765
-0.057920225 0.014946371 0.67000002 4292991174
-0.056733996 0.014968242 0.671 4292859845
-0.055461355 0.014967811 0.671 4292793800
-0.054269519 0.014989696 0.67199999 4292596165
-0.053152792 0.015033895 0.67400002 4292596169
-0.051951554 0.015055794 0.67500001 4292332997
-0.17795272 0.015982255 0.65700001 4292532704
-0.17616291 0.015932471 0.65499997 4291544778
-0.17438081 0.015882699 0.653 4291347399
-0.17287152 0.015857261 0.65200001 4291937469
-0.17110281 0.015807506 0.64999998 4292266691
-0.16934179 0.015757766 0.648 4292267202
-0.16758846 0.015708039 0.64600003 4292267202
-0.16584274 0.015658319 0.64399999 4292398020
-0.16436037 0.015632926 0.64300001 4292661449
-0.16313547 0.015631849 0.64300001 4292727240
-0.16191074 0.01563078 0.64300001 4292727240
-0.16068599 0.015629716 0.64300001 4292727242
-0.15921332 0.015604349 0.64200002 4292990157
-0.1577445 0.01557899 0.64099997 4292859591
-0.15627955 0.015553641 0.63999999 4292793798
-0.15506072 0.015552599 0.63999999 4292727492
-0.15336123 0.015502968 0.63800001 4292924614
-0.15190789 0.015477643 0.63700002 4292858823
-0.15045837 0.015452327 0.63599998 4293056202
-0.14924741 0.015451314 0.63599998 4293056718
-0.14803649 0.015450304 0.63599998 4293188304
-0.14659478 0.015425012 0.63499999 4293319374
-0.14538591 0.015424019 0.63499999 4293385167
-0.14417708 0.015423031 0.63499999 4293188558
-0.1429683 0.015422046 0.63499999 4293254351
-0.14153634 0.015396783 0.634 4293254099
-0.1403296 0.015395814 0.634 4293319892
-0.13868403 0.015346285 0.63200003 4293319894
-0.13726369 0.015321048 0.63099998 4293385687
-0.1358472 0.015295821 0.63 4293320405
-0.13464829 0.015294881 0.63 4293320405
-0.13344947 0.015293947 0.63 4293517271
-0.1322507 0.015293018 0.63 4293517271
-0.131052 0.015292097 0.63 4293385687
-0.12985335 0.01529118 0.63 4293517017
-0.12865476 0.01529027 0.63 4293452248
-0.12745625 0.015289366 0.63 4293452248
-0.12625778 0.015288468 0.63 4293648857
-0.12525789 0.015311843 0.63099998 4293583064
-0.12405768 0.015310959 0.63099998 4293583062
-0.1228575 0.015310077 0.63099998 4293648855
-0.12165741 0.015309206 0.63099998 4293648344
-0.12026646 0.015284079 0.63 4293648344
-0.11906839 0.015283221 0.63 4293714652
-0.11787038 0.01528237 0.63 4293846238
-0.11667244 0.015281526 0.63 4293846238
-0.11547456 0.015280687 0.63 4293780445
-0.11427675 0.015279857 0.63 4293780956
-0.113079 0.015279034 0.63 4293780956
-0.11188129 0.015278216 0.63 4293649370
-0.11068369 0.015277408 0.63 4293780956
-0.10948612 0.015276603 0.63 4293650142
-0.10828862 0.015275808 0.63 4293650142
-0.10709117 0.015275019 0.63 4293715165
-0.10589382 0.015274238 0.63 4293715165
-0.10469651 0.015273465 0.63 4293649116
-0.10349926 0.015272697 0.63 4293649116
-0.10230208 0.015271939 0.63 4293649370
-0.10110497 0.015271186 0.63 4293649370
-0.099907912 0.015270441 0.63 4293518300
-0.098867595 0.01529394 0.63099998 4293650142
-0.097823575 0.015317448 0.63200003 4293715936
-0.096928678 0.015365194 0.634 4293715936
-0.095724255 0.015364475 0.634 4293584093
-0.094668999 0.015387998 0.63499999 4293518300
-0.093462832 0.015387291 0.63499999 4293517271
-0.092401981 0.015410823 0.63599998 4293714650
-0.091194026 0.015410133 0.63599998 4293715163
-0.089986138 0.015409454 0.63599998 4293649370
-0.088917889 0.015433006 0.63700002 4293518041
-0.087845914 0.015456566 0.63800001 4293518041
-0.086634398 0.015455905 0.63800001 4293386199
-0.085690714 0.015503701 0.63999999 4293386199
-0.084475502 0.015503054 0.63999999 4293386199
-0.083390467 0.015526637 0.64099997 4293452248
-0.082173489 0.015526006 0.64099997 4293714648
-0.081082888 0.015549605 0.64200002 4293517269
-0.079988532 0.015573209 0.64300001 4293385687
-0.078767918 0.0155726 0.64300001 4293517017
-0.077667981 0.015596218 0.64399999 4293517017
-0.076445587 0.015595624 0.64399999 4293517017
-0.075456873 0.015643474 0.64600003 4293386453
-0.074230798 0.015642894 0.64600003 4293320659
-0.0731178 0.015666541 0.64700001 4293254612
-0.071889937 0.015665978 0.64700001 4293188819
-0.070662133 0.015665429 0.64700001 4293254097
-0.069541685 0.015689094 0.648 4293320146
-0.068522923 0.015736979 0.64999998 4293254614
-0.067600146 0.01580908 0.653 4293188565
-0.066564411 0.015856976 0.65499997 4293254099
-0.065620862 0.015929082 0.65799999 4293056720
-0.064470321 0.015952781 0.65899998 4293056718
-0.063220114 0.015952282 0.65899998 4293056718
-0.062158011 0.016000204 0.66100001 4292859593
-0.060996246 0.016023923 0.662 4292793800
-0.059740484 0.01602345 0.662 4292924614
-0.059191521 0.016216611 0.67000002 4292924614
-0.057920683 0.016216151 0.67000002 4292858821
-0.056734432 0.016239896 0.671 4292727492
-0.055461783 0.016239453 0.671 4292596167
-0.054189187 0.016239015 0.671 4292596167
-0.052916616 0.016238591 0.671 4292661708
-0.17438196 0.017122578 0.653 4290690248
-0.17313778 0.017121434 0.653 4291149491
-0.17110392 0.017041635 0.64999998 4291939006
-0.16960421 0.017014286 0.64899999 4292331964
-0.167849 0.016960733 0.64700001 4292463550
-0.1663589 0.0169334 0.64600003 4292267204
-0.16461705 0.016879866 0.64399999 4292596169
-0.16313659 0.016852552 0.64300001 4292661447
-0.16191182 0.016851455 0.64300001 4292661447
-0.16093697 0.016876569 0.64399999 4292858310
-0.15971038 0.016875479 0.64399999 4292989896
-0.15799166 0.016821992 0.64200002 4292924614
-0.15652479 0.016794713 0.64099997 4292924614
-0.15506178 0.016767444 0.63999999 4292858569
-0.15336229 0.016713988 0.63800001 4292858569
-0.15190892 0.016686738 0.63700002 4292858571
-0.15045941 0.016659498 0.63599998 4292990157
-0.14924842 0.016658457 0.63599998 4293056718
-0.14803752 0.016657423 0.63599998 4293122511
-0.14659581 0.016630204 0.63499999 4293122511
-0.1453869 0.016629184 0.63499999 4293188304
-0.14417806 0.016628165 0.63499999 4293319122
-0.1429693 0.016627157 0.63499999 4293319122
-0.14153734 0.016599968 0.634 4293254101
-0.14033057 0.016598972 0.634 4293385687
-0.13868502 0.016545622 0.63200003 4293319894
-0.13726465 0.016518461 0.63099998 4293385687
-0.13584815 0.016491307 0.63 4293385939
-0.13464926 0.016490342 0.63 4293517269
-0.13345042 0.016489381 0.63 4293385939
-0.13225164 0.016488425 0.63 4293385939
-0.13105293 0.016487475 0.63 4293385687
-0.12985426 0.016486533 0.63 4293385687
-0.12865569 0.016485598 0.63 4293517017
-0.12745717 0.01648467 0.63 4293582810
-0.12645911 0.016509909 0.63099998 4293583064
-0.1252588 0.016508989 0.63099998 4293517271
-0.12405856 0.016508078 0.63099998 4293517017
-0.1228584 0.016507175 0.63099998 4293648603
-0.12165828 0.016506275 0.63099998 4293648857
-0.12045825 0.016505385 0.63099998 4293648857
-0.11906926 0.016478343 0.63 4293648603
-0.11787124 0.016477467 0.63 4293648603
-0.11667331 0.016476598 0.63 4293648603
-0.11547539 0.016475733 0.63 4293582810
-0.11427759 0.016474878 0.63 4293649370
-0.11307982 0.016474029 0.63 4293780956
-0.11188212 0.016473185 0.63 4293780697
-0.1106845 0.016472353 0.63 4293846490
-0.10948692 0.016471528 0.63 4293714911
-0.10828943 0.016470706 0.63 4293649118
-0.10709197 0.016469894 0.63 4293649118
-0.1058946 0.016469089 0.63 4293649118
-0.10469729 0.01646829 0.63 4293649116
-0.10366432 0.016493639 0.63099998 4293649116
-0.10246523 0.016492853 0.63099998 4293517787
-0.10126621 0.016492076 0.63099998 4293517787
-0.10006725 0.016491307 0.63099998 4293517787
-0.09886834 0.016490545 0.63099998 4293517787
-0.097824305 0.016515926 0.63200003 4293649370
-0.096929394 0.016567441 0.634 4293649370
-0.095724985 0.016566699 0.634 4293715163
-0.094669715 0.016592095 0.63499999 4293518041
-0.09346354 0.016591368 0.63499999 4293452248
-0.092402704 0.016616775 0.63599998 4293452248
-0.091194727 0.016616063 0.63599998 4293648855
-0.089986831 0.016615359 0.63599998 4293648855
-0.088918582 0.016640788 0.63700002 4293648855
-0.087846585 0.016666221 0.63800001 4293648855
-0.086635053 0.016665539 0.63800001 4293451994
-0.085691363 0.016717106 0.63999999 4293057236
-0.084476165 0.016716437 0.63999999 4293254360
-0.083391115 0.016741896 0.64099997 4293451996
-0.08217413 0.016741244 0.64099997 4293583316
-0.081083506 0.01676672 0.64200002 4293385937
-0.079989143 0.016792199 0.64300001 4293385685
-0.079136036 0.016869914 0.64600003 4293385685
-0.078030393 0.016895402 0.64700001 4293385685
-0.076802306 0.016894788 0.64700001 4293517271
-0.075691082 0.016920295 0.648 4293517269
-0.074461207 0.016919697 0.648 4293320146
-0.073344395 0.016945217 0.64899999 4293057490
-0.072112732 0.016944632 0.64899999 4293057490
-0.070881106 0.01694406 0.64899999 4293188819
-0.069756873 0.016969604 0.64999998 4293254612
-0.068839729 0.017047366 0.653 4293254101
-0.067704208 0.017072923 0.65399998 4293188308
-0.066768192 0.017150695 0.65700001 4292991443
-0.065621391 0.017176265 0.65799999 4292991443
-0.064666502 0.017254045 0.66100001 4292794063
-0.063412488 0.017253527 0.66100001 4292728270
-0.062252551 0.01727912 0.662 4292793800
-0.061088875 0.017304718 0.66299999 4292793800
-0.060462903 0.017486924 0.67000002 4292924614
-0.059191998 0.017486434 0.67000002 4292924614
-0.057921145 0.017485956 0.67000002 4292662214
-0.056650341 0.017485486 0.67000002 4292596165
-0.055379573 0.017485026 0.67000002 4292530371
-0.054108854 0.017484576 0.67000002 4292662214
-0.052917048 0.017510232 0.671 4292465097
-0.17545132 0.018474961 0.65700001 4291282385
-0.17419951 0.018473782 0.65700001 4290885812
-0.17163156 0.018332019 0.65200001 4291477950
-0.16960536 0.018246509 0.64899999 4291805621
-0.16810954 0.018217245 0.648 4292266172
-0.16661756 0.018187989 0.64700001 4292266943
-0.16512944 0.018158738 0.64600003 4292529858
-0.16339141 0.018101385 0.64399999 4292595651
-0.1621647 0.018100258 0.64399999 4292595651
-0.16093805 0.018099137 0.64399999 4292726723
-0.15971148 0.018098023 0.64399999 4292726723
-0.15799277 0.018040709 0.64200002 4292792517
-0.15652588 0.018011507 0.64099997 4292924103
-0.15506285 0.01798231 0.63999999 4292924616
-0.15336335 0.017925031 0.63800001 4292924616
-0.15190999 0.017895859 0.63700002 4292924618
-0.15069704 0.017894784 0.63700002 4292990411
-0.14948414 0.017893715 0.63700002 4293056204
-0.14827134 0.017892651 0.63700002 4293056204
-0.1468277 0.017863505 0.63599998 4292793546
-0.14538793 0.017834369 0.63499999 4293122511
-0.14417909 0.017833324 0.63499999 4293188304
-0.14297031 0.01783229 0.63499999 4293122511
