# .PCD v0.7 - Point Cloud Data file format
VERSION 0.7
FIELDS x y z rgba
SIZE 4 4 4 4
TYPE F F F U
COUNT 1 1 1 1
WIDTH 1095
HEIGHT 1
VIEWPOINT 0 0 0 1 0 0 0
POINTS 1095
DATA ascii
0.2251801 0.067939095 0.62900001 4291347136
0.22673678 0.068048611 0.63 4291281342
0.22793537 0.068050072 0.63 4291216062
0.22913389 0.068051532 0.63 4291216062
0.23033242 0.06805297 0.63 4291018684
0.23153079 0.068054378 0.63 4291084477
0.23235972 0.067947753 0.62900001 4291018684
0.23355603 0.067949124 0.62900001 4290952891
0.23512551 0.068058498 0.63 4291083709
0.23632365 0.068059832 0.63 4291017916
0.23752162 0.068061143 0.63 4290821305
0.23871952 0.068062432 0.63 4290821305
0.23991731 0.068063691 0.63 4290821557
0.24111506 0.068064936 0.63 4290558385
0.24269728 0.068174183 0.63099998 4290623410
0.24505627 0.068499506 0.634 4290754996
0.2466497 0.068608731 0.63499999 4290360240
0.24785653 0.068609886 0.63499999 4290360240
0.24945541 0.068719059 0.63599998 4290426032
0.25066391 0.068720162 0.63599998 4290360238
0.25226828 0.068829283 0.63700002 4290163629
0.25347841 0.068830326 0.63700002 4290163629
0.25588784 0.069155507 0.63999999 4290163375
0.25830865 0.06948068 0.64300001 4289965996
0.25952974 0.069481656 0.64300001 4289703337
0.26075077 0.069482595 0.64300001 4289703337
0.26237905 0.069591567 0.64399999 4289702824
0.26442027 0.069808573 0.64600003 4289505445
0.26564655 0.069809437 0.64600003 4289505436
0.26687261 0.069810256 0.64600003 4289439386
0.26809859 0.069811046 0.64600003 4289045157
0.15823501 0.073516816 0.67000002 4291676098
0.15950985 0.073518857 0.67000002 4291741891
0.16078474 0.073520884 0.67000002 4292069820
0.16133405 0.073193729 0.667 4292267456
0.16235952 0.073086023 0.66600001 4292201409
0.16362694 0.073088072 0.66600001 4292201409
0.16540404 0.071669444 0.653 4292136134
0.16788971 0.07167346 0.653 4292399305
0.16887362 0.071565717 0.65200001 4292398538
0.16959283 0.071348183 0.64999998 4292332745
0.17056727 0.071240425 0.64899999 4292529872
0.17180265 0.071242429 0.64899999 4292398542
0.17277147 0.071134657 0.648 4292399305
0.17373645 0.071026869 0.64700001 4292465099
0.17415681 0.07069952 0.64399999 4292399305
0.17511043 0.070591703 0.64300001 4292267719
0.17633455 0.070593692 0.64300001 4292202442
0.17755866 0.070595674 0.64300001 4292202442
0.17878278 0.070597641 0.64300001 4292333260
0.18000691 0.070599608 0.64300001 4292399054
0.1812311 0.070601583 0.64300001 4292268235
0.18217154 0.07049375 0.64200002 4292268235
0.18310811 0.070385888 0.64099997 4292202444
0.18432854 0.070387848 0.64099997 4292202444
0.18525949 0.070279978 0.63999999 4292333260
0.18589528 0.070062287 0.63800001 4292399054
0.18711002 0.070064217 0.63800001 4292333260
0.18832472 0.070066139 0.63800001 4292333260
0.18924241 0.069958232 0.63700002 4292334283
0.18985723 0.069740474 0.63499999 4292334283
0.19106625 0.069742367 0.63499999 4292399303
0.19136697 0.06941478 0.63200003 4292399303
0.19226556 0.069306798 0.63099998 4292202440
0.19316038 0.069198824 0.63 4292136647
0.19435987 0.06920068 0.63 4292267465
0.1955594 0.06920252 0.63 4292267465
0.19707121 0.069314197 0.63099998 4292202442
0.1982726 0.06931603 0.63099998 4292268235
0.19947398 0.069317847 0.63099998 4292136647
0.20067534 0.069319658 0.63099998 4292005061
0.20187669 0.069321454 0.63099998 4291939016
0.20275623 0.069213383 0.63 4291807687
0.20395562 0.069215156 0.63 4291676359
0.20515501 0.069216914 0.63 4291676359
0.20635439 0.06921868 0.63 4291741891
0.20788319 0.06933029 0.63099998 4291741891
0.20908444 0.069332018 0.63099998 4291676098
0.20995237 0.069223858 0.63 4291676098
0.21115163 0.06922555 0.63 4291676098
0.21235086 0.069227241 0.63 4291610305
0.21355009 0.069228925 0.63 4291675583
0.21474923 0.069230579 0.63 4291807168
0.21594837 0.069232225 0.63 4291806914
0.21714741 0.06923385 0.63 4291806914
0.21834645 0.069235466 0.63 4291675583
0.21954542 0.069237061 0.63 4291543997
0.2207444 0.069238648 0.63 4291543745
0.22194329 0.069240212 0.63 4291543745
0.22314213 0.069241762 0.63 4291347136
0.22398479 0.069133371 0.62900001 4291281342
0.22518161 0.069134884 0.62900001 4291216060
0.22673826 0.069246285 0.63 4291084731
0.22793685 0.06924776 0.63 4291018686
0.22913535 0.069249213 0.63 4291018686
0.23033381 0.069250651 0.63 4291149754
0.2315322 0.069252059 0.63 4291083961
0.23273048 0.069253452 0.63 4291083961
0.23392871 0.069254823 0.63 4291017912
0.23512685 0.069256172 0.63 4291017912
0.23632494 0.069257498 0.63 4290820789
0.23789993 0.069368742 0.63099998 4290820791
0.2390997 0.069370016 0.63099998 4290820791
0.2402994 0.069371283 0.63099998 4290755507
0.24149902 0.069372512 0.63099998 4290492592
0.24308315 0.069483683 0.63200003 4290623410
0.24505748 0.069704749 0.634 4290754996
0.24703927 0.0699258 0.63599998 4290359986
0.24824798 0.069926955 0.63599998 4290294193
0.24984874 0.070038021 0.63700002 4290163629
0.25105911 0.070039116 0.63700002 4290097836
0.25226933 0.070040174 0.63700002 4290097836
0.25387737 0.070151173 0.63800001 4290097836
0.25588885 0.07037209 0.63999999 4289965994
0.25871134 0.070812911 0.64399999 4289637285
0.25993437 0.070813864 0.64399999 4289702824
0.26115721 0.070814803 0.64399999 4289834409
0.26319477 0.071035624 0.64600003 4289571492
0.2648305 0.071146466 0.64700001 4289176734
0.26605859 0.071147308 0.64700001 4289241753
0.26728651 0.071148105 0.64700001 4289505182
0.16157797 0.074572757 0.66799998 4291938239
0.16284914 0.074574813 0.66799998 4292069309
0.16639368 0.072800703 0.65200001 4292070341
0.16763465 0.07280273 0.65200001 4292070341
0.16887562 0.072804742 0.65200001 4292136136
0.16959482 0.072583437 0.64999998 4292267465
0.17083213 0.072585456 0.64999998 4292136138
0.17180468 0.072475813 0.64899999 4292070089
0.17277344 0.072366133 0.648 4292070343
0.174007 0.07236816 0.648 4292136136
0.17524055 0.072370164 0.648 4292070341
0.17538477 0.071925439 0.64399999 4292136134
0.17633653 0.071815744 0.64300001 4292202442
0.17756061 0.071817726 0.64300001 4292136649
0.17878476 0.071819723 0.64300001 4292070856
0.18000892 0.071821705 0.64300001 4292136649
0.18123306 0.071823686 0.64300001 4292136649
0.18217348 0.071713962 0.64200002 4292202442
0.18311009 0.071604222 0.64099997 4292136649
0.18433049 0.071606189 0.64099997 4292136649
0.18526144 0.071496427 0.63999999 4292136649
0.18647993 0.071498387 0.63999999 4292202442
0.18711194 0.071276896 0.63800001 4292267465
0.18832663 0.071278825 0.63800001 4292136136
0.18924429 0.071169026 0.63700002 4292136649
0.19045714 0.071170948 0.63700002 4292070856
0.19106819 0.070949405 0.63499999 4292071108
0.19197445 0.070839569 0.634 4292136901
0.19257213 0.070617981 0.63200003 4292070341
0.19346885 0.070508108 0.63099998 4292070341
0.19467026 0.070509985 0.63099998 4292070856
0.19680293 0.070847072 0.634 4292005063
0.19707303 0.070513681 0.63099998 4292070856
0.19827443 0.070515513 0.63099998 4292070856
0.19947578 0.070517339 0.63099998 4292005061
0.20067713 0.070519157 0.63099998 4292005061
0.20187849 0.070520967 0.63099998 4291807938
0.2030798 0.070522755 0.63099998 4291676096
0.20428114 0.070524551 0.63099998 4291675585
0.20548242 0.070526317 0.63099998 4291806914
0.2066837 0.070528083 0.63099998 4291806914
0.20788494 0.070529833 0.63099998 4291609792
0.20908615 0.070531569 0.63099998 4291543745
0.20995408 0.070421517 0.63 4291609538
0.21115334 0.070423223 0.63 4291609792
0.21235253 0.070424914 0.63 4291609792
0.21355174 0.070426591 0.63 4291478463
0.21475087 0.070428252 0.63 4291544512
0.21594998 0.070429906 0.63 4291544512
0.21714905 0.070431538 0.63 4291544512
0.21834807 0.070433147 0.63 4291544512
0.21954705 0.070434749 0.63 4291544512
0.22074597 0.070436344 0.63 4291543999
0.22229712 0.070549697 0.63099998 4291609792
0.22349787 0.070551269 0.63099998 4291347134
0.22469848 0.070552796 0.63099998 4291281340
0.22589907 0.070554301 0.63099998 4291084477
0.22709964 0.070555799 0.63099998 4291084477
0.22830011 0.070557266 0.63099998 4291018684
0.22950053 0.070558727 0.63099998 4290952891
0.23070087 0.070560165 0.63099998 4291148987
0.23190111 0.07056158 0.63099998 4291083194
0.23273189 0.07045114 0.63 4291017401
0.23393008 0.070452511 0.63 4291017401
0.23550144 0.070565686 0.63099998 4290820791
0.23670134 0.070567004 0.63099998 4290820791
0.2379012 0.070568316 0.63099998 4290624180
0.23910099 0.070569597 0.63099998 4290624180
0.2406815 0.070682704 0.63200003 4290558133
0.24188295 0.070683926 0.63200003 4290426547
0.24385355 0.070908815 0.634 4290622897
0.2458317 0.071133688 0.63599998 4290491054
0.24704044 0.07113485 0.63599998 4290228398
0.24863945 0.071247846 0.63700002 4290228398
0.24984984 0.071248949 0.63700002 4290294445
0.25145432 0.071361884 0.63800001 4290162859
0.25266641 0.071362942 0.63800001 4290096812
0.25387841 0.071363971 0.63800001 4289899689
0.25588989 0.071588688 0.63999999 4289571238
0.25871232 0.072037093 0.64399999 4289702824
0.25993529 0.07203804 0.64399999 4289703337
0.26196921 0.072262682 0.64600003 4289571751
0.26360309 0.072375432 0.64700001 4289373604
0.2648313 0.072376281 0.64700001 4289373604
0.2660594 0.072377115 0.64700001 4289438618
0.26728728 0.072377898 0.64700001 4289570204
0.16768782 0.075173259 0.662 4292004546
0.16894779 0.07517533 0.662 4291938754
0.16763671 0.074041799 0.65200001 4291938754
0.16887768 0.074043833 0.65200001 4292070341
0.17011869 0.074045867 0.65200001 4292267719
0.17083414 0.07382077 0.64999998 4292070856
0.17207141 0.073822811 0.64999998 4292005063
0.17330873 0.07382483 0.64999998 4292070343
0.17454605 0.073826872 0.64999998 4292004550
0.17578343 0.073828906 0.64999998 4291939268
0.17674847 0.073717348 0.64899999 4292005061
0.17661278 0.073151425 0.64399999 4292005061
0.17783879 0.073153436 0.64399999 4292005061
0.17906484 0.07315544 0.64399999 4292005063
0.1802908 0.07315743 0.64399999 4292136649
0.18151692 0.073159434 0.64399999 4292070854
0.18245922 0.073047832 0.64300001 4292005061
0.18339773 0.0729362 0.64200002 4292005063
0.18462004 0.072938189 0.64200002 4292005063
0.18555287 0.072826535 0.64099997 4292267719
0.18648189 0.072714895 0.63999999 4292333512
0.18770044 0.072716847 0.63999999 4292136649
0.18832858 0.072491564 0.63800001 4292005063
0.18954332 0.072493494 0.63800001 4292070343
0.19075806 0.072495431 0.63800001 4292070343
0.1907692 0.072042823 0.634 4292070341
0.19197631 0.072044738 0.634 4292136134
0.19257402 0.071819358 0.63200003 4292070341
0.19377734 0.07182125 0.63200003 4292004548
0.19498061 0.07182312 0.63200003 4291807687
0.19680476 0.072052285 0.634 4291741893
0.19801186 0.07205414 0.634 4292070595
0.19827624 0.071715042 0.63099998 4292136388
0.1994776 0.071716882 0.63099998 4292004800
0.20099702 0.071832374 0.63200003 4292070593
0.20220022 0.071834177 0.63200003 4291939006
0.20404717 0.072063312 0.634 4291807164
0.20525417 0.072065122 0.634 4291675583
0.20646115 0.072066903 0.634 4291675583
0.2076681 0.072068684 0.634 4291609792
0.20821616 0.071843103 0.63200003 4291543999
0.20908788 0.071731158 0.63099998 4291543745
0.21028905 0.071732886 0.63099998 4291543745
0.21115503 0.071620911 0.63 4291477952
0.21235424 0.07162261 0.63 4291477952
0.21355343 0.071624309 0.63 4291477950
0.21475254 0.071625963 0.63 4291477950
0.21595165 0.071627624 0.63 4291477950
0.21715067 0.071629256 0.63 4291477950
0.21834967 0.071630873 0.63 4291478463
0.2195486 0.071632467 0.63 4291544512
0.22074758 0.071634069 0.63 4291543997
0.22229867 0.071749337 0.63099998 4291543997
0.2234994 0.071750894 0.63099998 4291281340
0.22470003 0.071752422 0.63099998 4291215547
0.22590059 0.071753934 0.63099998 4291084731
0.22710112 0.071755432 0.63099998 4291084731
0.2283016 0.071756899 0.63099998 4290952889
0.22950195 0.071758352 0.63099998 4290952889
0.23070225 0.071759775 0.63099998 4291017914
0.23190252 0.071761198 0.63099998 4290886585
0.23310265 0.071762592 0.63099998 4290820537
0.23430273 0.071763955 0.63099998 4290820537
0.23550273 0.071765296 0.63099998 4290820789
0.2367027 0.071766622 0.63099998 4290820789
0.23790251 0.071767919 0.63099998 4290754994
0.23910224 0.071769185 0.63099998 4290557615
0.24068274 0.071884193 0.63200003 4290557363
0.2418842 0.071885414 0.63200003 4290426034
0.2442394 0.072227843 0.63499999 4290294447
0.24583288 0.072342761 0.63599998 4290162605
0.24704157 0.072343916 0.63599998 4290228400
0.24864057 0.072458796 0.63700002 4290228400
0.24985096 0.072459899 0.63700002 4290096812
0.25145537 0.07257472 0.63800001 4289899689
0.25266743 0.072575763 0.63800001 4289767851
0.25547114 0.07303182 0.64200002 4289702058
0.25749016 0.073260315 0.64399999 4289571492
0.25871328 0.073261291 0.64399999 4289637285
0.26074347 0.07348974 0.64600003 4289439652
0.26197007 0.073490657 0.64600003 4289110687
0.26360396 0.073605284 0.64700001 4289241253
0.26524147 0.073719889 0.648 4289241253
0.26647142 0.073720708 0.648 4288453275
0.26770115 0.073721476 0.648 4288321688
0.16668133 0.076544717 0.66299999 4291807164
0.16768986 0.076431341 0.662 4291807164
0.16894986 0.076433428 0.662 4291872961
0.17020985 0.076435514 0.662 4292004548
0.16913873 0.075398423 0.653 4292004548
0.17012076 0.075285017 0.65200001 4292004548
0.17136182 0.075287066 0.65200001 4291939268
0.17260292 0.075289123 0.65200001 4291939268
0.17384404 0.075291179 0.65200001 4291939268
0.17508519 0.075293235 0.65200001 4291807938
0.17659678 0.075410768 0.653 4291938752
0.17675051 0.074950874 0.64899999 4291938752
0.17771176 0.074837416 0.648 4291807938
0.17784078 0.074377485 0.64399999 4291807938
0.17906681 0.074379504 0.64399999 4291939268
0.18029286 0.074381515 0.64399999 4292005061
0.18151888 0.074383512 0.64399999 4292005059
0.18274498 0.074385531 0.64399999 4292005059
0.18368539 0.074272029 0.64300001 4292005061
0.184622 0.074158505 0.64200002 4291939268
0.18584435 0.074160501 0.64200002 4291939268
0.18648389 0.073931441 0.63999999 4291939268
0.18770239 0.073933408 0.63999999 4292004548
0.18892093 0.073935375 0.63999999 4292004548
0.19013944 0.073937327 0.63999999 4292004548
0.18986298 0.07336162 0.63499999 4291872961
0.19077112 0.073248029 0.634 4291872448
0.19197823 0.073249944 0.634 4291938241
0.19318531 0.073251851 0.634 4292004548
0.19439243 0.073253751 0.634 4291938754
0.19559954 0.073255643 0.634 4291938501
0.19680661 0.073257521 0.634 4291806914
0.19832601 0.073374942 0.63499999 4291807168
0.19859235 0.073030159 0.63200003 4291675583
0.19979559 0.073031992 0.63200003 4291610044
0.20099884 0.073033832 0.63200003 4291675837
0.20284194 0.073266782 0.634 4291610044
0.20404895 0.073268607 0.634 4291543995
0.20525591 0.07327041 0.634 4291543997
0.20646295 0.073272213 0.634 4291478204
0.20766987 0.073273994 0.634 4291412410
0.20887682 0.07327576 0.634 4291478204
0.20908959 0.072930768 0.63099998 4291347134
0.21029077 0.072932504 0.63099998 4291281340
0.21115676 0.072818644 0.63 4291281340
0.21235591 0.072820343 0.63 4291281340
0.2135551 0.072822034 0.63 4291412156
0.21475421 0.072823711 0.63 4291412156
0.21595329 0.072825357 0.63 4291412410
0.2171523 0.072826996 0.63 4291478204
0.21835129 0.072828606 0.63 4291215547
0.21955022 0.072830215 0.63 4291347134
0.22109951 0.072947413 0.63099998 4291347134
0.22230023 0.072948985 0.63099998 4291281340
0.22350091 0.072950527 0.63099998 4291018684
0.22470154 0.072952069 0.63099998 4290952891
0.2259021 0.072953582 0.63099998 4291018938
0.22710261 0.072955072 0.63099998 4291084731
0.22830303 0.07295654 0.63099998 4290887609
0.22950338 0.072957993 0.63099998 4290690487
0.23070371 0.072959431 0.63099998 4290886583
0.2319039 0.072960839 0.63099998 4290820789
0.23310407 0.072962224 0.63099998 4290688949
0.23430407 0.07296358 0.63099998 4290623156
0.23550406 0.072964914 0.63099998 4290623410
0.23670398 0.07296624 0.63099998 4290623410
0.23828085 0.073083177 0.63200003 4290557363
0.23948245 0.073084444 0.63200003 4290426034
0.24144559 0.073316969 0.634 4290426034
0.24265082 0.073318191 0.634 4290360240
0.24424057 0.073435031 0.63499999 4290163629
0.24583401 0.073551849 0.63599998 4290097836
0.2470427 0.073552996 0.63599998 4290162605
0.24864167 0.073669776 0.63700002 4290162605
0.24985205 0.073670872 0.63700002 4289965481
0.25224471 0.074018888 0.63999999 4289833894
0.25346056 0.074019924 0.63999999 4289767847
0.25626796 0.074483551 0.64399999 4289504932
0.25749114 0.074484542 0.64399999 4289373345
0.25951767 0.074716821 0.64600003 4289373345
0.26074436 0.074717738 0.64600003 4289241503
0.26197097 0.074718639 0.64600003 4289044381
0.26401219 0.074950814 0.648 4289241507
0.16668344 0.077804729 0.66299999 4291675837
0.16769199 0.077689469 0.662 4291675837
0.16869673 0.077574223 0.66100001 4291807166
0.16995485 0.077576324 0.66100001 4291872959
0.16914079 0.076639488 0.653 4291872959
0.17038375 0.076641552 0.653 4291807166
0.17162673 0.076643646 0.653 4291872961
0.17260496 0.076528326 0.65200001 4291938754
0.1738461 0.076530404 0.65200001 4291938752
0.17535576 0.076649845 0.653 4291872959
0.17659888 0.076651931 0.653 4291872959
0.17675254 0.076184437 0.64899999 4291872959
0.17771383 0.076069109 0.648 4291872961
0.17894742 0.076071136 0.648 4291872961
0.18018104 0.076073177 0.648 4292004800
0.18113475 0.075957827 0.64700001 4292070593
0.18208466 0.075842455 0.64600003 4292070593
0.18274698 0.075609662 0.64399999 4292070593
0.1836874 0.075494267 0.64300001 4292070593
0.18491159 0.075496279 0.64300001 4291939006
0.1861358 0.075498283 0.64300001 4291938754
0.18648584 0.075148016 0.63999999 4291938754
0.18770435 0.075149998 0.63999999 4291807685
0.18986492 0.074568748 0.63499999 4291872961
0.19107392 0.074570678 0.63499999 4291872707
0.19198014 0.074455172 0.634 4291872707
0.19318724 0.074457094 0.634 4291872961
0.19439436 0.074459009 0.634 4291872961
0.19560139 0.074460894 0.634 4291872961
0.19680852 0.074462786 0.634 4291807168
0.19832793 0.07458213 0.63499999 4291675587
0.19953689 0.074584 0.63499999 4291609538
0.20074584 0.07458587 0.63499999 4291609790
0.20195477 0.07458771 0.63499999 4291609790
0.2031637 0.074589558 0.63499999 4291610042
0.20437263 0.074591391 0.63499999 4291478455
0.20558149 0.074593201 0.63499999 4291412156
0.20679039 0.074595004 0.63499999 4291346363
0.20799921 0.074596792 0.63499999 4291412410
0.20887856 0.0744811 0.634 4291478204
0.21008544 0.074482851 0.634 4291412408
0.2102925 0.074132152 0.63099998 4291215286
0.21149364 0.074133873 0.63099998 4291215032
0.2126947 0.074135594 0.63099998 4291346617
0.21389575 0.074137278 0.63099998 4291346617
0.21509674 0.074138954 0.63099998 4291215032
0.2159549 0.074023113 0.63 4291412408
0.21715391 0.074024752 0.63 4291543995
0.21835291 0.074026376 0.63 4291346615
0.21955183 0.074027985 0.63 4291346615
0.22075069 0.074029572 0.63 4291149754
0.22230178 0.074148655 0.63099998 4291083961
0.22350246 0.074150197 0.63099998 4290952889
0.22470304 0.074151739 0.63099998 4290952889
0.22590363 0.074153244 0.63099998 4291018936
0.2271041 0.074154742 0.63099998 4291018936
0.22866632 0.074273735 0.63200003 4290887348
0.22986858 0.074275196 0.63200003 4290755761
0.23107073 0.074276611 0.63200003 4290755507
0.23227282 0.074278034 0.63200003 4290558385
0.23347487 0.074279405 0.63200003 4290623410
0.23467678 0.074280769 0.63200003 4290623410
0.23587866 0.07428211 0.63200003 4290426034
0.23783068 0.074518494 0.634 4290426034
0.23903613 0.074519783 0.634 4290097582
0.24024154 0.07452105 0.634 4290097582
0.24144682 0.074522287 0.634 4290360488
0.24265203 0.074523501 0.634 4290360488
0.24424174 0.074642234 0.63499999 4290294695
0.24583517 0.074760944 0.63599998 4290294695
0.24704383 0.074762084 0.63599998 4290163109
0.24903306 0.074998297 0.63800001 4289965987
0.25024536 0.074999377 0.63800001 4289965987
0.25224572 0.075235546 0.63999999 4289702558
0.25385758 0.075354129 0.64099997 4289504932
0.25626898 0.075707793 0.64399999 4289373345
0.2574921 0.075708769 0.64399999 4289373343
0.25992036 0.076062396 0.64700001 4289373343
0.26114893 0.076063305 0.64700001 4289044894
0.26237732 0.076064184 0.64700001 4288452756
0.26442045 0.076300144 0.64899999 4289635998
0.16668554 0.079064801 0.66299999 4291610044
0.16769409 0.078947656 0.662 4291610044
0.16869883 0.07883051 0.66100001 4291610044
0.16995697 0.078832626 0.66100001 4291675837
0.16914289 0.077880606 0.653 4291675837
0.17038581 0.077882692 0.653 4291675837
0.1716288 0.077884778 0.653 4291543997
0.17260705 0.077767596 0.65200001 4291807168
0.17384818 0.077769682 0.65200001 4291807166
0.17535785 0.077891037 0.653 4291807166
0.17660093 0.077893116 0.653 4291807166
0.17675461 0.077418052 0.64899999 4291675837
0.17771585 0.077300809 0.648 4291609790
0.17894948 0.077302873 0.648 4291675583
0.18018311 0.077304929 0.648 4291675837
0.18113677 0.077187672 0.64700001 4291675837
0.18208669 0.077070415 0.64600003 4291807166
0.18331654 0.077072456 0.64600003 4291807166
0.18397512 0.076835871 0.64399999 4291609790
0.18520118 0.076837897 0.64399999 4291675583
0.18613783 0.076720595 0.64300001 4291807168
0.18736202 0.0767226 0.64300001 4291872961
0.18858624 0.076724596 0.64300001 4291742145
0.19107586 0.075777844 0.63499999 4291610305
0.19228487 0.075779781 0.63499999 4291610305
0.19349386 0.075781718 0.63499999 4291807166
0.19470285 0.075783633 0.63499999 4291872959
0.19591184 0.075785547 0.63499999 4291742145
0.19712083 0.075787447 0.63499999 4291610303
0.19832978 0.07578934 0.63499999 4291544510
0.19985297 0.075910583 0.63599998 4291544510
0.20074768 0.075793095 0.63499999 4291544510
0.20195661 0.075794958 0.63499999 4291478717
0.20316553 0.075796805 0.63499999 4291478717
0.20437446 0.075798638 0.63499999 4291347388
0.20590703 0.075919822 0.63599998 4291215547
0.20679218 0.075802274 0.63499999 4291215547
0.208001 0.075804062 0.63499999 4291149752
0.2092098 0.07580585 0.63499999 4291149752
0.21041857 0.075807609 0.63499999 4291215032
0.21129404 0.075689986 0.634 4291149239
0.21250089 0.07569173 0.634 4291149493
0.21370763 0.075693443 0.634 4291149493
0.21389744 0.075336963 0.63099998 4291149241
0.21509844 0.075338647 0.63099998 4291149241
0.2159566 0.07522092 0.63 4291149241
0.21715556 0.075222544 0.63 4291149241
0.21835454 0.075224176 0.63 4291149239
0.21955341 0.075225778 0.63 4291215032
0.22075228 0.075227365 0.63 4291149754
0.22230338 0.07534834 0.63099998 4291083961
0.22350402 0.075349897 0.63099998 4290887098
0.22470458 0.075351425 0.63099998 4290952891
0.22590512 0.075352944 0.63099998 4290952891
0.2274655 0.07547386 0.63200003 4290887098
0.2286678 0.07547532 0.63200003 4290624439
0.22986999 0.075476773 0.63200003 4290558646
0.23107216 0.075478211 0.63200003 4290492338
0.23300926 0.075718462 0.634 4290492338
0.23347625 0.07548099 0.63200003 4290557615
0.23467812 0.075482339 0.63200003 4290557615
0.23662642 0.075722545 0.634 4290426032
0.23783201 0.075723864 0.634 4290360238
0.23903744 0.075725153 0.634 4290096812
0.24024279 0.075726405 0.634 4290162605
0.24182892 0.075847082 0.63499999 4290097834
0.24303596 0.075848289 0.63499999 4289900455
0.24462755 0.075968921 0.63599998 4289964962
0.24583633 0.075970069 0.63599998 4289899169
0.24782181 0.076210089 0.63800001 4289636511
0.24903418 0.076211199 0.63800001 4289702304
0.25103089 0.076451182 0.63999999 4289768101
0.25264093 0.076571688 0.64099997 4289636515
0.25385857 0.076572694 0.64099997 4289242273
0.25706583 0.077170976 0.64600003 4289110687
0.2582927 0.077171937 0.64600003 4289044894
0.25992125 0.077292331 0.64700001 4288913307
0.26114979 0.077293225 0.64700001 4288585108
0.16794953 0.080327027 0.66299999 4291478715
0.16895615 0.080207996 0.662 4291478201
0.17021619 0.080210134 0.662 4291478201
0.17069912 0.079848751 0.65899998 4291610042
0.17064886 0.079245038 0.65399998 4291675835
0.17163089 0.079125971 0.653 4291610044
0.17287387 0.079128057 0.653 4291675837
0.17411691 0.079130165 0.653 4291675837
0.17535995 0.079132266 0.653 4291610044
0.176603 0.07913436 0.653 4291610044
0.17702903 0.07877288 0.64999998 4291610044
0.17799218 0.078653768 0.64899999 4291609790
0.17922768 0.078655839 0.64899999 4291543997
0.18046325 0.078657918 0.64899999 4291543999
0.18141878 0.078538783 0.648 4291543999
0.18208873 0.078298427 0.64600003 4291609790
0.1833186 0.078300484 0.64600003 4291609790
0.18397711 0.078060091 0.64399999 4291609790
0.18520318 0.078062125 0.64399999 4291609790
0.18642928 0.078064151 0.64399999 4291609792
0.19107781 0.076985039 0.63499999 4291477952
0.19228679 0.076986991 0.63499999 4291412158
0.19349578 0.076988928 0.63499999 4291675835
0.19470477 0.076990858 0.63499999 4291872957
0.19591375 0.07699278 0.63499999 4291676089
0.19712274 0.076994695 0.63499999 4291412660
0.19864401 0.077117845 0.63599998 4291478717
0.19985485 0.077119723 0.63599998 4291347388
0.20106572 0.077121608 0.63599998 4291215549
0.20227654 0.077123478 0.63599998 4291149500
0.20316738 0.077004083 0.63499999 4291018938
0.20437628 0.077005923 0.63499999 4291018938
0.20590886 0.077129014 0.63599998 4291149500
0.20711961 0.077130824 0.63599998 4291149500
0.20833033 0.077132635 0.63599998 4291149239
0.20921157 0.077013142 0.63499999 4291149239
0.21042033 0.077014916 0.63499999 4291083959
0.21162905 0.077016667 0.63499999 4290821043
0.21283776 0.07701841 0.63499999 4290952109
0.21404642 0.077020139 0.63499999 4291149489
0.21423815 0.076657981 0.63200003 4291083446
0.21510008 0.076538354 0.63099998 4290951859
0.21630104 0.076540023 0.63099998 4291083194
0.21750188 0.076541662 0.63099998 4291017401
0.21835613 0.076421991 0.63 4291149239
0.21955502 0.0764236 0.63 4291215032
0.22075388 0.076425187 0.63 4291083959
0.22195263 0.076426759 0.63 4290886837
0.22350554 0.076549612 0.63099998 4290755257
0.2247061 0.076551139 0.63099998 4290755257
0.22590661 0.076552652 0.63099998 4290623928
0.22746696 0.076675467 0.63200003 4290492342
0.22939289 0.076919571 0.634 4290557365
0.22987142 0.07667838 0.63200003 4290426036
0.23107359 0.076679811 0.63200003 4290557361
0.23301066 0.076923862 0.634 4290557361
0.2349553 0.077167906 0.63599998 4290557351
0.23616475 0.077169262 0.63599998 4290491558
0.23700096 0.077049255 0.63499999 4290294956
0.2382084 0.077050567 0.63499999 4290163627
0.24016984 0.077294543 0.63700002 4290096814
0.24138083 0.077295788 0.63700002 4290096814
0.24297261 0.077418372 0.63800001 4289900201
0.24418537 0.077419586 0.63800001 4289703078
0.24539801 0.077420756 0.63800001 4289703078
0.24661057 0.077421911 0.63800001 4289637285
0.24782294 0.077423014 0.63800001 4289506208
0.24981596 0.077666827 0.63999999 4289374879
0.16820499 0.081710264 0.66399997 4291281594
0.16921355 0.081589341 0.66299999 4291478455
0.17021832 0.081468433 0.662 4291412406
0.17070125 0.081101365 0.65899998 4291412406
0.17143378 0.080857366 0.65700001 4291346613
0.17189583 0.080490276 0.65399998 4291412408
0.1731407 0.080492385 0.65399998 4291610044
0.17438564 0.080494501 0.65399998 4291610044
0.17563058 0.080496617 0.65399998 4291543995
0.17660511 0.080375642 0.653 4291478201
0.1770311 0.08000847 0.64999998 4291478201
0.17799424 0.079887472 0.64899999 4291478204
0.17922975 0.079889558 0.64899999 4291478204
0.18046533 0.079891644 0.64899999 4291412410
0.18170086 0.079893723 0.64899999 4291543997
0.18209079 0.079526477 0.64600003 4291478717
0.18332064 0.079528533 0.64600003 4291478717
0.18397917 0.079284355 0.64399999 4291610044
0.18520524 0.079286397 0.64399999 4291543995
0.18987079 0.078190304 0.63499999 4291346363
0.19107978 0.078192279 0.63499999 4291412156
0.19228874 0.078194238 0.63499999 4291412156
0.19349772 0.078196175 0.63499999 4291412406
0.19470669 0.07819812 0.63499999 4291412406
0.19591568 0.07820005 0.63499999 4291346615
0.19712463 0.078201957 0.63499999 4291346615
0.19864589 0.078327022 0.63599998 4291478463
0.20017099 0.078452088 0.63700002 4291347134
0.20106755 0.0783308 0.63599998 4291084729
0.20227841 0.078332685 0.63599998 4291018936
0.20348918 0.078334548 0.63599998 4291149752
0.20469996 0.078336395 0.63599998 4291083959
0.2059107 0.078338236 0.63599998 4291083961
0.20712145 0.078340046 0.63599998 4291017912
0.20833212 0.078341857 0.63599998 4291017653
0.20954283 0.07834366 0.63599998 4291083446
0.21075347 0.07834544 0.63599998 4290886837
0.21163085 0.078224011 0.63499999 4290821043
0.21283951 0.078225754 0.63499999 4290952111
0.21472232 0.078473873 0.63700002 4291017904
0.21525678 0.078229204 0.63499999 4290951859
0.21544267 0.077861302 0.63200003 4291017653
0.21664548 0.077862963 0.63200003 4290886583
0.21784826 0.077864617 0.63200003 4290886583
0.21870434 0.077743039 0.63099998 4290820789
0.2195566 0.077621438 0.63 4290820789
0.22075543 0.077623025 0.63 4290754996
0.22195417 0.077624597 0.63 4290754996
0.22350708 0.077749349 0.63099998 4290623926
0.22506373 0.077874102 0.63200003 4290558133
0.22626615 0.077875614 0.63200003 4290492342
0.22746843 0.077877097 0.63200003 4290492342
0.22939432 0.078125015 0.634 4290557363
0.23096399 0.078249685 0.63499999 4290426034
0.23217183 0.078251101 0.63499999 4290360238
0.23374709 0.078375749 0.63599998 4290294445
0.23495667 0.078377128 0.63599998 4290228389
0.23616612 0.078378484 0.63599998 4290294182
0.23737553 0.07837981 0.63599998 4290097836
0.23858483 0.078381106 0.63599998 4290031787
0.24054812 0.078628875 0.63800001 4289900203
0.24176103 0.078630134 0.63800001 4289900203
0.24373552 0.078877851 0.63999999 4289834409
0.24495204 0.078879051 0.63999999 4289702824
0.24616843 0.078880221 0.63999999 4289637544
0.24738473 0.078881361 0.63999999 4289505958
0.24860092 0.078882471 0.63999999 4289505958
0.16820712 0.082972378 0.66399997 4291149754
0.16921569 0.082849592 0.66299999 4291346354
0.17022048 0.082726784 0.662 4291477940
0.17122146 0.082603969 0.66100001 4291412149
0.17169684 0.082231216 0.65799999 4291346100
0.17216077 0.081858426 0.65499997 4291346615
0.17340757 0.081860565 0.65499997 4291478201
0.17465442 0.081862688 0.65499997 4291478455
0.1756327 0.081739835 0.65399998 4291346613
0.17687768 0.081741951 0.65399998 4291346615
0.17757794 0.0814941 0.65200001 4291346615
0.17799634 0.081121214 0.64899999 4291346617
0.17923184 0.081123315 0.64899999 4291346617
0.18074545 0.081250414 0.64999998 4291412406
0.18198287 0.081252493 0.64999998 4291478455
0.18265659 0.081004575 0.648 4291412408
0.18360651 0.080881648 0.64700001 4291215286
0.18483828 0.080883719 0.64700001 4291412406
0.18607004 0.080885768 0.64700001 4291478455
0.19349965 0.079403467 0.63499999 4291215286
0.19470863 0.07940542 0.63499999 4291215286
0.19591761 0.079407357 0.63499999 4291017914
0.19712654 0.079409271 0.63499999 4291017914
0.19896017 0.07966131 0.63700002 4291083961
0.20048715 0.079788268 0.63800001 4291083961
0.20106944 0.079540037 0.63599998 4291083959
0.20228028 0.079541922 0.63599998 4291149752
0.20349105 0.079543792 0.63599998 4291150006
0.20470183 0.079545647 0.63599998 4291018164
0.20591253 0.07954748 0.63599998 4291017912
0.20712329 0.079549313 0.63599998 4290886583
0.20833394 0.079551116 0.63599998 4290886583
0.2095446 0.079552919 0.63599998 4290886583
0.21075523 0.079554699 0.63599998 4290821043
0.21163258 0.079431377 0.63499999 4290821043
0.21284126 0.079433128 0.63499999 4290821043
0.21472403 0.079685047 0.63700002 4290821043
0.21559747 0.079561658 0.63599998 4290951859
0.21680789 0.079563364 0.63599998 4290951859
0.21801831 0.079565041 0.63599998 4291018164
0.21922867 0.07956671 0.63599998 4291018164
0.22009237 0.079443231 0.63499999 4290754996
0.22130072 0.079444855 0.63499999 4290689203
0.22215867 0.079321347 0.634 4290689201
0.22336499 0.079322927 0.634 4290689201
0.2245713 0.079324484 0.634 4290557363
0.22577746 0.079326004 0.634 4290228398
0.22698367 0.079327516 0.634 4290294193
0.22854964 0.079454131 0.63499999 4290359986
0.23011942 0.079580717 0.63599998 4290425263
0.23132919 0.079582177 0.63599998 4290293934
0.23253891 0.079583608 0.63599998 4290294184
0.234116 0.079710126 0.63700002 4290294184
0.2356969 0.079836637 0.63800001 4290096553
0.2369101 0.079837985 0.63800001 4290096553
0.23886976 0.080089584 0.63999999 4289899689
0.24008663 0.080090895 0.63999999 4289767847
0.24130344 0.080092169 0.63999999 4289702824
0.24252014 0.080093421 0.63999999 4289702824
0.24449839 0.080344938 0.64200002 4289504932
0.24571867 0.080346137 0.64200002 4289307296
0.24693887 0.080347292 0.64200002 4289176482
0.16921785 0.08410985 0.66299999 4291147946
0.17022263 0.083985165 0.662 4291279275
0.17122366 0.083860472 0.66100001 4291279025
0.171699 0.08348202 0.65799999 4291344819
0.1726886 0.083357297 0.65700001 4291214516
0.17393923 0.08335945 0.65700001 4291214516
0.17518985 0.083361603 0.65700001 4291215284
0.17590337 0.083109975 0.65499997 4291149491
0.17687979 0.0829852 0.65399998 4291017137
0.17758004 0.082733564 0.65200001 4291148467
0.17882127 0.082735695 0.65200001 4291280055
0.18006244 0.082737818 0.65200001 4291280055
0.18130371 0.082739927 0.65200001 4291215032
0.18254495 0.082742035 0.65200001 4291478204
0.18322246 0.082490332 0.64999998 4291347385
0.18445991 0.082492411 0.64999998 4291150006
0.18626878 0.082748331 0.65200001 4291346615
0.18779765 0.082877338 0.653 4291346615
0.18904088 0.082879432 0.653 4291083444
0.19289832 0.080862716 0.63700002 4291149752
0.19411109 0.080864705 0.63700002 4291083959
0.19532384 0.080866635 0.63700002 4291083959
0.1965366 0.080868587 0.63700002 4290821303
0.19805978 0.080997482 0.63800001 4290821303
0.19927441 0.080999404 0.63800001 4291083961
0.20111753 0.081255242 0.63999999 4291083961
0.20170364 0.081003226 0.63800001 4290886837
0.20260021 0.080878153 0.63700002 4291018166
0.20381288 0.080880031 0.63700002 4290886837
0.20502554 0.080881901 0.63700002 4290886837
0.20623814 0.080883741 0.63700002 4290821043
0.2071251 0.080758601 0.63599998 4290821043
0.20833576 0.080760412 0.63599998 4290821043
0.2095464 0.080762208 0.63599998 4290821043
0.21075702 0.080763988 0.63599998 4290624178
0.21196763 0.080765761 0.63599998 4290624178
0.21317817 0.080767505 0.63599998 4290755248
0.21472576 0.080896243 0.63700002 4290755248
0.21593817 0.080897965 0.63700002 4290755248
0.21715049 0.080899663 0.63700002 4290689455
0.21836279 0.08090134 0.63700002 4290755248
0.21957502 0.080903001 0.63700002 4290689455
0.22078723 0.080904655 0.63700002 4290689203
0.22165084 0.080779262 0.63599998 4290623410
0.22251064 0.080653846 0.63499999 4290492592
0.22371885 0.080655441 0.63499999 4290492592
0.22492701 0.080656983 0.63499999 4290360240
0.22613513 0.080658525 0.63499999 4290294447
0.22770119 0.08078704 0.63599998 4290294447
0.22891106 0.080788538 0.63599998 4290360240
0.23048274 0.080917053 0.63700002 4290162605
0.23169437 0.080918483 0.63700002 4290162605
0.23290595 0.080919906 0.63700002 4290294184
0.23521999 0.081302404 0.63999999 4290162342
0.23643713 0.081303768 0.63999999 4289899939
0.23765413 0.081305131 0.63999999 4289899939
0.2388711 0.081306443 0.63999999 4289833894
0.24046308 0.081434779 0.64099997 4289768101
0.24168172 0.081436053 0.64099997 4289833896
0.24290031 0.081437297 0.64099997 4289767847
0.24526125 0.081819639 0.64399999 4289176734
0.24725081 0.082074955 0.64600003 4289110941
0.24847858 0.082076102 0.64600003 4289307039
0.24970624 0.082077235 0.64600003 4289175197
0.17022483 0.085243598 0.662 4290950826
0.17122582 0.085117005 0.66100001 4291016369
0.1719621 0.084861636 0.65899998 4291082162
0.17295362 0.084735036 0.65799999 4290951857
0.17420612 0.084737204 0.65799999 4290951857
0.17545867 0.084739365 0.65799999 4291017651
0.17644267 0.084612742 0.65700001 4291149493
0.17769332 0.084614895 0.65700001 4291017653
0.17839925 0.084359452 0.65499997 4290951859
0.17937191 0.084232815 0.65399998 4291017141
0.18061692 0.084234945 0.65399998 4290951092
0.18186197 0.084237084 0.65399998 4291017139
0.18310697 0.0842392 0.65399998 4291148469
0.18435208 0.084241308 0.65399998 4291017137
0.18559715 0.084243439 0.65399998 4290951344
0.18655655 0.084116727 0.653 4291017653
0.18779974 0.084118836 0.653 4291149239
0.19411306 0.082075827 0.63700002 4290820789
0.19532581 0.082077801 0.63700002 4290820789
0.19653855 0.082079761 0.63700002 4290885812
0.19806173 0.082210556 0.63800001 4290885812
0.19927634 0.082212478 0.63800001 4290951605
0.20111945 0.082472123 0.63999999 4290951605
0.20170556 0.082216322 0.63800001 4290886064
0.2026021 0.082089357 0.63700002 4290951857
0.20381477 0.082091235 0.63700002 4290821041
0.20502739 0.082093097 0.63700002 4290755248
0.20623998 0.082094945 0.63700002 4290755248
0.20712687 0.081967883 0.63599998 4290755248
0.20833756 0.081969708 0.63599998 4290755248
0.20987771 0.082100414 0.63700002 4290821041
0.21109019 0.082102194 0.63700002 4290755246
0.21263596 0.082232863 0.63800001 4290623660
0.21385029 0.082234614 0.63800001 4290623658
0.2150646 0.082236372 0.63800001 4290623658
0.21627888 0.082238093 0.63800001 4290623658
0.2174931 0.082239799 0.63800001 4290623658
0.21870725 0.082241476 0.63800001 4290623658
0.21992137 0.082243137 0.63800001 4290623658
0.22113544 0.082244776 0.63800001 4290557615
0.22234948 0.0822464 0.63800001 4290426286
0.22286263 0.081990182 0.63599998 4290557867
0.22407274 0.081991754 0.63599998 4290557867
0.22528277 0.081993312 0.63599998 4290426286
0.22649278 0.081994846 0.63599998 4290228650
0.22806075 0.082125284 0.63700002 4290360492
0.22927247 0.082126752 0.63700002 4290360492
0.2304842 0.082128227 0.63700002 4290228139
0.23278694 0.082516462 0.63999999 4290162346
0.2340042 0.082517877 0.63999999 4289900201
0.23558889 0.08264821 0.64099997 4289703078
0.23680788 0.082649581 0.64099997 4289898917
0.23802675 0.08265093 0.64099997 4289964710
0.23924561 0.082652241 0.64099997 4289504932
0.24046437 0.082653537 0.64099997 4289307296
0.24281412 0.083041631 0.64399999 4289373345
0.24403833 0.083042867 0.64399999 4289373345
0.24602418 0.083301984 0.64600003 4289175710
0.24725203 0.083303168 0.64600003 4288978587
0.24847972 0.083304323 0.64600003 4288912540
0.17148705 0.086504281 0.662 4290950574
0.17248616 0.086375788 0.66100001 4291016367
0.17321865 0.086116634 0.65899998 4290886066
0.17447306 0.086118802 0.65899998 4290754481
0.17546082 0.085990302 0.65799999 4290886064
0.17671338 0.085992478 0.65799999 4291017651
0.17796594 0.085994646 0.65799999 4291083446
0.17840143 0.085604735 0.65499997 4290951859
0.17964834 0.08560688 0.65499997 4290886066
0.18089522 0.085609026 0.65499997 4290754481
0.18297641 0.086003281 0.65799999 4290885551
0.18338913 0.08561331 0.65499997 4290885551
0.1843542 0.085484743 0.65399998 4291016619
0.18559927 0.085486867 0.65399998 4290950826
0.18655866 0.085358277 0.653 4290819758
0.18780184 0.085360385 0.653 4291148467
0.18904507 0.085362487 0.653 4291083961
0.19057965 0.085495308 0.65399998 4290886583
0.19153149 0.085366674 0.653 4290885812
0.19277468 0.085368745 0.653 4290754483
0.19401789 0.085370824 0.653 4290885551
0.19496213 0.085242152 0.65200001 4290885551
0.19620341 0.085244194 0.65200001 4290753711
0.19774753 0.085376978 0.653 4290819504
0.19899075 0.085378997 0.653 4290951092
0.20023397 0.085381031 0.653 4290885299
0.19777462 0.083813965 0.64099997 4290622897
0.19899499 0.083815932 0.64099997 4290622897
0.20021532 0.083817892 0.64099997 4290687920
0.20143563 0.083819821 0.64099997 4290687920
0.2023398 0.083690993 0.63999999 4290557102
0.20260398 0.083300576 0.63700002 4290688688
0.20381659 0.083302453 0.63700002 4290689455
0.20502925 0.083304316 0.63700002 4290689455
0.20624183 0.083306186 0.63700002 4290623406
0.20745444 0.083308019 0.63700002 4290623406
0.20866695 0.083309844 0.63700002 4290623406
0.2098795 0.083311677 0.63700002 4290426284
0.21330428 0.083707608 0.63999999 4290557867
0.21452242 0.083709359 0.63999999 4290623406
0.21574052 0.083711118 0.63999999 4290557613
0.21695858 0.083712831 0.63999999 4290426538
0.21817657 0.083714552 0.63999999 4290360488
0.21939455 0.083716236 0.63999999 4290491047
0.22061247 0.08371792 0.63999999 4290491047
0.22183032 0.083719566 0.63999999 4290294443
0.22304814 0.083721191 0.63999999 4290228650
0.2228642 0.083199508 0.63599998 4290425000
0.22407429 0.083201088 0.63599998 4290490793
0.22599274 0.083464287 0.63800001 4290360238
0.22685042 0.083335005 0.63700002 4290162859
0.22806223 0.083336502 0.63700002 4290228139
0.22927395 0.083337992 0.63700002 4290228139
0.23084746 0.083470285 0.63800001 4289834407
0.23278838 0.083733387 0.63999999 4289834407
0.23437124 0.08386562 0.64099997 4289834659
0.23595786 0.083997868 0.64200002 4289637281
0.2371787 0.083999224 0.64200002 4289571492
0.23839948 0.084000565 0.64200002 4289505443
0.23962018 0.084001884 0.64200002 4289307296
0.24234137 0.084526546 0.64600003 4289241503
0.24356943 0.084527805 0.64600003 4289241503
0.24479747 0.084529035 0.64600003 4289175710
0.24678701 0.084791921 0.648 4288912790
0.24801867 0.084793106 0.648 4288912790
0.24963477 0.0849251 0.64899999 4288912540
0.25086808 0.084926225 0.64899999 4288583832
0.25210124 0.084927291 0.64899999 4288254860
0.17427228 0.087899812 0.66299999 4290622643
0.17500474 0.087636836 0.66100001 4290688436
0.17626299 0.087639056 0.66100001 4290950826
0.17698409 0.087376051 0.65899998 4291016619
0.17823859 0.087378226 0.65899998 4290688942
0.17949305 0.087380432 0.65899998 4290688942
0.18074761 0.087382607 0.65899998 4290688688
0.18172593 0.087252177 0.65799999 4290622895
0.18297859 0.087254338 0.65799999 4290819497
0.18423121 0.087256491 0.65799999 4290950826
0.18463822 0.086860821 0.65499997 4290950826
0.18588518 0.086862952 0.65499997 4290950826
0.18713216 0.086865082 0.65499997 4290687918
0.18837917 0.086867206 0.65499997 4290753711
0.18933666 0.086736709 0.65399998 4290556850
0.19058174 0.08673881 0.65399998 4290491056
0.19153358 0.086608268 0.653 4290688688
0.19277674 0.086610369 0.653 4290754481
0.19401996 0.086612441 0.653 4290819245
0.19496417 0.086481877 0.65200001 4290753452
0.19620547 0.086483933 0.65200001 4290491054
0.19744676 0.086485974 0.65200001 4290557104
0.19868806 0.086488008 0.65200001 4290557104
0.19992933 0.086490028 0.65200001 4290491054
0.20117059 0.086492047 0.65200001 4290557102
0.2011701 0.085963398 0.648 4290622895
0.20240369 0.085965373 0.648 4290557100
0.20143755 0.085038677 0.64099997 4290425513
0.2026578 0.085040599 0.64099997 4290557102
0.20387807 0.085042514 0.64099997 4290688688
0.20745626 0.084519289 0.63700002 4290557349
0.20866881 0.08452113 0.63700002 4290491560
0.20988129 0.084522933 0.63700002 4290425511
0.21397267 0.085189983 0.64200002 4290228652
0.21519458 0.085191756 0.64200002 4290228650
0.21607934 0.08506079 0.64099997 4290228650
0.21729925 0.085062519 0.64099997 4290228650
0.21851915 0.08506424 0.64099997 4290228650
0.21973902 0.085065916 0.64099997 4290425511
0.22095878 0.0850676 0.64099997 4290294182
0.22217858 0.085069254 0.64099997 4290294184
0.22339822 0.085070878 0.64099997 4290294184
0.22426744 0.084939763 0.63999999 4290294184
0.22478049 0.084675893 0.63800001 4290228391
0.22599432 0.084677458 0.63800001 4290162346
0.22720806 0.084678993 0.63800001 4289964710
0.22842175 0.08468049 0.63800001 4289965481
0.22963537 0.08468198 0.63800001 4289965481
0.23157257 0.084948897 0.63999999 4289899937
0.23315355 0.085083053 0.64099997 4289899937
0.23437262 0.085084461 0.64099997 4289965212
0.2359592 0.085218601 0.64200002 4289570454
0.23754947 0.085352689 0.64300001 4289242527
0.23877212 0.085354015 0.64300001 4289044892
0.24111444 0.08575356 0.64600003 4289175710
0.24234262 0.085754842 0.64600003 4288978587
0.24432474 0.086021587 0.648 4288913303
0.24593551 0.086155571 0.64899999 4288847510
0.24716906 0.086156741 0.64899999 4288846997
0.24840252 0.086157911 0.64899999 4288781204
0.24963589 0.086159043 0.64899999 4288123027
0.25086915 0.086160146 0.64899999 4287399303
0.25210226 0.086161211 0.64899999 4287006081
0.17553648 0.089162529 0.66299999 4290556850
0.17679848 0.089164741 0.66299999 4290819497
0.17806055 0.089166954 0.66299999 4290753447
0.17932267 0.089169182 0.66299999 4290687406
0.18058473 0.089171372 0.66299999 4290818993
0.18184689 0.089173578 0.66299999 4290622895
0.18283282 0.08904127 0.662 4290425515
0.18381499 0.088908941 0.66100001 4290556070
0.18507335 0.088911116 0.66100001 4290556070
0.18520418 0.088375241 0.65700001 4290490021
0.18645492 0.088377394 0.65700001 4290556070
0.18713431 0.088110492 0.65499997 4290687404
0.1883813 0.08811263 0.65499997 4290621611
0.18933879 0.087980233 0.65399998 4290555564
0.19058385 0.087982342 0.65399998 4290687406
0.19153567 0.087849937 0.653 4290688690
0.19277883 0.087852009 0.653 4290557104
0.19402203 0.087854095 0.653 4290621611
0.19496623 0.087721653 0.65200001 4290621611
0.19620751 0.08772371 0.65200001 4290621611
0.1974488 0.087725751 0.65200001 4290687404
0.19869006 0.087727793 0.65200001 4290426032
0.19931807 0.087460704 0.64999998 4290294445
0.19993843 0.087193608 0.648 4290358955
0.2011721 0.087195598 0.648 4290358955
0.20240568 0.087197587 0.648 4290358955
0.20143948 0.086257569 0.64099997 4290424748
0.20265976 0.086259492 0.64099997 4290425513
0.20388 0.086261414 0.64099997 4290294184
0.21519634 0.086412564 0.64200002 4290293412
0.21608107 0.086279713 0.64099997 4290293412
0.21730098 0.086281434 0.64099997 4290293414
0.21886179 0.086417772 0.64200002 4290293414
0.22008352 0.086419456 0.64200002 4290162342
0.22130515 0.08642111 0.64200002 4290228391
0.2225268 0.086422771 0.64200002 4290097836
0.22374836 0.086424395 0.64200002 4289965994
0.22461946 0.086291373 0.64099997 4289964710
0.22583899 0.086292952 0.64099997 4289964710
0.22705851 0.086294502 0.64099997 4289964710
0.22827792 0.086296044 0.64099997 4289767588
0.2294973 0.086297549 0.64099997 4289702056
0.2307166 0.086299025 0.64099997 4289636263
0.23193583 0.086300477 0.64099997 4289439902
0.233155 0.08630193 0.64099997 4289242779
0.23510535 0.08657261 0.64300001 4289504411
0.23632811 0.086573973 0.64300001 4289307289
0.23792025 0.086709969 0.64399999 4289109401
0.23914479 0.08671131 0.64399999 4289109401
0.24346928 0.0873871 0.64899999 4288978333
0.24470301 0.087388344 0.64899999 4288716183
0.24631564 0.087524213 0.64999998 4288518548
0.24755105 0.08752539 0.64999998 4288320653
0.24840367 0.087391883 0.64899999 4288057737
0.24963701 0.087393016 0.64899999 4287531652
0.2508702 0.087394081 0.64899999 4287663239
0.25210333 0.087395146 0.64899999 4287796887
0.17580347 0.090559483 0.66399997 4290228398
0.17706738 0.090561703 0.66399997 4290162848
0.17833135 0.090563923 0.66399997 4290294434
0.17959534 0.090566151 0.66399997 4290491056
0.18058698 0.090431981 0.66299999 4290556850
0.18157481 0.090297796 0.662 4290557102
0.18283503 0.090299994 0.662 4290425515
0.18409531 0.090302199 0.662 4290424748
0.18535553 0.090304382 0.662 4290424748
0.18577012 0.089897312 0.65899998 4290358955
0.18674089 0.089763075 0.65799999 4290358955
0.18799357 0.089765221 0.65799999 4290489771
0.18895863 0.089630954 0.65700001 4290489771
0.19020945 0.089633085 0.65700001 4290621861
0.19058597 0.089225926 0.65399998 4290687654
0.19153777 0.089091621 0.653 4290424748
0.19278093 0.089093722 0.653 4290293162
0.19402412 0.089095809 0.653 4290358444
0.19496828 0.088961445 0.65200001 4290621359
0.19620955 0.088963501 0.65200001 4290490021
0.19745085 0.088965565 0.65200001 4290358692
0.19869213 0.088967614 0.65200001 4290227621
0.19932008 0.088696726 0.64999998 4290096035
0.19994044 0.08842583 0.648 4290096035
0.20086363 0.088291384 0.64700001 4290227621
0.2020953 0.088293344 0.64700001 4290096553
0.20301275 0.088158838 0.64600003 4290096553
0.20297787 0.087614916 0.64200002 4290228387
0.20420003 0.087616839 0.64200002 4290294436
0.20542209 0.087618731 0.64200002 4290359459
0.21553329 0.087769903 0.64300001 4290227619
0.21675704 0.087771654 0.64300001 4290030496
0.21798074 0.08777339 0.64300001 4289964962
0.21920435 0.087775096 0.64300001 4290030755
0.2200852 0.087640285 0.64200002 4290030755
0.22130686 0.087641969 0.64200002 4290030755
0.22287507 0.087780125 0.64300001 4289702056
0.22375001 0.087645233 0.64200002 4289636263
0.22462104 0.087510288 0.64099997 4289767334
0.22584055 0.087511867 0.64099997 4289898919
0.22706008 0.087513432 0.64099997 4289571492
0.22827947 0.087514952 0.64099997 4289373856
0.22985683 0.087652981 0.64200002 4289372839
0.23107801 0.087654471 0.64200002 4289307046
0.23669703 0.087933198 0.64399999 4288977815
0.2379216 0.087934531 0.64399999 4288846488
0.24508128 0.088758916 0.64999998 4288057997
0.24631681 0.08876013 0.64999998 4287597446
0.24755223 0.0887613 0.64999998 4287333760
0.24878754 0.088762432 0.64999998 4287860104
0.25002274 0.088763535 0.64999998 4288782239
0.17580567 0.091821983 0.66399997 4290426297
