# .PCD v0.7 - Point Cloud Data file format
VERSION 0.7
FIELDS x y z rgba
SIZE 4 4 4 4
TYPE F F F U
COUNT 1 1 1 1
WIDTH 1063
HEIGHT 1
VIEWPOINT 0 0 0 1 0 0 0
POINTS 1063
DATA ascii
-0.18919033 0.034210127 0.75700003 4292794843
-0.18774846 0.034208529 0.75700003 4288978849
-0.18630664 0.034206938 0.75700003 4283381397
-0.18486491 0.034205355 0.75700003 4282197379
-0.31390837 0.034006413 0.71899998 4294967295
-0.31254303 0.034005251 0.71899998 4293454576
-0.31117755 0.034004074 0.71899998 4291415770
-0.30895001 0.033908296 0.71700001 4290823633
-0.30715892 0.033859808 0.71600002 4291479487
-0.30494431 0.033764016 0.71399999 4292202953
-0.30188671 0.033573642 0.70999998 4292465612
-0.30053735 0.033572409 0.70999998 4292597198
-0.29834506 0.033476602 0.708 4292663245
-0.2965796 0.033428065 0.70700002 4292926161
-0.2952354 0.033426799 0.70700002 4292861140
-0.29347536 0.033378247 0.70599997 4292795347
-0.29130521 0.033282414 0.704 4292926165
-0.28955439 0.033233844 0.70300001 4292926165
-0.28821716 0.03323254 0.70300001 4293057751
-0.28687984 0.033231229 0.70300001 4293057751
-0.28473002 0.033135366 0.70099998 4292991958
-0.28299189 0.033086762 0.69999999 4293123544
-0.28165987 0.033085428 0.69999999 4293255644
-0.2795268 0.032989554 0.69800001 4293189851
-0.2781983 0.032988198 0.69800001 4293386716
-0.27686971 0.032986831 0.69800001 4293189337
-0.27554101 0.032985456 0.69800001 4293189337
-0.27421215 0.03298407 0.69800001 4293255131
-0.27288324 0.032982677 0.69800001 4293452509
-0.2715542 0.032981277 0.69800001 4293452509
-0.27022508 0.032979868 0.69800001 4293518815
-0.26851061 0.032931205 0.69700003 4293518815
-0.26718315 0.032929778 0.69700003 4293518815
-0.2654742 0.032881103 0.69599998 4293518815
-0.26414853 0.032879665 0.69599998 4293584610
-0.26206756 0.032783743 0.69400001 4293584610
-0.2607455 0.032782294 0.69400001 4293584608
-0.25904956 0.032733604 0.69300002 4293650402
-0.25772929 0.032732148 0.69300002 4293650402
-0.2567789 0.032777909 0.69400001 4293650402
-0.2554566 0.032776438 0.69400001 4293847267
-0.25413421 0.032774955 0.69400001 4293847267
-0.25281173 0.032773465 0.69400001 4293715682
-0.25148922 0.032771975 0.69400001 4293913060
-0.25016665 0.032770477 0.69400001 4293782244
-0.24956118 0.032863408 0.69599998 4293782244
-0.24823469 0.032861896 0.69599998 4293782503
-0.2469082 0.03286038 0.69599998 4293716710
-0.24558164 0.03285886 0.69599998 4293519588
-0.24460602 0.03290455 0.69700003 4293782503
-0.24292839 0.032855801 0.69599998 4293782503
-0.24160171 0.03285427 0.69599998 4293716710
-0.240275 0.032852732 0.69599998 4293781990
-0.23894827 0.032851189 0.69599998 4293781990
-0.23796295 0.032896843 0.69700003 4293847013
-0.23663428 0.032895301 0.69700003 4293978599
-0.23530556 0.032893743 0.69700003 4293848037
-0.23431252 0.032939378 0.69800001 4293782244
-0.23364943 0.033032194 0.69999999 4293848037
-0.23231491 0.033030622 0.69999999 4293782244
-0.23131038 0.033076242 0.70099998 4293847267
-0.22997399 0.033074658 0.70099998 4293847267
-0.22863758 0.033073086 0.70099998 4293847267
-0.22794966 0.033165861 0.70300001 4293913060
-0.22660942 0.033164281 0.70300001 4293848037
-0.2252692 0.033162694 0.70300001 4293782244
-0.22424747 0.033208281 0.704 4293847267
-0.22290534 0.033206686 0.704 4293584095
-0.22156318 0.033205096 0.704 4293518302
-0.22084667 0.033297829 0.70599997 4293386716
-0.21981168 0.033343397 0.70700002 4293255131
-0.21846385 0.033341799 0.70700002 4293189337
-0.217116 0.033340197 0.70700002 4293189591
-0.21607338 0.03338575 0.708 4293386714
-0.21472369 0.033384152 0.708 4293386716
-0.21397676 0.033476844 0.70999998 4293584095
-0.2129228 0.033522394 0.71100003 4293584095
-0.21216254 0.033615075 0.713 4293518302
-0.21080342 0.033613466 0.713 4293386716
-0.2094443 0.033611856 0.713 4293452509
-0.20837705 0.033657391 0.71399999 4293452509
-0.20788595 0.033797197 0.71700001 4293452509
-0.20709537 0.033889852 0.71899998 4293518302
-0.20601106 0.033935368 0.72000003 4293452509
-0.20463878 0.033933755 0.72000003 4293255383
-0.20411342 0.03407352 0.72299999 4293386712
-0.20329635 0.034166157 0.72500002 4293386712
-0.20247157 0.034258779 0.727 4293386712
-0.20136271 0.03430428 0.72799999 4293190105
-0.20052475 0.034396902 0.73000002 4293124055
-0.19913365 0.034395278 0.73000002 4293189591
-0.19801342 0.034440771 0.73100001 4293057749
-0.19662049 0.03443915 0.73100001 4292794834
-0.19576176 0.03453175 0.73299998 4292729040
-0.19569093 0.034765679 0.73799998 4292793809
-0.19454806 0.034811161 0.73900002 4292793809
-0.19366278 0.034903746 0.741 4292597198
-0.1930294 0.035043433 0.74400002 4292597198
-0.19161199 0.035041809 0.74400002 4292597198
-0.18968338 0.034945995 0.74199998 4292597198
-0.18826987 0.034944385 0.74199998 4292729040
-0.18685648 0.034942776 0.74199998 4293189591
-0.18919195 0.035647538 0.75700003 4292729048
-0.18775007 0.03564591 0.75700003 4284373593
-0.31297892 0.035421249 0.72000003 4294967295
-0.31161153 0.035420083 0.72000003 4293257722
-0.30981299 0.035369705 0.71899998 4290691795
-0.30758911 0.035270121 0.71700001 4290691770
-0.30579972 0.035219729 0.71600002 4291744201
-0.30231315 0.034972567 0.71100003 4292268489
-0.30096191 0.034971345 0.71100003 4292268489
-0.29918906 0.034920916 0.70999998 4292663497
-0.29700035 0.034821302 0.708 4292729290
-0.29523665 0.034770858 0.70700002 4292729036
-0.29347667 0.034720406 0.70599997 4292795086
-0.29213405 0.034719117 0.70599997 4292926163
-0.28996757 0.034619473 0.704 4292794834
-0.28821847 0.034568999 0.70300001 4292991956
-0.28688112 0.034567684 0.70300001 4293057749
-0.28554371 0.034566365 0.70300001 4292991958
-0.28420609 0.034565024 0.70300001 4292991958
-0.2820636 0.034465346 0.70099998 4293057751
-0.28032908 0.034414824 0.69999999 4293123544
-0.2789968 0.034413464 0.69999999 4293123542
-0.27766436 0.03441209 0.69999999 4293189591
-0.27633187 0.034410708 0.69999999 4293123544
-0.27421355 0.034311 0.69800001 4293057751
-0.27288464 0.034309607 0.69800001 4293255133
-0.2715556 0.034308195 0.69800001 4293255133
-0.27022645 0.034306776 0.69800001 4293452509
-0.26889727 0.034305356 0.69800001 4293584095
-0.26718462 0.034254778 0.69700003 4293518815
-0.26547566 0.034204185 0.69599998 4293387486
-0.26414999 0.034202743 0.69599998 4293518815
-0.26282424 0.034201287 0.69599998 4293584608
-0.26074696 0.03410155 0.69400001 4293584608
-0.25942481 0.034100085 0.69400001 4293584608
-0.25810263 0.03409861 0.69400001 4293650402
-0.25678039 0.034097131 0.69400001 4293650402
-0.25545806 0.034095645 0.69400001 4293715936
-0.25413567 0.034094151 0.69400001 4293847265
-0.25281325 0.034092657 0.69400001 4293715682
-0.25149074 0.034091152 0.69400001 4293847267
-0.25016823 0.034089644 0.69400001 4293649890
-0.24956268 0.034186356 0.69599998 4293649890
-0.24823622 0.034184828 0.69599998 4293649890
-0.24690974 0.034183305 0.69599998 4293649890
-0.24558318 0.034181762 0.69599998 4293584610
-0.24460755 0.034229334 0.69700003 4293584610
-0.24292995 0.034178674 0.69599998 4293584610
-0.24160326 0.034177121 0.69599998 4293387232
-0.24062182 0.034224674 0.69700003 4293584097
-0.2392932 0.034223113 0.69700003 4293847013
-0.23830593 0.03427064 0.69800001 4293715682
-0.23663583 0.034219977 0.69700003 4293649888
-0.23530713 0.034218404 0.69700003 4293715684
-0.23431407 0.034265921 0.69800001 4293715684
-0.233651 0.034362517 0.69999999 4293715684
-0.23231649 0.034360927 0.69999999 4293715684
-0.23131198 0.034408417 0.70099998 4293715682
-0.23063171 0.034504991 0.70300001 4293847267
-0.22929145 0.034503385 0.70300001 4293715682
-0.22827551 0.034550857 0.704 4293715682
-0.22693336 0.034549255 0.704 4293847267
-0.22559123 0.034547642 0.704 4293715682
-0.22488612 0.034644172 0.70599997 4293715682
-0.2235402 0.034642555 0.70599997 4293584095
-0.22250897 0.034690004 0.70700002 4293584095
-0.22116113 0.034688383 0.70700002 4293452509
-0.21981326 0.034686759 0.70700002 4293386716
-0.21846546 0.034685139 0.70700002 4293255131
-0.21742471 0.034732569 0.708 4293255637
-0.21607499 0.034730941 0.708 4293386966
-0.21533188 0.034827419 0.70999998 4293386716
-0.2142798 0.034874845 0.71100003 4293452509
-0.21292441 0.03487321 0.71100003 4293518300
-0.21216419 0.034969669 0.713 4293518300
-0.21080506 0.03496803 0.713 4293386716
-0.20944592 0.034966398 0.713 4293452509
-0.20837869 0.035013799 0.71399999 4293386716
-0.20788756 0.035159279 0.71700001 4293189337
-0.20709699 0.035255704 0.71899998 4293255131
-0.20601271 0.035303097 0.72000003 4293386716
-0.20464039 0.035301454 0.72000003 4293255385
-0.20411506 0.035446893 0.72299999 4293189591
-0.20329796 0.0355433 0.72500002 4293189589
-0.20247324 0.035639696 0.727 4293123796
-0.20136437 0.035687063 0.72799999 4293189587
-0.2005264 0.035783455 0.73000002 4293189587
-0.19940808 0.035830822 0.73100001 4292992210
-0.19801508 0.035829164 0.73100001 4292729038
-0.19716007 0.035925541 0.73299998 4292728786
-0.19656461 0.036070921 0.736 4292728786
-0.19569254 0.036167283 0.73799998 4292728786
-0.19507621 0.036312647 0.741 4292597200
-0.19392575 0.036359992 0.74199998 4292597198
-0.19303104 0.036456343 0.74400002 4292531405
-0.19161363 0.036454692 0.74400002 4292531655
-0.19019629 0.036453042 0.74400002 4292531655
-0.18877898 0.036451403 0.74400002 4292072389
-0.18736176 0.03644976 0.74400002 4291677632
-0.31384948 0.036892161 0.722 4294967295
-0.31247827 0.036891002 0.722 4294310655
-0.31024507 0.036787637 0.72000003 4291284184
-0.30844831 0.036735352 0.71899998 4290822338
-0.30622804 0.036631972 0.71700001 4291743440
-0.30358994 0.036477484 0.71399999 4292137162
-0.30096313 0.036323 0.71100003 4292268749
-0.29919028 0.036270678 0.70999998 4292465610
-0.2970016 0.036167264 0.708 4292531659
-0.29523799 0.036114931 0.70700002 4292465864
-0.29389367 0.036113661 0.70700002 4292729036
-0.29213536 0.036061298 0.70599997 4292991956
-0.28996885 0.035957851 0.704 4292926163
-0.28862977 0.03595655 0.704 4292793809
-0.28729054 0.035955235 0.704 4292859602
-0.28554502 0.035902835 0.70300001 4292728786
-0.28420743 0.035901502 0.70300001 4292794580
-0.28206491 0.035798013 0.70099998 4292991956
-0.28033042 0.035745595 0.69999999 4293057749
-0.27899814 0.035744224 0.69999999 4293123542
-0.27766576 0.035742853 0.69999999 4293123542
-0.27633327 0.035741463 0.69999999 4293123544
-0.27500069 0.035740074 0.69999999 4293189337
-0.27366793 0.035738654 0.69999999 4293189337
-0.271557 0.035635136 0.69800001 4293189337
-0.27022794 0.035633713 0.69800001 4293123546
-0.2688987 0.035632279 0.69800001 4293386462
-0.26718605 0.035579793 0.69700003 4293255644
-0.26547709 0.035527293 0.69599998 4293255644
-0.26415145 0.035525844 0.69599998 4293255644
-0.26282567 0.035524376 0.69599998 4293518815
-0.26074839 0.035420831 0.69400001 4293453538
-0.25942633 0.035419356 0.69400001 4293387745
-0.25810412 0.03541787 0.69400001 4293453540
-0.25678188 0.03541638 0.69400001 4293453540
-0.25545955 0.035414886 0.69400001 4293584608
-0.25413719 0.035413373 0.69400001 4293650402
-0.25281477 0.035411868 0.69400001 4293650402
-0.25149226 0.035410345 0.69400001 4293584608
-0.25089067 0.035510864 0.69599998 4293584095
-0.24956425 0.035509329 0.69599998 4293584095
-0.24859449 0.035558809 0.69700003 4293584095
-0.24726602 0.035557255 0.69700003 4293584095
-0.24593757 0.035555698 0.69700003 4293584095
-0.24460909 0.035554145 0.69700003 4293649888
-0.24328057 0.035552576 0.69700003 4293649890
-0.24195197 0.035551008 0.69700003 4293386462
-0.2406234 0.035549432 0.69700003 4293386716
-0.23929474 0.035547849 0.69700003 4293518302
-0.23830751 0.035597265 0.69800001 4293518302
-0.23697689 0.035595678 0.69800001 4293518302
-0.23564629 0.035594083 0.69800001 4293649888
-0.23498704 0.035694465 0.69999999 4293649888
-0.23365258 0.035692863 0.69999999 4293649888
-0.23264997 0.035742242 0.70099998 4293715682
-0.23197354 0.035842605 0.70300001 4293584608
-0.23063335 0.035840981 0.70300001 4293584608
-0.22961926 0.035890341 0.704 4293649888
-0.22827715 0.035888713 0.704 4293715682
-0.22757968 0.035989031 0.70599997 4293847267
-0.22623372 0.035987388 0.70599997 4293715682
-0.22488774 0.035985753 0.70599997 4293518302
-0.22385848 0.036035087 0.70700002 4293518302
-0.22251059 0.03603344 0.70700002 4293452509
-0.22116277 0.036031794 0.70700002 4293452509
-0.22012579 0.036081109 0.708 4293452509
-0.21877611 0.036079463 0.708 4293386716
-0.21804054 0.036179725 0.70999998 4293255383
-0.21668701 0.036178067 0.70999998 4293386712
-0.2156368 0.036227368 0.71100003 4293386716
-0.21428142 0.036225714 0.71100003 4293452509
-0.21292606 0.036224052 0.71100003 4293518302
-0.21216583 0.036324285 0.713 4293452509
-0.21080674 0.036322627 0.713 4293386714
-0.20944756 0.036320962 0.713 4293386714
-0.20838039 0.036370248 0.71399999 4293255385
-0.20846908 0.036623262 0.71899998 4293189591
-0.20738669 0.036672525 0.72000003 4293255131
-0.20601432 0.036670856 0.72000003 4293123544
-0.20521051 0.036771044 0.722 4293057751
-0.20468138 0.036922153 0.72500002 4293123544
-0.20329963 0.036920473 0.72500002 4293058264
-0.20247494 0.037020646 0.727 4293058264
-0.20136601 0.037069883 0.72799999 4293058262
-0.20052806 0.037170041 0.73000002 4292926933
-0.19940972 0.037219279 0.73100001 4292662991
-0.19801673 0.037217602 0.73100001 4292729040
-0.19716172 0.037317745 0.73299998 4292729040
-0.19656628 0.037468795 0.736 4292662991
-0.19595936 0.037619829 0.73900002 4292662993
-0.19534115 0.03777086 0.74199998 4292597200
-0.19445013 0.037870977 0.74400002 4292400589
-0.19355163 0.037971087 0.74599999 4292334796
-0.19238792 0.038020298 0.74699998 4292465864
-0.19070922 0.037967719 0.74599999 4292268485
-0.18928809 0.037966039 0.74599999 4291416004
-0.18786706 0.037964366 0.74599999 4290758330
-0.31428534 0.038317699 0.72299999 4294967295
-0.31291226 0.038316548 0.72299999 4294967295
-0.31110805 0.038262382 0.722 4293256941
-0.30887851 0.038155213 0.72000003 4291548124
-0.3075105 0.038154021 0.72000003 4290889937
-0.30486676 0.037993837 0.71700001 4291808198
-0.30181095 0.037780661 0.713 4292137162
-0.29961294 0.037673451 0.71100003 4292466116
-0.29700288 0.037513256 0.708 4292531909
-0.29523924 0.03745902 0.70700002 4292400589
-0.29389489 0.037457749 0.70700002 4292597711
-0.29213661 0.037403494 0.70599997 4292926413
-0.29079393 0.037402201 0.70599997 4292926413
-0.28863108 0.03729495 0.704 4292662991
-0.28729188 0.037293632 0.704 4292729040
-0.28595251 0.037292305 0.704 4292728786
-0.28461304 0.037290964 0.704 4292728786
-0.28287107 0.03723665 0.70300001 4292795347
-0.2807323 0.037129354 0.70099998 4292795347
-0.27939811 0.037127983 0.70099998 4292991956
-0.2780638 0.037126597 0.70099998 4292991956
-0.27672943 0.037125207 0.70099998 4293057751
-0.27500206 0.037070844 0.69999999 4293189337
-0.27366936 0.037069429 0.69999999 4293189337
-0.27233654 0.037068006 0.69999999 4293123544
-0.27022934 0.036960673 0.69800001 4293255135
-0.26890013 0.036959231 0.69800001 4293255135
-0.26757079 0.036957782 0.69800001 4293255131
-0.26586002 0.036903381 0.69700003 4293255131
-0.26453242 0.036901906 0.69700003 4293255644
-0.26320478 0.036900435 0.69700003 4293255644
-0.26150134 0.036846012 0.69599998 4293255648
-0.25942779 0.036738649 0.69400001 4293189599
-0.25810561 0.036737151 0.69400001 4293321187
-0.25678343 0.036735658 0.69400001 4293518565
-0.2554611 0.036734145 0.69400001 4293518813
-0.25413871 0.036732625 0.69400001 4293518813
-0.25281629 0.036731098 0.69400001 4293518813
-0.25221851 0.036835413 0.69599998 4293518813
-0.25089219 0.036833875 0.69599998 4293584095
-0.24992439 0.036885247 0.69700003 4293649888
-0.24895269 0.036936603 0.69800001 4293584093
-0.24762231 0.036935035 0.69800001 4293584093
-0.24629202 0.036933467 0.69800001 4293584095
-0.24496159 0.036931887 0.69800001 4293518302
-0.24363117 0.0369303 0.69800001 4293518300
-0.2423007 0.036928717 0.69800001 4293255385
-0.24097018 0.036927119 0.69800001 4293452507
-0.23963965 0.036925521 0.69800001 4293452507
-0.23830909 0.036923923 0.69800001 4293452507
-0.2369785 0.03692231 0.69800001 4293518300
-0.23564787 0.036920696 0.69800001 4293518302
-0.23498866 0.037024867 0.69999999 4293518302
-0.23398797 0.037076134 0.70099998 4293584095
-0.23265161 0.037074503 0.70099998 4293715682
-0.23197515 0.037178643 0.70300001 4293649888
-0.23063496 0.037176996 0.70300001 4293584095
-0.2296209 0.037228238 0.704 4293650142
-0.22892727 0.037332341 0.70599997 4293584093
-0.22758129 0.037330683 0.70599997 4293584095
-0.22655587 0.037381906 0.70700002 4293584095
-0.22520794 0.037380237 0.70700002 4293518302
-0.22386011 0.037378572 0.70700002 4293386716
-0.22282696 0.037429772 0.708 4293386716
-0.22147723 0.0374281 0.708 4293386716
-0.22012748 0.037426434 0.708 4293386716
-0.21939574 0.037530478 0.70999998 4293255131
-0.21804219 0.037528798 0.70999998 4293386714
-0.21699393 0.03757998 0.71100003 4293386714
-0.2156385 0.037578296 0.71100003 4293452507
-0.21428308 0.037576616 0.71100003 4293452507
-0.21292774 0.037574932 0.71100003 4293386712
-0.21216749 0.037678935 0.713 4293255383
-0.2108084 0.037677255 0.713 4293255383
-0.20974302 0.037728406 0.71399999 4293123796
-0.20896573 0.037832398 0.71600002 4293189589
-0.20847078 0.037989214 0.71899998 4293189589
-0.20738839 0.038040347 0.72000003 4293057751
-0.20601602 0.038038649 0.72000003 4292991958
-0.20521219 0.038142607 0.722 4292991958
-0.20468307 0.038299389 0.72500002 4292794580
-0.20330136 0.03829769 0.72500002 4292728788
-0.20247658 0.038401622 0.727 4292662995
-0.20192093 0.038558379 0.73000002 4292728786
-0.20052975 0.038556665 0.73000002 4292794580
-0.19941142 0.038607772 0.73100001 4292729038
-0.19856018 0.038711689 0.73299998 4292663245
-0.19716342 0.038709987 0.73299998 4292597452
-0.1971021 0.038972314 0.73799998 4292202694
-0.19649142 0.039129023 0.741 4292202442
-0.1958694 0.039285719 0.74400002 4292202442
-0.1949746 0.039389595 0.74599999 4292268485
-0.19381276 0.039440669 0.74699998 4292071106
-0.19238962 0.039438955 0.74699998 4291676613
-0.19096655 0.039437238 0.74699998 4291479235
-0.18954352 0.039435528 0.74699998 4291151036
-0.31515583 0.039801948 0.72500002 4294967295
-0.313779 0.039800804 0.72500002 4294967295
-0.31154013 0.03968985 0.72299999 4294507005
-0.30973768 0.039633781 0.722 4292994799
-0.30751175 0.039522808 0.72000003 4291416024
-0.30486801 0.039356925 0.71700001 4291019197
-0.30181214 0.039136153 0.713 4291479748
-0.29961416 0.03902515 0.71100003 4292004548
-0.2970041 0.038859252 0.708 4292267719
-0.29565805 0.038858004 0.708 4292334794
-0.2938962 0.038801864 0.70700002 4292466636
-0.29255173 0.03880059 0.70700002 4292466634
-0.29079521 0.038744412 0.70599997 4292466634
-0.28945231 0.038743109 0.70599997 4292136647
-0.28810939 0.038741797 0.70599997 4292662991
-0.28676623 0.038740467 0.70599997 4292729300
-0.28461441 0.038629383 0.704 4292663506
-0.28287241 0.038573157 0.70300001 4292729300
-0.28153458 0.03857179 0.70300001 4292795093
-0.27939945 0.038460683 0.70099998 4292926163
-0.2780652 0.038459297 0.70099998 4292926163
-0.27673084 0.0384579 0.70099998 4292926165
-0.27500352 0.038401641 0.69999999 4293057751
-0.27367076 0.038400218 0.69999999 4293057751
-0.27233794 0.038398787 0.69999999 4293123544
-0.27100506 0.038397349 0.69999999 4293255648
-0.2696721 0.038395904 0.69999999 4293058012
-0.26757228 0.038284738 0.69800001 4292991704
-0.26624292 0.038283277 0.69800001 4293057753
-0.26491344 0.038281798 0.69800001 4293255131
-0.2635839 0.038280316 0.69800001 4293189337
-0.26187858 0.038223978 0.69700003 4293189339
-0.26017693 0.038167637 0.69599998 4293189339
-0.2588509 0.038166124 0.69599998 4293255135
-0.25752488 0.038164608 0.69599998 4293255135
-0.25619879 0.038163088 0.69599998 4293386716
-0.25487262 0.03816155 0.69599998 4293584095
-0.25354642 0.038160011 0.69599998 4293518815
-0.25222009 0.038158465 0.69599998 4293387486
-0.25125423 0.038211729 0.69700003 4293518815
-0.24992594 0.038210165 0.69700003 4293255644
-0.24895427 0.038263414 0.69800001 4293386203
-0.24762395 0.038261831 0.69800001 4293386203
-0.24629359 0.03826024 0.69800001 4293386203
-0.24496318 0.038258646 0.69800001 4293320153
-0.24363275 0.038257048 0.69800001 4293320153
-0.24230228 0.038255442 0.69800001 4293386203
-0.2409718 0.038253833 0.69800001 4293584347
-0.23964126 0.038252216 0.69800001 4293386712
-0.23899354 0.03836019 0.69999999 4293123544
-0.23765914 0.038358562 0.69999999 4293255131
-0.23632473 0.03835693 0.69999999 4293452507
-0.2349903 0.038355291 0.69999999 4293452507
-0.23398961 0.038408436 0.70099998 4293452509
-0.23265325 0.038406786 0.70099998 4293452509
-0.23197684 0.038514707 0.70300001 4293452257
-0.23063661 0.038513046 0.70300001 4293518050
-0.22962256 0.038566161 0.704 4293650404
-0.22892895 0.038674045 0.70599997 4293518561
-0.22758301 0.038672369 0.70599997 4293255644
-0.22655751 0.038725462 0.70700002 4293321693
-0.22520964 0.038723782 0.70700002 4293452509
-0.2238618 0.038722098 0.70700002 4293386716
-0.22282864 0.038775168 0.708 4293386716
-0.22147889 0.038773473 0.708 4293386716
-0.22075099 0.038881306 0.70999998 4293255131
-0.21939743 0.038879603 0.70999998 4293255131
-0.21804391 0.038877901 0.70999998 4293189337
-0.21699558 0.038930953 0.71100003 4293255131
-0.21564017 0.038929246 0.71100003 4293386716
-0.21488756 0.039037045 0.713 4293123544
-0.21352838 0.039035328 0.713 4293057236
-0.21216922 0.039033618 0.713 4293057236
-0.21110572 0.039086644 0.71399999 4293123542
-0.21033223 0.039194416 0.71600002 4293057749
-0.2092593 0.039247442 0.71700001 4293058003
-0.20876245 0.039409928 0.72000003 4293058003
-0.20739008 0.039408196 0.72000003 4292794580
-0.20659003 0.039515939 0.722 4292926165
-0.20549811 0.039568931 0.72299999 4292991958
-0.20524943 0.039786115 0.727 4292728786
-0.20386387 0.039784372 0.727 4292662991
-0.20275684 0.03983736 0.72799999 4292662991
-0.20192264 0.039945059 0.73000002 4292663245
-0.20053147 0.039943326 0.73000002 4292597452
-0.19941314 0.039996304 0.73100001 4292531405
-0.19856192 0.040103991 0.73299998 4292597198
-0.19743414 0.040156968 0.73400003 4292662991
-0.19737092 0.040428769 0.73900002 4292202440
-0.19649313 0.04053643 0.741 4292267719
-0.1958711 0.040698789 0.74400002 4292333512
-0.1949763 0.040806442 0.74599999 4292334283
-0.19381449 0.040859386 0.74699998 4291939268
-0.19239137 0.040857643 0.74699998 4291478717
-0.19096826 0.040855892 0.74699998 4291742145
-0.18954526 0.040854156 0.74699998 4291677132
-0.3088809 0.040892787 0.72000003 4294704895
-0.30751297 0.04089161 0.72000003 4292073436
-0.3048692 0.040720034 0.71700001 4290494402
-0.30181339 0.040491663 0.713 4290757574
-0.29961541 0.040376868 0.71100003 4291742153
-0.29784432 0.040318847 0.70999998 4291807946
-0.2956593 0.040204026 0.708 4292071108
-0.29431313 0.04020277 0.708 4292334281
-0.29296678 0.040201496 0.708 4292269001
-0.29120842 0.040143427 0.70700002 4292269001
-0.28986368 0.040142126 0.70700002 4292268238
-0.28811067 0.040084023 0.70599997 4292597202
-0.28676757 0.040082697 0.70599997 4292597198
-0.28542429 0.040081348 0.70599997 4292531405
-0.28287378 0.039909683 0.70300001 4292597711
-0.28153595 0.03990832 0.70300001 4292597711
-0.27940086 0.039793409 0.70099998 4292729040
-0.27806658 0.039792016 0.70099998 4292794834
-0.27673221 0.039790619 0.70099998 4292794834
-0.27500489 0.039732449 0.69999999 4292991956
-0.27367219 0.039731022 0.69999999 4292991958
-0.27233943 0.039729595 0.69999999 4292991958
-0.27100652 0.039728142 0.69999999 4292991706
-0.26967356 0.039726693 0.69999999 4292991706
-0.26834044 0.039725222 0.69999999 4292991704
-0.26700723 0.039723746 0.69999999 4292991704
-0.26491493 0.039608765 0.69800001 4293189337
-0.26358539 0.039607272 0.69800001 4293189337
-0.26188001 0.039549019 0.69700003 4293123546
-0.26055226 0.03954751 0.69700003 4293189339
-0.25885242 0.039489251 0.69599998 4293255133
-0.25752643 0.039487727 0.69599998 4293189339
-0.25620037 0.039486192 0.69599998 4293255131
-0.25487414 0.039484642 0.69599998 4293386716
-0.25354794 0.039483089 0.69599998 4293255898
-0.25258407 0.039538257 0.69700003 4293124055
-0.25125581 0.039536688 0.69700003 4293124057
-0.24992751 0.039535105 0.69700003 4293124057
-0.2489558 0.03959024 0.69800001 4293057751
-0.24762551 0.039588645 0.69800001 4293057751
-0.24629518 0.039587043 0.69800001 4293188567
-0.24496481 0.039585434 0.69800001 4293254360
-0.24363436 0.03958381 0.69800001 4293320405
-0.24230391 0.039582189 0.69800001 4293320405
-0.24166384 0.039693974 0.69999999 4293320659
-0.24032955 0.039692339 0.69999999 4293320659
-0.23899516 0.039690696 0.69999999 4293123544
-0.2376608 0.039689053 0.69999999 4293057751
-0.236664 0.03974409 0.70099998 4293189589
-0.23532763 0.039742433 0.70099998 4293452761
-0.23399128 0.039740764 0.70099998 4293452509
-0.23265487 0.039739095 0.70099998 4293386716
-0.23197851 0.039850801 0.70300001 4293452259
-0.2306383 0.039849117 0.70300001 4293452259
-0.22962423 0.039904114 0.704 4293452257
-0.22893062 0.040015776 0.70599997 4293386464
-0.22758466 0.040014077 0.70599997 4293386716
-0.22623874 0.040012378 0.70599997 4293452509
-0.2248928 0.040010676 0.70599997 4293386714
-0.22386351 0.040065639 0.70700002 4293189591
-0.22283037 0.040120594 0.708 4293255385
-0.22148065 0.040118881 0.708 4293386714
-0.22075269 0.040230483 0.70999998 4293189591
-0.21939918 0.040228762 0.70999998 4293255385
-0.21835275 0.040283695 0.71100003 4293189591
-0.2169973 0.040281966 0.71100003 4293057749
-0.21624848 0.040393535 0.713 4293123544
-0.21488926 0.040391803 0.713 4293057751
-0.21353008 0.040390063 0.713 4293057751
-0.21246852 0.040444974 0.71399999 4292926165
-0.21110745 0.04044323 0.71399999 4292991956
-0.21062773 0.04061142 0.71700001 4292991956
-0.20984472 0.040722948 0.71899998 4292992210
-0.2087642 0.040777836 0.72000003 4292992210
-0.20796792 0.040889349 0.722 4292728786
-0.2068779 0.040944222 0.72299999 4292597200
-0.2054999 0.040942468 0.72299999 4292662993
-0.20468657 0.041053966 0.72500002 4292662993
-0.2038656 0.041165445 0.727 4292663243
-0.20275855 0.041220307 0.72799999 4292663243
-0.2019244 0.04133179 0.73000002 4292465864
-0.20053324 0.041330021 0.73000002 4292136899
-0.1999605 0.041498099 0.73299998 4292267465
-0.1988346 0.041552946 0.73400003 4292136136
-0.19797385 0.041664388 0.736 4292136134
-0.19737266 0.041832436 0.73900002 4292070341
-0.19676007 0.04200048 0.74199998 4292004548
-0.19666269 0.04228171 0.74699998 4291807168
-0.19523942 0.042279925 0.74699998 4291807168
-0.19433519 0.042391337 0.74900001 4291346617
-0.19290824 0.042389557 0.74900001 4291542450
-0.19148132 0.042387776 0.74900001 4293713619
-0.30974001 0.042378988 0.722 4294967295
-0.3075141 0.042260427 0.72000003 4293389040
-0.306146 0.042259239 0.72000003 4291219161
-0.30308449 0.042023264 0.71600002 4290955732
-0.30045941 0.041845974 0.713 4291742405
-0.29826507 0.041727368 0.71100003 4291676611
-0.29649571 0.041667435 0.70999998 4291807166
-0.29514578 0.041666176 0.70999998 4292333510
-0.29379565 0.041664902 0.70999998 4292268487
-0.2912097 0.041487571 0.70700002 4292268487
-0.28986496 0.041486271 0.70700002 4292268235
-0.2885201 0.041484952 0.70700002 4292465614
-0.28676888 0.041424952 0.70599997 4292465612
-0.28542566 0.041423604 0.70599997 4292465612
-0.28408226 0.041422244 0.70599997 4292662993
-0.28193784 0.041303538 0.704 4292662993
-0.28019944 0.041243486 0.70300001 4292729040
-0.27886137 0.041242097 0.70300001 4292662991
-0.27673367 0.04112336 0.70099998 4292662991
-0.27500632 0.041063279 0.69999999 4292729040
-0.27367365 0.041061856 0.69999999 4292794834
-0.27234089 0.041060414 0.69999999 4292794834
-0.27100798 0.041058961 0.69999999 4292794580
-0.27006024 0.041116156 0.70099998 4292926165
-0.26834193 0.041056026 0.69999999 4292926165
-0.26700872 0.041054536 0.69999999 4292991958
-0.26567551 0.041053049 0.69999999 4293189337
-0.26434213 0.041051537 0.69999999 4293189337
-0.26225725 0.040932734 0.69800001 4293057751
-0.26055375 0.04087257 0.69700003 4293189337
-0.258854 0.040812399 0.69599998 4293255648
-0.25752795 0.040810861 0.69599998 4293123805
-0.25620186 0.040809318 0.69599998 4292861142
-0.25524193 0.040866394 0.69700003 4293189851
-0.25391379 0.040864822 0.69700003 4293255644
-0.25294802 0.040921878 0.69800001 4293124057
-0.25161788 0.040920287 0.69800001 4293124057
-0.25028768 0.040918693 0.69800001 4293058264
-0.24895741 0.040917087 0.69800001 4292926165
-0.24762712 0.040915478 0.69800001 4292991958
-0.24629681 0.040913861 0.69800001 4293057238
-0.24496639 0.040912237 0.69800001 4292991445
-0.24363603 0.040910609 0.69800001 4293122513
-0.24230552 0.04090897 0.69800001 4293122513
-0.2416655 0.041024536 0.69999999 4292925648
-0.2403312 0.041022889 0.69999999 4292991697
-0.23933823 0.041079823 0.70099998 4293254614
-0.23800197 0.041078158 0.70099998 4293057236
-0.23666561 0.041076481 0.70099998 4292926163
-0.23532932 0.041074805 0.70099998 4293189591
-0.23466058 0.041190311 0.70300001 4293452509
-0.2333204 0.041188613 0.70300001 4293386716
-0.23198019 0.041186914 0.70300001 4293254881
-0.23063999 0.041185215 0.70300001 4293254881
-0.2296259 0.041242089 0.704 4293255131
-0.22893232 0.04135754 0.70599997 4293255131
-0.22758639 0.041355822 0.70599997 4293189337
-0.22624043 0.041354094 0.70599997 4293189337
-0.22489449 0.041352369 0.70599997 4293189337
-0.2238652 0.041409213 0.70700002 4293189337
-0.22283207 0.041466046 0.708 4293255131
-0.22148235 0.04146431 0.708 4293057751
-0.22075441 0.04157969 0.70999998 4292926165
-0.21970993 0.041636508 0.71100003 4292926165
-0.21835446 0.041634753 0.71100003 4293057751
-0.21699901 0.041633002 0.71100003 4293057751
-0.21625021 0.041748352 0.713 4293057751
-0.21489102 0.041746594 0.713 4293123544
-0.21383132 0.041803382 0.71399999 4293189337
-0.21247025 0.04180162 0.71399999 4292926165
-0.21170056 0.04191694 0.71600002 4292926163
-0.21151078 0.042149335 0.72000003 4292926163
-0.21072207 0.042264629 0.722 4292597198
-0.20934585 0.042262848 0.722 4292597198
-0.20825773 0.042319596 0.72299999 4292597198
-0.20687966 0.042317815 0.72299999 4292597198
-0.20607013 0.042433091 0.72500002 4292662991
-0.20468831 0.042431302 0.72500002 4292531405
-0.20414782 0.042605087 0.72799999 4292465610
-0.2033174 0.042720336 0.73000002 4292465610
-0.20192622 0.042718541 0.73000002 4292399303
-0.20053501 0.042716749 0.73000002 4292136388
-0.19996226 0.042890497 0.73299998 4292136134
-0.19937813 0.043064237 0.736 4292004548
-0.19851363 0.043179449 0.73799998 4292004548
-0.19737446 0.043236151 0.73900002 4292004548
-0.19729225 0.043526869 0.74400002 4292004546
-0.1966645 0.043700561 0.74699998 4291675837
-0.19524124 0.04369875 0.74699998 4291610042
-0.19433698 0.043813933 0.74900001 4290952111
-0.19291 0.043812115 0.74900001 4290754994
-0.19148315 0.043810315 0.74900001 4294899953
-0.3097412 0.043751612 0.722 4294967295
-0.30751526 0.043629259 0.72000003 4294967295
-0.30614719 0.043628074 0.72000003 4293455100
-0.303509 0.043445099 0.71700001 4291152346
-0.30172488 0.043383297 0.71600002 4290888633
-0.29952478 0.043260887 0.71399999 4291151549
-0.29691461 0.043077879 0.71100003 4291610557
-0.29556277 0.043076631 0.71100003 4292202694
-0.29379693 0.043014765 0.70999998 4292267715
-0.29162288 0.042892322 0.708 4292070593
-0.29027629 0.042891018 0.708 4292202440
-0.28852144 0.042829122 0.70700002 4292202440
-0.28677022 0.042767216 0.70599997 4292334283
-0.285427 0.042765874 0.70599997 4292334283
-0.28408363 0.042764515 0.70599997 4292531659
-0.28193921 0.042642001 0.704 4292465610
-0.28020078 0.042580053 0.70300001 4292663243
-0.27886274 0.042578649 0.70300001 4292663243
-0.27752462 0.042577244 0.70300001 4292662991
-0.27540058 0.04245469 0.70099998 4292729040
-0.27406603 0.042453259 0.70099998 4292794832
-0.27273136 0.042451818 0.70099998 4292794832
-0.27139655 0.042450354 0.70099998 4292729040
-0.2700617 0.042448886 0.70099998 4292729040
-0.26872671 0.042447399 0.70099998 4292728786
-0.26701024 0.042385362 0.69999999 4292728786
-0.26567701 0.042383861 0.69999999 4293123794
-0.26434365 0.042382341 0.69999999 4293123794
-0.2622588 0.042259727 0.69800001 4293057749
-0.26055533 0.042197652 0.69700003 4293189591
-0.25922745 0.042196114 0.69700003 4293189337
-0.25789955 0.042194564 0.69700003 4292926165
-0.25657159 0.042193003 0.69700003 4292926165
-0.25524351 0.042191431 0.69700003 4292991958
-0.25427967 0.042250384 0.69800001 4292926165
-0.2529496 0.042248793 0.69800001 4292926165
-0.25161943 0.042247191 0.69800001 4292991958
-0.25028929 0.042245585 0.69800001 4292926165
-0.24967237 0.042365011 0.69999999 4292794580
-0.2483383 0.042363383 0.69999999 4292794580
-0.24700415 0.042361747 0.69999999 4292926163
-0.24566996 0.042360108 0.69999999 4292926163
-0.24433574 0.042358451 0.69999999 4292991697
-0.24300145 0.042356793 0.69999999 4292991697
-0.24166714 0.042355128 0.69999999 4292926163
-0.24033286 0.042353459 0.69999999 4292794834
-0.23933992 0.042412281 0.70099998 4293057490
-0.23800366 0.042410597 0.70099998 4293057490
-0.23666732 0.042408906 0.70099998 4292926165
-0.23533103 0.042407207 0.70099998 4292926165
-0.23466228 0.042526495 0.70300001 4292991958
-0.2333221 0.042524785 0.70300001 4293057751
-0.23198189 0.042523064 0.70300001 4293189339
-0.23096977 0.042581826 0.704 4293123546
-0.23027998 0.042701062 0.70599997 4293123544
-0.22925836 0.042759813 0.70700002 4293189337
-0.22791052 0.042758074 0.70700002 4293189337
-0.22656265 0.042756323 0.70700002 4293123544
-0.22521478 0.042754576 0.70700002 4293057751
-0.22418359 0.04281329 0.708 4292991958
-0.22283381 0.042811535 0.708 4292991958
-0.22210976 0.042930704 0.70999998 4292926165
-0.22106712 0.042989399 0.71100003 4292926165
-0.21971169 0.04298763 0.71100003 4292926165
-0.21897046 0.043106765 0.713 4292926165
-0.21761122 0.043104984 0.713 4292926165
-0.216252 0.043103203 0.713 4292991956
-0.21519418 0.043161865 0.71399999 4292926163
-0.21383311 0.043160085 0.71399999 4292728786
-0.21306719 0.043279186 0.71600002 4292728786
-0.21199802 0.043337837 0.71700001 4292925902
-0.2121001 0.043638241 0.722 4292991695
-0.21101573 0.043696869 0.72299999 4292531407
-0.20963761 0.043695059 0.72299999 4292465614
-0.20825954 0.043693248 0.72299999 4292597452
-0.20745376 0.043812305 0.72500002 4292663245
-0.20607191 0.043810487 0.72500002 4292531659
-0.20525476 0.043929525 0.727 4292136901
-0.20414962 0.043988127 0.72799999 4292202440
-0.20331918 0.04410715 0.73000002 4292268489
-0.2022046 0.044165745 0.73100001 4292267715
-0.20081151 0.044163924 0.73100001 4292004800
-0.20132811 0.044584997 0.73799998 4292004548
-0.19992174 0.04458316 0.73799998 4291807168
-0.19878446 0.044641737 0.73900002 4291807168
-0.19737627 0.044639897 0.73900002 4291938754
-0.19729407 0.044940084 0.74400002 4291675837
-0.19587651 0.044938251 0.74400002 4291346615
-0.19524305 0.045117602 0.74699998 4290624432
-0.1943388 0.045236558 0.74900001 4291018934
-0.19291183 0.045234714 0.74900001 4292334303
-0.19148494 0.045232881 0.74900001 4294967295
-0.3097423 0.045124251 0.722 4294967295
-0.30837065 0.0451231 0.722 4294967295
-0.30614838 0.044996932 0.72000003 4294901759
-0.30351019 0.044808257 0.71700001 4292599526
-0.30172607 0.044744562 0.71600002 4290757840
-0.29952601 0.044618361 0.71399999 4290823633
-0.2981686 0.044617116 0.71399999 4291543997
-0.29639542 0.04455338 0.713 4291938754
-0.29379824 0.044364654 0.70999998 4291872959
-0.29162416 0.0442384 0.708 4291938752
-0.29027754 0.0442371 0.708 4292267719
-0.28893089 0.044235796 0.708 4292267719
-0.28717774 0.044171982 0.70700002 4292267717
-0.2854284 0.044108167 0.70599997 4292267717
-0.28408495 0.0441068 0.70599997 4292267719
-0.28274149 0.044105429 0.70599997 4292465099
-0.28060073 0.043979097 0.704 4292334283
-0.27926087 0.043977708 0.704 4292334283
-0.27752602 0.043913823 0.70300001 4292334283
-0.27618778 0.043912396 0.70300001 4292334283
-0.27406746 0.043786027 0.70099998 4292530892
-0.27273279 0.043784574 0.70099998 4292596685
-0.27139807 0.043783121 0.70099998 4292662991
-0.2708337 0.043906555 0.70300001 4292662991
-0.26949492 0.043905061 0.70300001 4292597198
-0.26739317 0.04377865 0.70099998 4292729040
-0.26567852 0.043714687 0.69999999 4292728786
-0.26434517 0.043713164 0.69999999 4292728786
-0.26226035 0.043586742 0.69800001 4292662991
-0.26093066 0.0435852 0.69800001 4292662991
-0.25960094 0.04358365 0.69800001 4292794580
-0.2582711 0.043582086 0.69800001 4292794580
-0.2569412 0.043580513 0.69800001 4292794832
-0.25561127 0.04357893 0.69800001 4292794832
-0.25500989 0.043702204 0.69999999 4292729040
-0.253676 0.043700591 0.69999999 4292794834
-0.25234205 0.043698981 0.69999999 4292991958
-0.25100806 0.043697353 0.69999999 4292926165
-0.25003073 0.043758143 0.70099998 4292728786
-0.24833994 0.043694075 0.69999999 4292794580
-0.24700578 0.043692425 0.69999999 4292794834
-0.24567159 0.043690767 0.69999999 4292926163
-0.24433742 0.043689106 0.69999999 4292991956
-0.24300316 0.043687429 0.69999999 4292926163
-0.24201408 0.043748155 0.70099998 4292794832
-0.24067786 0.043746468 0.70099998 4292926161
-0.23934159 0.043744769 0.70099998 4292991956
-0.23800534 0.043743063 0.70099998 4292926163
-0.23734429 0.043866158 0.70300001 4292794580
-0.23600413 0.043864436 0.70300001 4292926165
-0.23466398 0.043862712 0.70300001 4292926165
-0.23332378 0.043860976 0.70300001 4293057751
-0.2323136 0.043921635 0.704 4293189337
-0.23162767 0.044044662 0.70599997 4293057751
-0.23060793 0.044105295 0.70700002 4292991958
-0.22958435 0.044165913 0.708 4293057751
-0.22823462 0.044164151 0.708 4293123542
-0.22688487 0.044162378 0.708 4293057749
-0.22553508 0.044160604 0.708 4292991956
-0.22481866 0.044283573 0.70999998 4292991956
-0.22346507 0.044281792 0.70999998 4292794834
-0.22242439 0.044342373 0.71100003 4292794834
-0.22106889 0.044340577 0.71100003 4292794580
-0.21971346 0.044338781 0.71100003 4292794580
-0.21897224 0.044461697 0.713 4292794580
-0.21791819 0.044522244 0.71399999 4292794580
-0.21655709 0.044520434 0.71399999 4292991958
-0.21579878 0.044643331 0.71600002 4292728786
-0.21443389 0.044641517 0.71600002 4292596685
-0.2133666 0.044702049 0.71700001 4292728270
-0.21259119 0.044824913 0.71899998 4292793546
-0.21210194 0.045010105 0.722 4292727753
-0.21101756 0.045070611 0.72299999 4292531405
-0.20963943 0.045068771 0.72299999 4292334283
-0.20826136 0.045066934 0.72299999 4292334283
-0.20745559 0.045189761 0.72500002 4292334283
-0.20607373 0.04518792 0.72500002 4292137162
-0.20525658 0.045310732 0.727 4292005833
-0.20471232 0.045495853 0.73000002 4292136647
-0.20332105 0.045494009 0.73000002 4292005061
-0.20220642 0.045554474 0.73100001 4291872959
-0.20136276 0.045677252 0.73299998 4291938752
-0.20132993 0.045986965 0.73799998 4291872959
-0.1999236 0.045985103 0.73799998 4291807166
-0.19878629 0.046045549 0.73900002 4291807166
-0.19791229 0.046168298 0.741 4291610044
-0.19729593 0.046353348 0.74400002 4291346867
-0.19587836 0.046351478 0.74400002 4290886316
-0.19524489 0.046536505 0.74699998 4289966759
-0.19434066 0.046659231 0.74900001 4292664529
-0.19291368 0.046657357 0.74900001 4294703103
-0.19148678 0.046655491 0.74900001 4294967295
-0.30837181 0.046495758 0.722 4294967295
-0.30614954 0.046365798 0.72000003 4294967295
-0.30351141 0.04617143 0.71700001 4294835455
-0.30172729 0.046105847 0.71600002 4292534519
-0.29952726 0.045975845 0.71399999 4290560473
-0.29816988 0.045974616 0.71399999 4290690748
-0.29639664 0.045908969 0.713 4291348934
-0.29379946 0.045714546 0.70999998 4291938501
-0.29244927 0.045713268 0.70999998 4291872707
-0.29109886 0.045711972 0.70999998 4292136386
-0.28893214 0.045581892 0.708 4292267715
-0.28758526 0.045580558 0.708 4292267717
-0.28583401 0.045514841 0.70700002 4292070595
-0.2844888 0.045513488 0.70700002 4292267719
-0.2831434 0.045512114 0.70700002 4292465099
-0.28139931 0.045446344 0.70599997 4292268489
-0.27926224 0.045316201 0.704 4292202440
-0.27792221 0.045314785 0.704 4292268235
-0.27618924 0.045248982 0.70300001 4292334029
-0.27485085 0.045247544 0.70300001 4292465612
-0.27273425 0.04511736 0.70099998 4292465612
-0.27139953 0.045115892 0.70099998 4292531405
-0.27083516 0.045243122 0.70300001 4292597198
-0.26949644 0.045241635 0.70300001 4292531405
-0.26739469 0.045111414 0.70099998 4292531405
-0.26605958 0.045109894 0.70099998 4292597198
-0.26472437 0.045108356 0.70099998 4292597198
-0.26301336 0.04504247 0.69999999 4292465614
-0.26167983 0.045040913 0.69999999 4292465614
-0.26034632 0.045039348 0.69999999 4292728270
-0.25901273 0.045037773 0.69999999 4292859856
-0.25804716 0.045100521 0.70099998 4292729290
-0.25671148 0.045098919 0.70099998 4292729290
-0.25537577 0.04509731 0.70099998 4292663245
-0.25403997 0.045095682 0.70099998 4292531659
-0.25270417 0.04509405 0.70099998 4292794063
-0.25136825 0.045092411 0.70099998 4292794063
-0.25003234 0.045090765 0.70099998 4292662991
-0.2486963 0.0450891 0.70099998 4292662991
-0.24736033 0.045087446 0.70099998 4292597198
-0.24602422 0.045085762 0.70099998 4292597198
-0.24538624 0.045212716 0.70300001 4292597198
-0.24404626 0.045211013 0.70300001 4292597198
-0.24270628 0.045209311 0.70300001 4292597452
-0.24136625 0.045207605 0.70300001 4292663245
-0.24002621 0.045205887 0.70300001 4292597198
-0.23902561 0.045268457 0.704 4292531405
-0.23734598 0.045202423 0.70300001 4292662993
-0.23600586 0.045200691 0.70300001 4292926165
-0.23499955 0.045263249 0.704 4292991956
-0.23365745 0.045261495 0.704 4292991956
-0.23297533 0.045388307 0.70599997 4292926165
-0.23195751 0.045450829 0.70700002 4292794580
-0.23060971 0.045449067 0.70700002 4292926163
-0.22958614 0.045511562 0.708 4293123542
-0.22823638 0.045509774 0.708 4293057486
-0.22688664 0.04550799 0.708 4292925900
-0.22553688 0.045506187 0.708 4292992206
-0.22482042 0.045632929 0.70999998 4293057999
-0.22378163 0.045695402 0.71100003 4292795086
-0.22242616 0.045693591 0.71100003 4292729036
-0.22169256 0.045820307 0.713 4292729040
-0.22033329 0.045818474 0.713 4292729040
-0.21928117 0.045880903 0.71399999 4292597198
-0.21853048 0.0460076 0.71600002 4292531405
-0.21746883 0.046070017 0.71700001 4292531405
-0.21610202 0.046068169 0.71700001 4292334283
-0.21533416 0.046194822 0.71899998 4292531405
-0.21396355 0.046192974 0.71899998 4292597198
-0.2128887 0.046255372 0.72000003 4292728518
-0.21210375 0.046381995 0.722 4292531396
-0.2110194 0.046444379 0.72299999 4292465349
-0.20964125 0.046442509 0.72299999 4292333762
-0.2088393 0.04656912 0.72500002 4292136136
-0.20745742 0.04656725 0.72500002 4292070343
-0.20692828 0.046758067 0.72799999 4291807435
-0.20554078 0.046756197 0.72799999 4291807435
-0.20471418 0.046882775 0.73000002 4291872961
-0.20332289 0.046880886 0.73000002 4291807168
-0.20414463 0.047392759 0.73799998 4291807166
-0.2027382 0.04739086 0.73799998 4291872959
-0.20133178 0.047388967 0.73799998 4291873209
-0.20019637 0.047451284 0.73900002 4291807416
-0.19878814 0.047449395 0.73900002 4291544249
-0.19818127 0.047640119 0.74199998 4291083698
-0.19729783 0.047766641 0.74400002 4290754733
-0.19588023 0.047764741 0.74400002 4290754733
-0.30351254 0.047534626 0.71700001 4294967295
-0.30172849 0.047467146 0.71600002 4294375679
-0.29952845 0.047333341 0.71399999 4292072930
-0.29817113 0.047332123 0.71399999 4290429388
-0.29639792 0.047264595 0.713 4290955732
-0.29421458 0.047130756 0.71100003 4291544510
-0.29286247 0.047129478 0.71100003 4291676096
-0.29110017 0.047061894 0.70999998 4291807168
-0.28974968 0.047060575 0.70999998 4291872961
-0.28758663 0.046926688 0.708 4292004546
-0.28623968 0.046925347 0.708 4292004546
-0.28489247 0.046923988 0.708 4292070595
-0.28354526 0.046922605 0.708 4292070595
-0.28140068 0.046788666 0.70599997 4292136134
-0.28005701 0.046787262 0.70599997 4292267719
-0.27792364 0.046653308 0.704 4292268235
-0.27658352 0.046651866 0.704 4292268235
-0.27485231 0.046584155 0.70300001 4292400589
-0.27351391 0.046582699 0.70300001 4292334796
-0.27217531 0.046581216 0.70300001 4292334283
-0.27083668 0.046579726 0.70300001 4292334283
-0.26949796 0.046578221 0.70300001 4292334281
-0.26815912 0.046576709 0.70300001 4292531659
-0.26682019 0.046575166 0.70300001 4292597198
-0.26472586 0.046441127 0.70099998 4292597198
-0.2633906 0.046439573 0.70099998 4292465612
-0.26205525 0.046438012 0.70099998 4292334283
-0.26071981 0.046436429 0.70099998 4292465099
-0.2593843 0.046434842 0.70099998 4292530892
-0.25804874 0.046433244 0.70099998 4292465097
-0.25671306 0.046431631 0.70099998 4292596939
-0.25537741 0.046430018 0.70099998 4292662991
-0.25404161 0.046428382 0.70099998 4292597198
-0.25270581 0.046426743 0.70099998 4292597198
-0.25136992 0.046425086 0.70099998 4292729040
-0.250034 0.046423424 0.70099998 4292729040
-0.24869801 0.046421748 0.70099998 4292662991
-0.247362 0.046420068 0.70099998 4292531405
-0.24672787 0.046550822 0.70300001 4292531405
-0.24538797 0.046549115 0.70300001 4292531405
-0.24439515 0.046613619 0.704 4292465612
-0.24305324 0.046611898 0.704 4292531146
-0.2417113 0.046610169 0.704 4292531146
-0.24105218 0.046740834 0.70599997 4292596685
-0.23970638 0.04673909 0.70599997 4292596685
-0.23836058 0.046737336 0.70599997 4292728270
-0.23701477 0.046735574 0.70599997 4292859856
-0.23566887 0.046733808 0.70599997 4292926161
-0.23432302 0.046732031 0.70599997 4292794832
-0.23330711 0.046796445 0.70700002 4292859854
-0.23228741 0.04686084 0.708 4292859854
-0.23159002 0.046991415 0.70999998 4292859854
-0.23023649 0.046989612 0.70999998 4292859854
-0.22888292 0.046987802 0.70999998 4292794059
-0.22752936 0.046985976 0.70999998 4292794059
-0.22649437 0.047050335 0.71100003 4292663243
-0.22513895 0.04704852 0.71100003 4292663243
-0.22378343 0.04704668 0.71100003 4292663245
-0.22305363 0.047177184 0.713 4292597452
-0.22169438 0.047175337 0.713 4292597198
-0.22064421 0.047239661 0.71399999 4292597198
-0.22020438 0.047436282 0.71700001 4292597198
-0.21944793 0.047566742 0.71899998 4292531405
-0.21898723 0.047763329 0.722 4292465612
-0.21761087 0.047761459 0.722 4292465612
-0.21623453 0.047759574 0.722 4292531405
-0.2148582 0.047757693 0.722 4292465612
-0.21348195 0.047755815 0.722 4292334283
-0.21239941 0.047820069 0.72299999 4292268489
-0.21160506 0.047950473 0.72500002 4292136134
-0.21022308 0.047948565 0.72500002 4292136134
-0.20970534 0.048145078 0.72799999 4292070341
-0.20831774 0.048143178 0.72799999 4292004548
-0.20693022 0.048141275 0.72799999 4291872961
-0.20610738 0.04827163 0.73000002 4291872961
-0.2049965 0.048335843 0.73100001 4291807166
-0.20443891 0.048532303 0.73400003 4291807166
-0.2041465 0.048794854 0.73799998 4291675837
-0.20274009 0.04879294 0.73799998 4291675837
-0.20160656 0.04885713 0.73900002 4291675835
-0.20019829 0.048855215 0.73900002 4291544249
-0.19879006 0.048853293 0.73900002 4291149489
-0.19818318 0.049049694 0.74199998 4290688938
-0.19729973 0.049179964 0.74400002 4290294697
-0.19588214 0.049178049 0.74400002 4291610557
-0.30351374 0.048897829 0.71700001 4294967295
-0.30172965 0.04882846 0.71600002 4294967295
-0.30036873 0.048827257 0.71600002 4294638591
-0.29900759 0.048826039 0.71600002 4292731380
-0.29764634 0.048824798 0.71600002 4290691541
-0.29504347 0.048618965 0.713 4290690998
-0.29368752 0.04861768 0.713 4291085756
-0.29151151 0.048480019 0.71100003 4291413442
-0.29015914 0.048478723 0.71100003 4291413442
-0.28840032 0.048409197 0.70999998 4291807168
-0.28704956 0.048407849 0.70999998 4292004548
-0.28569865 0.048406489 0.70999998 4291938752
-0.28434759 0.048405103 0.70999998 4292004546
-0.28180069 0.048199192 0.70700002 4292005061
-0.28045511 0.048197772 0.70700002 4292070854
-0.27871463 0.048128184 0.70599997 4292005061
-0.27658498 0.047990408 0.704 4291939268
-0.27524471 0.047988951 0.704 4292202692
-0.27351534 0.047919318 0.70300001 4292465864
-0.2721768 0.047917839 0.70300001 4292334533
-0.27122346 0.047984503 0.704 4292268739
-0.26988283 0.047982994 0.704 4292268485
-0.26854208 0.047981471 0.704 4292268485
-0.26720127 0.047979932 0.704 4292334281
-0.26548272 0.047910225 0.70300001 4292268487
-0.26414368 0.04790866 0.70300001 4292399305
-0.26280451 0.047907088 0.70300001 4292465099
-0.26146525 0.04790549 0.70300001 4292268235
-0.26012596 0.047903892 0.70300001 4292268235
-0.25878659 0.047902279 0.70300001 4292268489
-0.25671473 0.04776438 0.70099998 4292268489
-0.25537902 0.047762748 0.70099998 4292268235
-0.25476807 0.047897365 0.70300001 4292202442
