# .PCD v0.7 - Point Cloud Data file format
VERSION 0.7
FIELDS x y z rgba
SIZE 4 4 4 4
TYPE F F F U
COUNT 1 1 1 1
WIDTH 1038
HEIGHT 1
VIEWPOINT 0 0 0 1 0 0 0
POINTS 1038
DATA ascii
0.028946761 -0.093327925 0.68199998 4294967293
0.030150888 -0.093054481 0.68000001 4294967295
0.031439919 -0.093054757 0.68000001 4294967295
0.03272897 -0.093055032 0.68000001 4294967295
0.034018029 -0.093055315 0.68000001 4294967295
0.035307117 -0.093055628 0.68000001 4294967295
0.036596213 -0.093055934 0.68000001 4294967295
0.037885334 -0.093056269 0.68000001 4294967295
0.039116867 -0.092919767 0.67900002 4294967295
0.040404141 -0.092920139 0.67900002 4294967295
0.041630019 -0.092783637 0.67799997 4294967295
0.042788848 -0.092510335 0.676 4294967295
0.044070501 -0.092510737 0.676 4294967295
0.04528508 -0.092374302 0.67500001 4294967295
0.046564884 -0.092374735 0.67500001 4294967295
0.047844715 -0.092375167 0.67500001 4294967295
0.049124569 -0.092375629 0.67500001 4294967295
0.050180428 -0.091965534 0.67199999 4294967295
0.051454652 -0.091966026 0.67199999 4294967295
0.052885834 -0.092240229 0.67400002 4294967295
0.054244269 -0.092377581 0.67500001 4294967295
0.05544202 -0.09224125 0.67400002 4294967295
0.056720156 -0.092241794 0.67400002 4294967295
0.057998318 -0.092242338 0.67400002 4294967295
0.059100617 -0.09196917 0.67199999 4294967295
0.060375061 -0.091969758 0.67199999 4294967295
0.061833013 -0.092244051 0.67400002 4294967295
0.063111313 -0.092244655 0.67400002 4294967295
0.064389639 -0.092245251 0.67400002 4294967295
0.065668017 -0.092245869 0.67400002 4294967295
0.066946417 -0.092246503 0.67400002 4294967295
0.06822487 -0.092247151 0.67400002 4294967295
0.069503352 -0.092247799 0.67400002 4294967295
0.070781864 -0.092248462 0.67400002 4294967295
0.072060421 -0.092249133 0.67400002 4294967295
0.073339015 -0.092249818 0.67400002 4294967295
0.074617654 -0.092250519 0.67400002 4294967295
0.075896315 -0.092251226 0.67400002 4294967295
0.077175044 -0.092251949 0.67400002 4294967295
0.078453794 -0.092252672 0.67400002 4294967295
0.079732597 -0.092253417 0.67400002 4294967295
0.081011437 -0.092254147 0.67400002 4294967295
0.082290322 -0.092254914 0.67400002 4294967295
0.083817221 -0.092529424 0.676 4294967295
0.085099988 -0.092530213 0.676 4294967295
0.086638369 -0.092804745 0.67799997 4294967295
0.087925009 -0.092805542 0.67799997 4294967295
0.089343295 -0.092943236 0.67900002 4294967295
0.090631932 -0.092944048 0.67900002 4294967295
0.091920614 -0.092944875 0.67900002 4294967295
0.093209334 -0.09294571 0.67900002 4294967295
0.094498128 -0.092946559 0.67900002 4294967295
0.095786937 -0.092947401 0.67900002 4294967295
0.09707579 -0.09294825 0.67900002 4294967295
0.098509595 -0.093086004 0.68000001 4294967295
0.099800438 -0.093086869 0.68000001 4294967295
0.10138867 -0.093361527 0.68199998 4294967295
0.10283401 -0.093499333 0.68300003 4294967295
0.10458808 -0.093910903 0.68599999 4294967295
0.10604488 -0.094048686 0.68699998 4294967295
0.10734926 -0.094049595 0.68699998 4294967295
0.10865374 -0.094050519 0.68699998 4294967295
0.10995821 -0.094051421 0.68699998 4294967294
0.11142471 -0.094189256 0.68800002 4294900987
0.11273122 -0.094190195 0.68800002 4294901502
0.11403777 -0.094191127 0.68800002 4294967295
0.11567966 -0.094465882 0.69 4294967293
0.1169901 -0.094466813 0.69 4294967293
0.11847204 -0.094604678 0.69099998 4294900987
0.11978447 -0.094605625 0.69099998 4294966780
0.12214848 -0.095428072 0.69700003 4294703353
0.12347241 -0.095429018 0.69700003 4294637560
0.12587069 -0.096251495 0.70300001 4294440438
0.12792993 -0.096800141 0.70700002 4294374644
0.12927301 -0.096801117 0.70700002 4294242795
0.13135514 -0.097349785 0.71100003 4294637297
0.13270593 -0.097350784 0.71100003 4294177263
0.13443387 -0.097625643 0.713 4292006094
0.13578855 -0.097626619 0.713 4289176775
0.0045397198 -0.09527196 0.70599997 4294965748
0.0058778618 -0.095271915 0.70599997 4294966263
0.0071955598 -0.095001988 0.704 4294966005
0.0085177924 -0.094867021 0.70300001 4294834932
0.0098082135 -0.094462179 0.69999999 4294966776
0.011134985 -0.094462201 0.69999999 4294967035
0.012426157 -0.094192341 0.69800001 4294966778
0.013709745 -0.093922481 0.69599998 4294966265
0.014985763 -0.093652658 0.69400001 4294966779
0.016277691 -0.093517788 0.69300002 4294967035
0.017540447 -0.093247987 0.69099998 4294967295
0.018822912 -0.093113132 0.69 4294967291
0.020072423 -0.092843384 0.68800002 4294967290
0.021345427 -0.092708565 0.68699998 4294966776
0.022614647 -0.092573754 0.68599999 4294967292
0.023845229 -0.092304036 0.68400002 4294967292
0.025141755 -0.092304207 0.68400002 4294967035
0.026438296 -0.092304423 0.68400002 4294966778
0.027694304 -0.09216968 0.68300003 4294967293
0.028946528 -0.092034958 0.68199998 4294967294
0.030239316 -0.092035197 0.68199998 4294967295
0.031532124 -0.092035457 0.68199998 4294967295
0.032728687 -0.091765814 0.68000001 4294967295
0.034017742 -0.091766134 0.68000001 4294967295
0.0353068 -0.091766402 0.68000001 4294967295
0.036595888 -0.09176673 0.68000001 4294967295
0.037884995 -0.09176705 0.68000001 4294967295
0.03911652 -0.091632448 0.67900002 4294967295
0.040403772 -0.091632813 0.67900002 4294967295
0.041629642 -0.091498218 0.67799997 4294967295
0.042788457 -0.091228694 0.676 4294967295
0.044070099 -0.091229089 0.676 4294967295
0.045284666 -0.091094546 0.67500001 4294967295
0.046564452 -0.091094971 0.67500001 4294967295
0.047773384 -0.09096045 0.67400002 4294967295
0.049051341 -0.090960905 0.67400002 4294967295
0.050329309 -0.090961367 0.67400002 4294967295
0.051607307 -0.090961836 0.67400002 4294967295
0.052963804 -0.091097295 0.67500001 4294967295
0.054163404 -0.09096282 0.67400002 4294967295
0.055441502 -0.090963341 0.67400002 4294967295
0.056719612 -0.090963855 0.67400002 4294967295
0.057825666 -0.090694465 0.67199999 4294967295
0.059100054 -0.090695016 0.67199999 4294967295
0.060374483 -0.09069559 0.67199999 4294967295
0.061832428 -0.090966091 0.67400002 4294967295
0.063110709 -0.090966664 0.67400002 4294967295
0.064389035 -0.090967268 0.67400002 4294967295
0.065667391 -0.090967879 0.67400002 4294967295
0.066945784 -0.090968505 0.67400002 4294967295
0.068224221 -0.090969138 0.67400002 4294967295
0.069502696 -0.090969786 0.67400002 4294967295
0.070781201 -0.090970434 0.67400002 4294967295
0.072059743 -0.090971097 0.67400002 4294967295
0.073338322 -0.090971775 0.67400002 4294967295
0.074616946 -0.090972468 0.67400002 4294967295
0.075895615 -0.090973161 0.67400002 4294967295
0.077174321 -0.090973854 0.67400002 4294967295
0.078453064 -0.090974577 0.67400002 4294967295
0.079731859 -0.090975322 0.67400002 4294967295
0.081010684 -0.090976037 0.67400002 4294967295
0.082289562 -0.090976782 0.67400002 4294967295
0.083692469 -0.091112524 0.67500001 4294967295
0.085099205 -0.091248281 0.676 4294967295
0.086382017 -0.091249056 0.676 4294967295
0.087924212 -0.091519803 0.67799997 4294967295
0.089210898 -0.091520593 0.67799997 4294967295
0.09063112 -0.091656394 0.67900002 4294967295
0.091919795 -0.091657206 0.67900002 4294967295
0.093208522 -0.091658026 0.67900002 4294967295
0.094497286 -0.091658853 0.67900002 4294967295
0.095786095 -0.091659673 0.67900002 4294967295
0.097074948 -0.091660514 0.67900002 4294967295
0.098508731 -0.091796368 0.68000001 4294967295
0.099799566 -0.091797218 0.68000001 4294967295
0.10138781 -0.092068084 0.68199998 4294967295
0.10283313 -0.09220396 0.68300003 4294967295
0.10428226 -0.092339836 0.68400002 4294967295
0.10588964 -0.092610709 0.68599999 4294967295
0.10719212 -0.092611603 0.68599999 4294967295
0.10865282 -0.092747517 0.68699998 4294967295
0.1099573 -0.092748411 0.68699998 4294967295
0.11126185 -0.09274932 0.68699998 4294966780
0.11273028 -0.092885248 0.68800002 4294901502
0.11403684 -0.092886165 0.68800002 4294704123
0.11534342 -0.092887104 0.68800002 4294704377
0.11698917 -0.093158044 0.69 4294901500
0.11829966 -0.09315899 0.69 4294769400
0.11978354 -0.093294941 0.69099998 4294703607
0.12214751 -0.094105966 0.69700003 4294703353
0.12347145 -0.094106928 0.69700003 4294703353
0.12497449 -0.094242916 0.69800001 4294440438
0.12738609 -0.095053963 0.704 4294374644
0.12872347 -0.095054932 0.704 4294176748
0.13135415 -0.096001081 0.71100003 4294505712
0.13270494 -0.096002042 0.71100003 4294177261
0.13405579 -0.096003041 0.71100003 4292795608
0.13578756 -0.096274063 0.713 4290887107
0.0032107215 -0.094199724 0.708 4294833647
0.004539778 -0.093933567 0.70599997 4294965233
0.0058612525 -0.093667403 0.704 4294966005
0.0071955863 -0.093667373 0.704 4294965748
0.0085178036 -0.093534313 0.70300001 4294834678
0.0097801844 -0.092869043 0.69800001 4294966778
0.01110315 -0.092869066 0.69800001 4294967035
0.012426117 -0.092869103 0.69800001 4294967295
0.013670298 -0.092336938 0.69400001 4294967290
0.014964101 -0.092203945 0.69300002 4294967292
0.01623063 -0.091937937 0.69099998 4294967294
0.017540351 -0.091938011 0.69099998 4294967295
0.018768242 -0.091538966 0.68800002 4294967294
0.020072293 -0.0915391 0.68800002 4294967037
0.021376351 -0.091539219 0.68800002 4294967035
0.022647457 -0.091406323 0.68699998 4294967295
0.023845056 -0.09100733 0.68400002 4294967292
0.025141569 -0.091007516 0.68400002 4294966778
0.026438095 -0.091007717 0.68400002 4294966778
0.027694084 -0.090874873 0.68300003 4294967294
0.028988741 -0.090875082 0.68300003 4294967294
0.030239068 -0.090742268 0.68199998 4294967295
0.031531863 -0.090742514 0.68199998 4294967295
0.032728411 -0.090476669 0.68000001 4294967295
0.034017447 -0.090476967 0.68000001 4294967295
0.035306498 -0.090477251 0.68000001 4294967295
0.036595572 -0.090477563 0.68000001 4294967295
0.03777324 -0.090211771 0.67799997 4294967295
0.038943343 -0.089945994 0.676 4294967295
0.040224902 -0.089946352 0.676 4294967295
0.041629273 -0.090212822 0.67799997 4294967295
0.042788073 -0.089947097 0.676 4294967295
0.044069689 -0.089947477 0.676 4294967295
0.045284249 -0.089814827 0.67500001 4294967295
0.046495046 -0.089682184 0.67400002 4294967295
0.047772948 -0.089682601 0.67400002 4294967295
0.049050882 -0.089683063 0.67400002 4294967295
0.050328843 -0.08968351 0.67400002 4294967295
0.051606834 -0.089683965 0.67400002 4294967295
0.052963316 -0.089817517 0.67500001 4294967295
0.054162901 -0.089684948 0.67400002 4294967295
0.055440977 -0.089685455 0.67400002 4294967295
0.056719083 -0.089685977 0.67400002 4294967295
0.057825126 -0.089420363 0.67199999 4294967295
0.05909951 -0.089420922 0.67199999 4294967295
0.060373917 -0.089421451 0.67199999 4294967295
0.061831851 -0.089688167 0.67400002 4294967295
0.063110128 -0.089688756 0.67400002 4294967295
0.064388432 -0.089689329 0.67400002 4294967295
0.065666787 -0.089689933 0.67400002 4294967295
0.066945165 -0.089690544 0.67400002 4294967295
0.068223581 -0.08969117 0.67400002 4294967295
0.069502048 -0.089691803 0.67400002 4294967295
0.070780545 -0.089692459 0.67400002 4294967295
0.072059073 -0.089693107 0.67400002 4294967295
0.073337652 -0.089693755 0.67400002 4294967295
0.074616268 -0.089694448 0.67400002 4294967295
0.075894915 -0.089695133 0.67400002 4294967295
0.077173613 -0.089695819 0.67400002 4294967295
0.078452349 -0.089696541 0.67400002 4294967295
0.079731137 -0.089697249 0.67400002 4294967295
0.081009954 -0.089697979 0.67400002 4294967295
0.082288809 -0.08969871 0.67400002 4294967295
0.083691716 -0.089832544 0.67500001 4294967295
0.085098431 -0.089966364 0.676 4294967295
0.086381234 -0.089967139 0.676 4294967295
0.087664075 -0.089967906 0.676 4294967295
0.089210093 -0.090234861 0.67799997 4294967295
0.09063033 -0.090368763 0.67900002 4294967295
0.091918975 -0.090369552 0.67900002 4294967295
0.093207702 -0.090370364 0.67900002 4294967295
0.094496459 -0.090371192 0.67900002 4294967295
0.09578526 -0.090372004 0.67900002 4294967295
0.097074114 -0.090372823 0.67900002 4294967295
0.09836302 -0.090373673 0.67900002 4294967295
0.09965197 -0.090374507 0.67900002 4294967295
0.10094096 -0.090375356 0.67900002 4294967039
0.10238058 -0.090509318 0.68000001 4294967039
0.10412894 -0.090909481 0.68300003 4294967295
0.10558004 -0.091043472 0.68400002 4294967295
0.10719124 -0.091310553 0.68599999 4294967295
0.10849375 -0.091311425 0.68599999 4294967295
0.1099564 -0.091445439 0.68699998 4294967294
0.11126093 -0.091446333 0.68699998 4294900987
0.1125655 -0.091447212 0.68699998 4294835195
0.11403593 -0.091581263 0.68800002 4294769146
0.11534251 -0.091582157 0.68800002 4294835193
0.11698823 -0.091849297 0.69 4294967294
0.11829872 -0.091850229 0.69 4294769400
0.11978259 -0.091984257 0.69099998 4294637814
0.12197131 -0.092650771 0.69599998 4294637814
0.12329336 -0.092651725 0.69599998 4294637814
0.12497354 -0.092918903 0.69800001 4294440438
0.12738514 -0.093718588 0.704 4294440438
0.12872252 -0.093719542 0.704 4294176750
0.13005997 -0.093720511 0.704 4294308336
0.13270396 -0.094653346 0.71100003 4294242541
0.13405479 -0.094654307 0.71100003 4293650404
0.0032107944 -0.092857584 0.708 4294438891
0.0045398357 -0.092595197 0.70599997 4294965235
0.0058612945 -0.092332847 0.704 4294966005
0.0071853912 -0.09220165 0.70300001 4294965748
0.0085178129 -0.092201643 0.70300001 4294899955
0.0097801797 -0.091545857 0.69800001 4294966263
0.011103127 -0.09154588 0.69800001 4294966778
0.012426082 -0.091545902 0.69800001 4294967035
0.013670248 -0.091021322 0.69400001 4294966519
0.014920847 -0.090627909 0.69099998 4294967290
0.016230548 -0.090627998 0.69099998 4294967294
0.01751487 -0.090496927 0.69 4294967293
0.01876813 -0.090234727 0.68800002 4294966780
0.020042989 -0.090103686 0.68699998 4294967037
0.02134514 -0.09010382 0.68699998 4294967035
0.022647295 -0.090103954 0.68699998 4294967292
0.023844888 -0.089710653 0.68400002 4294966778
0.025141386 -0.089710847 0.68400002 4294967035
0.026437894 -0.089711033 0.68400002 4294967035
0.027693868 -0.089580081 0.68300003 4294967293
0.028988509 -0.08958029 0.68300003 4294967035
0.030238828 -0.089449361 0.68199998 4294967294
0.031531606 -0.089449629 0.68199998 4294967295
0.032728139 -0.08918757 0.68000001 4294967295
0.034017164 -0.089187846 0.68000001 4294967295
0.035306197 -0.089188129 0.68000001 4294967295
0.03648762 -0.088926129 0.67799997 4294967295
0.037661489 -0.088664114 0.676 4294967295
0.038943008 -0.088664442 0.676 4294967295
0.040224545 -0.088664785 0.676 4294967295
0.041444708 -0.08853399 0.67500001 4294967295
0.042724397 -0.088534363 0.67500001 4294967295
0.044004112 -0.088534743 0.67500001 4294967295
0.045216758 -0.088403985 0.67400002 4294967295
0.046494626 -0.088404395 0.67400002 4294967295
0.047772516 -0.088404812 0.67400002 4294967295
0.049050435 -0.088405244 0.67400002 4294967295
0.050328385 -0.088405684 0.67400002 4294967295
0.051606361 -0.088406153 0.67400002 4294967295
0.052884366 -0.08840663 0.67400002 4294967295
0.054162398 -0.088407107 0.67400002 4294967295
0.055440467 -0.088407613 0.67400002 4294967295
0.056718558 -0.088408113 0.67400002 4294967295
0.05799669 -0.088408634 0.67400002 4294967295
0.059098959 -0.088146821 0.67199999 4294967295
0.060373366 -0.088147372 0.67199999 4294967295
0.061831281 -0.088410281 0.67400002 4294967295
0.063109539 -0.088410839 0.67400002 4294967295
0.064387836 -0.088411428 0.67400002 4294967295
0.065666176 -0.088412024 0.67400002 4294967295
0.066944562 -0.08841262 0.67400002 4294967295
0.06822297 -0.088413246 0.67400002 4294967295
0.069501415 -0.088413857 0.67400002 4294967295
0.070569873 -0.088152133 0.67199999 4294967295
0.0718446 -0.088152781 0.67199999 4294967295
0.073119365 -0.088153429 0.67199999 4294967295
0.074394181 -0.088154115 0.67199999 4294967295
0.07566902 -0.08815477 0.67199999 4294967295
0.076943927 -0.088155463 0.67199999 4294967295
0.078451641 -0.088418521 0.67400002 4294967295
0.079730421 -0.088419229 0.67400002 4294967295
0.081009232 -0.088419944 0.67400002 4294967295
0.082288086 -0.088420659 0.67400002 4294967295
0.083690971 -0.088552579 0.67500001 4294967295
0.0849718 -0.088553324 0.67500001 4294967295
0.086380474 -0.088685267 0.676 4294967295
0.087663293 -0.088686019 0.676 4294967295
0.089209326 -0.088949174 0.67799997 4294967295
0.090629518 -0.089081153 0.67900002 4294967295
0.091918178 -0.089081943 0.67900002 4294967295
0.09320689 -0.089082725 0.67900002 4294967295
0.094495647 -0.089083545 0.67900002 4294967295
0.095784441 -0.089084357 0.67900002 4294967295
0.097073279 -0.089085169 0.67900002 4294967295
0.098362185 -0.089085989 0.67900002 4294967295
0.099504359 -0.088955611 0.67799997 4294967295
0.10079146 -0.088956445 0.67799997 4294967295
0.10222916 -0.089088507 0.67900002 4294967295
0.10397562 -0.089482948 0.68199998 4294967295
0.10557918 -0.089746244 0.68400002 4294967295
0.10687786 -0.089747094 0.68400002 4294967294
0.10849287 -0.090010382 0.68599999 4294967294
0.10979546 -0.090011254 0.68599999 4294966780
0.11126004 -0.090143353 0.68699998 4294900987
0.11256464 -0.090144247 0.68699998 4294900987
0.11403502 -0.090276361 0.68800002 4294835193
0.1153416 -0.090277247 0.68800002 4294769400
0.11698733 -0.090540595 0.69 4294769400
0.11829781 -0.090541489 0.69 4294703607
0.12012838 -0.090936072 0.69300002 4294637814
0.1219704 -0.091330647 0.69599998 4294637814
0.12329242 -0.091331571 0.69599998 4294637814
0.12461452 -0.091332495 0.69599998 4294308595
0.12684135 -0.09198954 0.70099998 4294242802
0.12817304 -0.091990478 0.70099998 4294176496
0.1295048 -0.091991432 0.70099998 4294242289
-0.0063483729 -0.093972303 0.727 4291017912
-0.0049567637 -0.093713604 0.72500002 4291545543
-0.0035727436 -0.09345492 0.72299999 4294703607
-0.0022024051 -0.093454786 0.72299999 4294703092
0.0032063324 -0.091386214 0.70700002 4294505199
0.0045398921 -0.091256872 0.70599997 4294899701
0.0058613359 -0.090998307 0.704 4294899955
0.0071854172 -0.090869039 0.70300001 4294966005
0.0084814755 -0.090481237 0.69999999 4294966261
0.0097801751 -0.090222701 0.69800001 4294966519
0.011103109 -0.090222724 0.69800001 4294966265
0.012354838 -0.089705728 0.69400001 4294966522
0.013670196 -0.08970575 0.69400001 4294966261
0.014920782 -0.08931803 0.69099998 4294967033
0.016230466 -0.089318104 0.69099998 4294967292
0.017514773 -0.089188926 0.69 4294967293
0.018768022 -0.088930517 0.68800002 4294967295
0.020042865 -0.088801377 0.68699998 4294967295
0.021344999 -0.088801503 0.68699998 4294966778
0.022614179 -0.088672392 0.68599999 4294966778
0.023844719 -0.088414036 0.68400002 4294966780
0.025141202 -0.088414215 0.68400002 4294967294
0.026437698 -0.088414393 0.68400002 4294967294
0.027693663 -0.088285342 0.68300003 4294967295
0.028988285 -0.088285543 0.68300003 4294967295
0.030238587 -0.088156529 0.68199998 4294967295
0.031531353 -0.088156752 0.68199998 4294967295
0.032727879 -0.087898508 0.68000001 4294967295
0.034016881 -0.087898768 0.68000001 4294967295
0.035202064 -0.087640524 0.67799997 4294967295
0.036487322 -0.087640837 0.67799997 4294967295
0.037661169 -0.087382615 0.676 4294967295
0.038885068 -0.087253675 0.67500001 4294967295
0.040164698 -0.087254018 0.67500001 4294967295
0.041444346 -0.087254368 0.67500001 4294967295
0.042724021 -0.087254718 0.67500001 4294967295
0.043938529 -0.087125823 0.67400002 4294967295
0.045216359 -0.08712624 0.67400002 4294967295
0.046356246 -0.086868085 0.67199999 4294967295
0.047630336 -0.08686851 0.67199999 4294967295
0.048904441 -0.086868919 0.67199999 4294967295
0.050178591 -0.086869374 0.67199999 4294967295
0.051452763 -0.086869821 0.67199999 4294967295
0.052726958 -0.086870283 0.67199999 4294967295
0.054001201 -0.08687076 0.67199999 4294967295
0.055275459 -0.086871251 0.67199999 4294967295
0.05654975 -0.086871766 0.67199999 4294967295
0.057824075 -0.086872272 0.67199999 4294967295
0.059098437 -0.086872794 0.67199999 4294967295
0.060372822 -0.086873315 0.67199999 4294967295
0.061830722 -0.087132432 0.67400002 4294967295
0.06292171 -0.08687444 0.67199999 4294967295
0.064196199 -0.086874999 0.67199999 4294967295
0.06566558 -0.087134138 0.67400002 4294967295
0.066745311 -0.086876176 0.67199999 4294967295
0.068019904 -0.086876772 0.67199999 4294967295
0.06929455 -0.086877391 0.67199999 4294967295
0.070569232 -0.086878002 0.67199999 4294967295
0.071843952 -0.08687865 0.67199999 4294967295
0.073118709 -0.086879291 0.67199999 4294967295
0.074393511 -0.086879946 0.67199999 4294967295
0.075668342 -0.086880594 0.67199999 4294967295
0.076943241 -0.086881287 0.67199999 4294967295
0.078218155 -0.086881965 0.67199999 4294967295
0.079493128 -0.086882651 0.67199999 4294967295
0.081008531 -0.087141953 0.67400002 4294967295
0.082287364 -0.087142661 0.67400002 4294967295
0.083690234 -0.087272659 0.67500001 4294967295
0.084971063 -0.087273397 0.67500001 4294967295
0.086379729 -0.087403424 0.676 4294967295
0.087662555 -0.087404177 0.676 4294967295
0.089208566 -0.087663516 0.67799997 4294967295
0.090495273 -0.087664284 0.67799997 4294967295
0.091782019 -0.087665059 0.67799997 4294967295
0.0932061 -0.087795146 0.67900002 4294967295
0.094494835 -0.087795936 0.67900002 4294967295
0.095783621 -0.087796733 0.67900002 4294967295
0.097072482 -0.087797537 0.67900002 4294967295
0.098361365 -0.087798357 0.67900002 4294967295
0.099503517 -0.087669849 0.67799997 4294967295
0.10079063 -0.087670676 0.67799997 4294967294
0.10222833 -0.087800816 0.67900002 4294967294
0.10366986 -0.087930962 0.68000001 4294967294
0.10526959 -0.088190421 0.68199998 4294967293
0.10672074 -0.088320583 0.68300003 4294967039
0.10817572 -0.08845076 0.68400002 4294966782
0.10947449 -0.088451616 0.68400002 4294966780
0.11109721 -0.088711113 0.68599999 4294900987
0.11256372 -0.088841274 0.68699998 4294900987
0.11403412 -0.088971481 0.68800002 4294835193
0.11534071 -0.088972382 0.68800002 4294703607
0.11698642 -0.089231908 0.69 4294703607
0.11829689 -0.089232795 0.69 4294703605
0.12012748 -0.089621685 0.69300002 4294637812
0.121619 -0.089751892 0.69400001 4294637812
0.12329151 -0.09001144 0.69599998 4294637812
0.12461359 -0.090012357 0.69599998 4294308595
0.1266595 -0.090530574 0.69999999 4294045680
0.12817211 -0.090660825 0.70099998 4294242543
0.12950386 -0.090661757 0.70099998 4294176750
-0.0063307262 -0.092339486 0.72500002 4291742405
-0.0049429224 -0.092084579 0.72299999 4292203476
-0.0035577687 -0.091702335 0.72000003 4294506231
-0.0021900849 -0.091574803 0.71899998 4294571504
-0.00082735001 -0.091574691 0.71899998 4294571504
0.0018664257 -0.090046138 0.70700002 4294570990
0.0032064039 -0.090046048 0.70700002 4294570992
0.0045270873 -0.089663886 0.704 4294768115
0.005861375 -0.089663833 0.704 4294505197
0.0071854428 -0.089536451 0.70300001 4294965748
0.0084814858 -0.089154348 0.69999999 4294966261
0.0097801695 -0.08889962 0.69800001 4294966519
0.011103088 -0.088899612 0.69800001 4294966522
0.012354802 -0.088390201 0.69400001 4294966779
0.013670146 -0.088390239 0.69400001 4294967033
0.014963906 -0.088262938 0.69300002 4294967033
0.016277365 -0.088263012 0.69300002 4294966778
0.01751468 -0.087880991 0.69 4294967292
0.018767912 -0.087626368 0.68800002 4294967293
0.020042745 -0.087499112 0.68699998 4294967292
0.021313796 -0.087371886 0.68599999 4294966263
0.02261403 -0.087372035 0.68599999 4294967035
0.023844553 -0.087117456 0.68400002 4294967035
0.025141021 -0.08711762 0.68400002 4294967292
0.026398856 -0.086990453 0.68300003 4294967294
0.02769345 -0.086990647 0.68300003 4294967295
0.028988063 -0.086990863 0.68300003 4294967295
0.030282695 -0.086991087 0.68300003 4294967295
0.031531099 -0.08686395 0.68199998 4294967295
0.032823868 -0.086864203 0.68199998 4294967295
0.034016609 -0.086609758 0.68000001 4294967295
0.035201773 -0.086355291 0.67799997 4294967295
0.036487017 -0.086355582 0.67799997 4294967295
0.037660852 -0.086101152 0.676 4294967295
0.038884737 -0.085974105 0.67500001 4294967295
0.040164355 -0.08597444 0.67500001 4294967295
0.041443992 -0.08597479 0.67500001 4294967295
0.042723652 -0.085975133 0.67500001 4294967295
0.04393816 -0.085848145 0.67400002 4294967295
0.045215968 -0.085848525 0.67400002 4294967295
0.046355836 -0.08559417 0.67199999 4294967295
0.047629915 -0.085594572 0.67199999 4294967295
0.048904024 -0.085595004 0.67199999 4294967295
0.050178152 -0.085595429 0.67199999 4294967295
0.051452309 -0.085595883 0.67199999 4294967295
0.052726496 -0.08559633 0.67199999 4294967295
0.05400072 -0.085596807 0.67199999 4294967295
0.055274971 -0.085597284 0.67199999 4294967295
0.056549247 -0.085597776 0.67199999 4294967295
0.057823569 -0.08559829 0.67199999 4294967295
0.059097901 -0.085598797 0.67199999 4294967295
0.060372282 -0.085599318 0.67199999 4294967295
0.061830178 -0.085854627 0.67400002 4294967295
0.062921144 -0.085600406 0.67199999 4294967295
0.064195633 -0.08560098 0.67199999 4294967295
0.065470152 -0.085601538 0.67199999 4294967295
0.066744715 -0.08560212 0.67199999 4294967295
0.068019308 -0.085602716 0.67199999 4294967295
0.069293939 -0.085603327 0.67199999 4294967295
0.070568606 -0.085603938 0.67199999 4294967295
0.071843319 -0.085604556 0.67199999 4294967295
0.073118068 -0.085605189 0.67199999 4294967295
0.074282154 -0.085478447 0.671 4294967295
0.075555086 -0.085479096 0.671 4294967295
0.076942556 -0.085607149 0.67199999 4294967295
0.078217469 -0.085607819 0.67199999 4294967295
0.079492427 -0.085608497 0.67199999 4294967295
0.081007823 -0.085863985 0.67400002 4294967295
0.082286656 -0.085864678 0.67400002 4294966780
0.083565541 -0.085865401 0.67400002 4294967295
0.084970333 -0.085993499 0.67500001 4294967295
0.086251214 -0.085994236 0.67500001 4294967295
0.087532118 -0.085994959 0.67500001 4294967295
0.088944674 -0.086123109 0.676 4294967295
0.090227574 -0.086123861 0.676 4294966780
0.091781259 -0.086379424 0.67799997 4294967295
0.093068041 -0.086380184 0.67799997 4294967295
0.09449406 -0.086508386 0.67900002 4294967295
0.095782846 -0.086509161 0.67900002 4294967294
0.09707167 -0.08650995 0.67900002 4294967294
0.098360561 -0.086510755 0.67900002 4294967293
0.099502712 -0.086384125 0.67799997 4294967295
0.10078982 -0.086384945 0.67799997 4294967295
0.10222751 -0.086513177 0.67900002 4294967295
0.10366903 -0.086641423 0.68000001 4294967295
0.10526876 -0.08689706 0.68199998 4294901502
0.10671988 -0.087025315 0.68300003 4294966782
0.10801672 -0.087026149 0.68300003 4294966782
0.10947364 -0.087154418 0.68400002 4294900987
0.11109637 -0.087410115 0.68599999 4294835193
0.11256287 -0.087538384 0.68699998 4294769400
0.11386751 -0.087539256 0.68699998 4294769400
0.11533983 -0.087667532 0.68800002 4294703607
0.11664647 -0.087668411 0.68800002 4294703607
0.11829603 -0.087924145 0.69 4294637814
0.12012658 -0.088307306 0.69300002 4294506229
0.12161808 -0.088435605 0.69400001 4294506483
0.12329061 -0.088691354 0.69599998 4294506483
0.12461267 -0.088692248 0.69599998 4294242802
0.12665857 -0.089202888 0.69999999 4294242802
0.12817119 -0.089331217 0.70099998 4294242802
0.12931819 -0.089204676 0.69999999 4293914093
0.13064809 -0.089205593 0.69999999 4293716712
-0.0063305446 -0.090965219 0.72500002 4292137935
-0.0049427575 -0.090714104 0.72299999 4292663777
-0.0035526785 -0.090212077 0.71899998 4294703103
-0.0021838604 -0.089961007 0.71700001 4294636784
-0.00082493114 -0.089960881 0.71700001 4294636784
0.00052952406 -0.089207962 0.71100003 4294637038
0.0018770716 -0.089207865 0.71100003 4294834160
0.0032064745 -0.08870592 0.70700002 4294768369
0.0045271432 -0.088329464 0.704 4294965748
0.005861416 -0.088329397 0.704 4294637297
0.0071854675 -0.088203914 0.70300001 4294966261
0.008457263 -0.087576553 0.69800001 4294967030
0.009766154 -0.087451085 0.69700003 4294967287
0.011087163 -0.087451093 0.69700003 4294966780
0.012354768 -0.087074712 0.69400001 4294967037
0.013650401 -0.086949289 0.69300002 4294967033
0.014920658 -0.086698398 0.69099998 4294967292
0.016206821 -0.086573005 0.69 4294967035
0.017463824 -0.086322151 0.68800002 4294967293
0.018740529 -0.086196773 0.68699998 4294967291
0.020042622 -0.086196885 0.68699998 4294967291
0.02131366 -0.086071551 0.68599999 4294966261
0.022613883 -0.086071692 0.68599999 4294967033
0.023844397 -0.085820906 0.68400002 4294966780
0.025104091 -0.085695602 0.68300003 4294967294
0.026398662 -0.085695788 0.68300003 4294967293
0.027693247 -0.085695982 0.68300003 4294967295
0.028987847 -0.085696198 0.68300003 4294967292
0.030238124 -0.085570954 0.68199998 4294967293
0.031530857 -0.085571185 0.68199998 4294967295
0.032679226 -0.08519502 0.67900002 4294967295
0.033916283 -0.085069805 0.67799997 4294967295
0.03520149 -0.085070066 0.67799997 4294967295
0.036379091 -0.084819429 0.676 4294967295
0.037660543 -0.084819734 0.676 4294967295
0.03888442 -0.084694587 0.67500001 4294967295
0.040164016 -0.084694885 0.67500001 4294967295
0.041443646 -0.084695227 0.67500001 4294967295
0.042723294 -0.084695593 0.67500001 4294967295
0.043937776 -0.084570475 0.67400002 4294967295
0.045215581 -0.084570847 0.67400002 4294967295
0.046355441 -0.084320284 0.67199999 4294967295
0.047629509 -0.084320694 0.67199999 4294967295
0.048903596 -0.084321104 0.67199999 4294967295
0.050177716 -0.084321521 0.67199999 4294967295
0.051451862 -0.084321953 0.67199999 4294967295
0.05272603 -0.084322408 0.67199999 4294967295
0.054000244 -0.084322877 0.67199999 4294967295
0.055274487 -0.084323339 0.67199999 4294967295
0.056548756 -0.084323838 0.67199999 4294967295
0.057737019 -0.084198847 0.671 4294967295
0.059009451 -0.084199354 0.671 4294967295
0.060281929 -0.084199868 0.671 4294967295
0.06164616 -0.08432588 0.67199999 4294967295
0.062920593 -0.084326424 0.67199999 4294967295
0.064195067 -0.08432696 0.67199999 4294967295
0.065469585 -0.084327534 0.67199999 4294967295
0.066744134 -0.084328108 0.67199999 4294967295
0.068018712 -0.084328681 0.67199999 4294967295
0.069293328 -0.084329262 0.67199999 4294967295
0.070462979 -0.084204376 0.671 4294967295
0.071735792 -0.084205009 0.671 4294967295
0.073117442 -0.084331118 0.67199999 4294967295
0.074281521 -0.084206246 0.671 4294967295
0.075554438 -0.084206894 0.671 4294967295
0.076827399 -0.084207535 0.671 4294967295
0.078216814 -0.08433371 0.67199999 4294967295
0.079491764 -0.084334373 0.67199999 4294967295
0.08100713 -0.084586054 0.67400002 4294967295
0.082285963 -0.084586747 0.67400002 4294967295
0.083564825 -0.084587432 0.67400002 4294967295
0.084969625 -0.084713645 0.67500001 4294967295
0.086250491 -0.084714361 0.67500001 4294967295
0.087531395 -0.084715083 0.67500001 4294967295
0.088812351 -0.084715806 0.67500001 4294967295
0.090093337 -0.084716544 0.67500001 4294967294
0.091509759 -0.084842794 0.676 4294967294
0.093067273 -0.085094549 0.67799997 4294967293
0.094493292 -0.085220844 0.67900002 4294966780
0.095923118 -0.085347109 0.68000001 4294900987
0.097213849 -0.085347898 0.68000001 4294900987
0.098504618 -0.085348673 0.68000001 4294900987
0.099648692 -0.085223965 0.67900002 4294967293
0.10093766 -0.085224748 0.67900002 4294966780
0.10222669 -0.085225545 0.67900002 4294966780
0.10366821 -0.085351862 0.68000001 4294967293
0.10526793 -0.085603729 0.68199998 4294900987
0.10656279 -0.085604541 0.68199998 4294900987
0.10785773 -0.085605375 0.68199998 4294900987
0.10931277 -0.085731737 0.68300003 4294835191
0.11077163 -0.085858092 0.68400002 4294703605
0.11256202 -0.086235486 0.68699998 4294637560
0.11386664 -0.086236335 0.68699998 4294637560
0.11533898 -0.086362727 0.68800002 4294637560
0.1166456 -0.086363591 0.68800002 4294637560
0.11829515 -0.086615495 0.69 4294506229
0.12029904 -0.087118484 0.69400001 4294440436
0.12196769 -0.087370403 0.69599998 4294506483
0.12328971 -0.08737129 0.69599998 4294506483
0.12496988 -0.087623239 0.69800001 4294308849
0.12665769 -0.087875202 0.69999999 4294374642
0.12817031 -0.088001616 0.70099998 4294045678
0.1293173 -0.087876976 0.69999999 4293914091
0.1306472 -0.087877855 0.69999999 4293782505
0.1327313 -0.088380918 0.704 4294177263
-0.0049152505 -0.088849381 0.71899998 4293387747
-0.0035525321 -0.088849232 0.71899998 4294637814
-0.0021806844 -0.088478379 0.71600002 4294768367
-0.00081791333 -0.087860383 0.71100003 4294571244
0.00052887882 -0.087736703 0.70999998 4294505710
0.0018692358 -0.087489471 0.708 4294505710
0.0032065439 -0.087365828 0.70700002 4294374127
0.0045207664 -0.086871468 0.70300001 4294768885
0.0058364784 -0.086624287 0.70099998 4294637297
0.0071548303 -0.086500682 0.69999999 4294966519
0.0084572714 -0.086253509 0.69800001 4294966776
0.0097661503 -0.086129948 0.69700003 4294966261
0.011071236 -0.086006381 0.69599998 4294966007
0.012354735 -0.08575926 0.69400001 4294967036
0.013650354 -0.085635737 0.69300002 4294967290
0.014920593 -0.085388623 0.69099998 4294967291
0.016206745 -0.08526513 0.69 4294966776
0.017463729 -0.085018069 0.68800002 4294967290
0.018740425 -0.084894598 0.68699998 4294967290
0.020042503 -0.084894694 0.68699998 4294967290
0.021313529 -0.084771246 0.68599999 4294965748
0.022613738 -0.084771395 0.68599999 4294966263
0.023809375 -0.084400833 0.68300003 4294966265
0.025103917 -0.084400997 0.68300003 4294967036
0.026398474 -0.08440116 0.68300003 4294967293
0.027693048 -0.084401362 0.68300003 4294967295
0.028945185 -0.08427798 0.68199998 4294967033
0.030237893 -0.084278204 0.68199998 4294967294
0.03143815 -0.084031284 0.68000001 4294967295
0.032630846 -0.083784379 0.67799997 4294967295
0.033916015 -0.083784625 0.67799997 4294967295
0.035097376 -0.083537757 0.676 4294967295
0.036378797 -0.083538033 0.676 4294967294
0.037660241 -0.083538346 0.676 4294967295
0.0388841 -0.083415061 0.67500001 4294967295
0.040104188 -0.083291806 0.67400002 4294967295
0.041381903 -0.083292142 0.67400002 4294967294
0.042659648 -0.083292484 0.67400002 4294967295
0.043937415 -0.083292849 0.67400002 4294967295
0.045215204 -0.083293214 0.67400002 4294967295
0.04635505 -0.083046429 0.67199999 4294967295
0.047629107 -0.083046831 0.67199999 4294967295
0.048903175 -0.083047226 0.67199999 4294967295
0.050177295 -0.083047651 0.67199999 4294967295
0.051451422 -0.083048075 0.67199999 4294967295
0.052647121 -0.082924925 0.671 4294967295
0.053919431 -0.082925394 0.671 4294967295
0.055191763 -0.082925856 0.671 4294967295
0.056464121 -0.082926326 0.671 4294967295
0.05773652 -0.082926817 0.671 4294967295
0.059008945 -0.082927324 0.671 4294967295
0.060281407 -0.082927823 0.671 4294967295
0.061553895 -0.082928337 0.671 4294967295
0.062826425 -0.082928874 0.671 4294967295
0.064098984 -0.082929403 0.671 4294967295
0.065469012 -0.083053552 0.67199999 4294967293
0.066743553 -0.083054118 0.67199999 4294967292
0.068018131 -0.083054684 0.67199999 4294967295
0.069292739 -0.083055265 0.67199999 4294967295
0.070462391 -0.082932271 0.671 4294967295
0.071735181 -0.082932875 0.671 4294967295
0.073116817 -0.083057083 0.67199999 4294967295
0.074280895 -0.082934104 0.671 4294967295
0.07555379 -0.082934722 0.671 4294967295
0.076826759 -0.082935371 0.671 4294967295
0.078216143 -0.083059616 0.67199999 4294967295
0.079491086 -0.083060265 0.67199999 4294967295
0.081006452 -0.083308153 0.67400002 4294967295
0.082285263 -0.083308823 0.67400002 4294967295
0.083564132 -0.083309509 0.67400002 4294967295
0.084968925 -0.083433814 0.67500001 4294967295
0.086122006 -0.08331091 0.67400002 4294967295
0.087401018 -0.083311617 0.67400002 4294967291
0.088811629 -0.083435938 0.67500001 4294967293
0.090092599 -0.083436653 0.67500001 4294967293
0.09137366 -0.083437398 0.67500001 4294900987
0.093066521 -0.083808951 0.67799997 4294900987
0.094492525 -0.083933324 0.67900002 4294835193
0.095922351 -0.084057696 0.68000001 4294769400
0.097213075 -0.084058456 0.68000001 4294769400
0.098503835 -0.084059231 0.68000001 4294835193
0.099794656 -0.084060006 0.68000001 4294966780
0.10093687 -0.083937168 0.67900002 4294966780
0.10222588 -0.083937965 0.67900002 4294966780
0.10366741 -0.084062368 0.68000001 4294966780
0.10495844 -0.08406318 0.68000001 4294900987
0.10624948 -0.084063977 0.68000001 4294835195
0.10785691 -0.084312029 0.68199998 4294835195
0.10931193 -0.084436469 0.68300003 4294769400
0.11077079 -0.084560923 0.68400002 4294637814
0.11256119 -0.084932633 0.68699998 4294637814
0.1138658 -0.084933452 0.68699998 4294506229
0.11533813 -0.085057937 0.68800002 4294506229
0.11698384 -0.085306041 0.69 4294637814
0.11829428 -0.085306868 0.69 4294506229
0.12029818 -0.085802265 0.69400001 4294440436
0.12196682 -0.086050391 0.69599998 4294243056
0.12328884 -0.086051248 0.69599998 4294374642
0.12478997 -0.086175762 0.69700003 4294308849
0.12665682 -0.086547546 0.69999999 4294243056
0.12798661 -0.086548418 0.69999999 4294044907
0.12950116 -0.086672932 0.70099998 4294044907
0.13120621 -0.086921088 0.70300001 4293782505
0.13273041 -0.08704561 0.704 4294045678
-0.0063039982 -0.087851785 0.722 4293058012
-0.0049150921 -0.08748658 0.71899998 4293848037
-0.0035425068 -0.087243073 0.71700001 4294966261
-0.0021805561 -0.087121271 0.71600002 4294637036
-0.00081780052 -0.086512752 0.71100003 4294505449
0.00052897696 -0.086390965 0.70999998 4294505197
0.0018693192 -0.086147532 0.708 4294505197
0.0032066123 -0.086025767 0.70700002 4294505458
0.0045208205 -0.085539006 0.70300001 4294834680
0.0058365171 -0.085295595 0.70099998 4294769139
0.0071548535 -0.085173897 0.69999999 4294966261
0.0084572826 -0.084930517 0.69800001 4294966261
0.0097661456 -0.084808856 0.69700003 4294834932
0.011071218 -0.084687173 0.69599998 4294966263
0.012354702 -0.084443845 0.69400001 4294967294
0.013650308 -0.084322214 0.69300002 4294967290
0.014920532 -0.084078901 0.69099998 4294967290
0.016206671 -0.0839573 0.69 4294967033
0.017463643 -0.083714016 0.68800002 4294967290
0.018740321 -0.083592445 0.68699998 4294967291
0.020013215 -0.083470874 0.68599999 4294967291
0.021313399 -0.083470993 0.68599999 4294967291
0.022547666 -0.083227783 0.68400002 4294967292
0.023809215 -0.08310625 0.68300003 4294967294
0.02510375 -0.083106406 0.68300003 4294967295
0.026398292 -0.083106577 0.68300003 4294967295
0.027652303 -0.082985088 0.68199998 4294967295
0.028944978 -0.082985282 0.68199998 4294967295
0.030148996 -0.08274214 0.68000001 4294967294
0.03139168 -0.082620688 0.67900002 4294967295
0.0326306 -0.082499258 0.67799997 4294967295
0.033915758 -0.082499504 0.67799997 4294967295
0.035097104 -0.082256407 0.676 4294967294
0.03637851 -0.08225669 0.676 4294967292
0.037604231 -0.082135305 0.67500001 4294967295
0.038826186 -0.08201392 0.67400002 4294967295
0.040103868 -0.082014233 0.67400002 4294967295
0.041381571 -0.082014561 0.67400002 4294967295
0.042659294 -0.082014896 0.67400002 4294967295
0.043806668 -0.08177188 0.67199999 4294967295
0.045080658 -0.081772238 0.67199999 4294967295
0.046354666 -0.081772611 0.67199999 4294967295
0.047628708 -0.081773005 0.67199999 4294967295
0.048902772 -0.0817734 0.67199999 4294967295
0.050176863 -0.08177381 0.67199999 4294967295
0.05145099 -0.081774227 0.67199999 4294967295
0.052646682 -0.081652977 0.671 4294967295
0.053918984 -0.081653431 0.671 4294967295
0.055191301 -0.081653871 0.671 4294967295
0.056379505 -0.081532665 0.67000002 4294967295
0.057649989 -0.081533134 0.67000002 4294967295
0.058744624 -0.081290245 0.66799998 4294967295
0.060011379 -0.081290729 0.66799998 4294967295
0.061461646 -0.081534632 0.67000002 4294967295
0.062545009 -0.081291758 0.66799998 4294967295
0.063811876 -0.081292294 0.66799998 4294967295
0.065371037 -0.081657909 0.671 4294967292
0.066643685 -0.081658468 0.671 4294967295
0.068017557 -0.081780717 0.67199999 4294967295
0.069292165 -0.08178129 0.67199999 4294967295
0.070461802 -0.081660181 0.671 4294967295
0.071734577 -0.081660777 0.671 4294967295
0.073116206 -0.081783064 0.67199999 4294967295
0.074390963 -0.081783675 0.67199999 4294967295
0.075665772 -0.081784301 0.67199999 4294967295
0.076940611 -0.081784926 0.67199999 4294967295
0.078215502 -0.081785567 0.67199999 4294967295
0.079490423 -0.0817862 0.67199999 4294967295
0.081005797 -0.082030281 0.67400002 4294967295
0.082284592 -0.082030945 0.67400002 4294967295
0.083563447 -0.082031608 0.67400002 4294967294
0.084968217 -0.082153998 0.67500001 4294967293
0.086121306 -0.082032993 0.67400002 4294966780
0.087400302 -0.082033679 0.67400002 4294967035
0.088679343 -0.082034379 0.67400002 4294967292
0.089958429 -0.082035094 0.67400002 4294967034
0.091372922 -0.08215753 0.67500001 4294769398
0.09320306 -0.082645118 0.67900002 4294900987
0.094630942 -0.082767569 0.68000001 4294835193
0.095921598 -0.082768306 0.68000001 4294769400
0.097212315 -0.082769051 0.68000001 4294769400
0.098358221 -0.082648098 0.67900002 4294966009
0.09964712 -0.082648858 0.67900002 4294966780
0.1009361 -0.082649626 0.67900002 4294966778
0.10222511 -0.082650393 0.67900002 4294966778
0.10351416 -0.082651168 0.67900002 4294966521
0.10480329 -0.082651958 0.67900002 4294834678
0.10609245 -0.082652748 0.67900002 4294834682
0.10753982 -0.082775265 0.68000001 4294834682
0.10883097 -0.08277607 0.68000001 4294834680
0.11060804 -0.083142065 0.68300003 4294703094
0.11206884 -0.083264604 0.68400002 4294703092
0.11386498 -0.083630607 0.68699998 4294505712
0.11533731 -0.083753176 0.68800002 4294571506
0.11698298 -0.083997466 0.69 4294768885
0.11846489 -0.08412002 0.69099998 4294506483
0.12029734 -0.084486082 0.69400001 4294440690
0.12196597 -0.084730387 0.69599998 4294308849
0.12328801 -0.084731236 0.69599998 4294308849
0.12478912 -0.084853835 0.69700003 4294243054
0.12665595 -0.085219905 0.69999999 4294243054
0.12798572 -0.085220769 0.69999999 4294044909
0.1295003 -0.085343368 0.70099998 4294044909
0.13120535 -0.085587718 0.70300001 4293848296
0.13272955 -0.085710332 0.704 4293980139
-0.0076828459 -0.086603291 0.72299999 4289899941
-0.0063038263 -0.08648333 0.722 4293584093
-0.0049149361 -0.086123817 0.71899998 4294110953
-0.0035423662 -0.085884109 0.71700001 4294703090
-0.0021743388 -0.085524626 0.71399999 4294505449
-0.00081653928 -0.085045382 0.70999998 4294505449
0.00052758324 -0.084805705 0.708 4294505197
0.0018694011 -0.084805623 0.708 4294570990
0.0032066796 -0.084685758 0.70700002 4294505199
0.0045273048 -0.084326364 0.704 4294899701
0.0058365562 -0.08396697 0.70099998 4294834932
0.0071344362 -0.083607592 0.69800001 4294966261
0.0084451772 -0.083487801 0.69700003 4294966005
0.0097661428 -0.083487801 0.69700003 4294966005
0.011039387 -0.083128452 0.69400001 4294966263
0.012354671 -0.08312849 0.69400001 4294967033
0.013650263 -0.083008751 0.69300002 4294966263
0.014920475 -0.08276923 0.69099998 4294967033
0.0162066 -0.082649514 0.69 4294967033
0.017463557 -0.08241003 0.68800002 4294967290
0.01874022 -0.082290336 0.68699998 4294967291
0.0200131 -0.082170658 0.68599999 4294967292
0.021313271 -0.08217077 0.68599999 4294967293
0.022547523 -0.081931353 0.68400002 4294967293
0.023809066 -0.081811711 0.68300003 4294967292
0.025103578 -0.081811868 0.68300003 4294967295
0.026359458 -0.081692249 0.68199998 4294967295
0.027652109 -0.081692435 0.68199998 4294967295
0.028944774 -0.081692643 0.68199998 4294967294
0.03014878 -0.081453286 0.68000001 4294967293
0.031391457 -0.081333727 0.67900002 4294966780
0.03263035 -0.08121416 0.67799997 4294967295
0.033815451 -0.080974847 0.676 4294967294
0.035096832 -0.080975108 0.676 4294967295
0.036324419 -0.080855601 0.67500001 4294967294
0.037603937 -0.080855876 0.67500001 4294967295
0.038825881 -0.080736399 0.67400002 4294967295
0.040103544 -0.080736689 0.67400002 4294967295
0.04138124 -0.080737017 0.67400002 4294967295
0.042658959 -0.080737345 0.67400002 4294967295
0.043806314 -0.080498107 0.67199999 4294967294
0.045080293 -0.080498472 0.67199999 4294967293
0.046354294 -0.080498844 0.67199999 4294967295
0.047628321 -0.080499224 0.67199999 4294967295
0.048902374 -0.080499604 0.67199999 4294967292
0.050176453 -0.080499999 0.67199999 4294967295
0.051374 -0.080380633 0.671 4294967295
0.052646246 -0.080381051 0.671 4294967295
0.053918533 -0.080381498 0.671 4294967295
0.055190835 -0.080381937 0.671 4294967295
0.056210726 -0.080023013 0.66799998 4294967295
0.057477415 -0.08002349 0.66799998 4294967295
0.058656193 -0.079904169 0.667 4294967295
0.059921045 -0.079904646 0.667 4294967295
0.061277658 -0.080024928 0.66799998 4294967295
0.06254448 -0.080025457 0.66799998 4294967295
0.063811339 -0.080025978 0.66799998 4294967295
0.065370508 -0.080385901 0.671 4294967293
0.066643126 -0.080386445 0.671 4294966780
0.068016998 -0.080506794 0.67199999 4294967295
0.069291584 -0.080507345 0.67199999 4294967295
0.070461221 -0.080388129 0.671 4294967295
0.071733989 -0.080388702 0.671 4294967295
0.073115595 -0.080509096 0.67199999 4294967295
0.074279651 -0.080389887 0.671 4294967294
0.075552553 -0.080390491 0.671 4294967294
0.076939985 -0.080510922 0.67199999 4294967295
0.078214869 -0.080511548 0.67199999 4294967295
0.079489797 -0.080512181 0.67199999 4294967293
0.080764763 -0.080512829 0.67199999 4294967292
0.082283936 -0.080753103 0.67400002 4294967293
0.083562776 -0.080753751 0.67400002 4294967292
0.084841669 -0.080754422 0.67400002 4294835193
0.08612062 -0.080755107 0.67400002 4294900987
0.087399617 -0.080755778 0.67400002 4294967035
0.088678636 -0.080756471 0.67400002 4294967035
0.089957699 -0.080757163 0.67400002 4294835191
0.091236845 -0.080757879 0.67400002 4294835191
0.092515998 -0.080758579 0.67400002 4294835191
0.094491042 -0.08135841 0.67900002 4294835191
0.096202977 -0.081718594 0.68199998 4294834932
0.097497478 -0.081719339 0.68199998 4294966261
0.098357476 -0.081360623 0.67900002 4294966521
0.099646382 -0.081361361 0.67900002 4294966521
0.10093532 -0.081362106 0.67900002 4294966009
0.10222434 -0.081362873 0.67900002 4294966009
0.10351339 -0.081363633 0.67900002 4294834680
0.10480252 -0.081364401 0.67900002 4294834680
0.10609167 -0.081365176 0.67900002 4294834682
0.10753901 -0.081485786 0.68000001 4294702840
0.10883018 -0.08148656 0.68000001 4294703094
0.11012138 -0.08148735 0.68000001 4294703094
0.11206803 -0.081967488 0.68400002 4294637299
0.11386416 -0.082327783 0.68699998 4294637299
0.11533648 -0.082448445 0.68800002 4294637299
0.11698218 -0.082688928 0.69 4294834678
0.11846406 -0.082809575 0.69099998 4294440690
0.12029652 -0.083169922 0.69400001 4294440690
0.12196515 -0.083410427 0.69599998 4294308849
0.12328716 -0.083411261 0.69599998 4294243056
0.12478829 -0.083531946 0.69700003 4294243054
0.1266551 -0.083892301 0.69999999 4294177261
0.1279849 -0.08389315 0.69999999 4293847785
0.12949945 -0.084013835 0.70099998 4293979114
0.13120449 -0.084254377 0.70300001 4293979112
0.13272868 -0.084375076 0.704 4294045161
-0.0090779904 -0.08546894 0.72500002 4290360754
-0.0076826629 -0.085232988 0.72299999 4290689453
-0.0063036582 -0.085114911 0.722 4294110689
-0.0049147825 -0.084761091 0.71899998 4294571756
-0.0035422274 -0.084525175 0.71700001 4294703342
-0.0021742145 -0.08417137 0.71399999 4294637288
-0.00081643008 -0.083699711 0.70999998 4294900203
0.00052767806 -0.08346384 0.708 4294768365
0.0018694819 -0.083463758 0.708 4294768365
0.0032067471 -0.083345801 0.70700002 4294636786
0.0045273565 -0.082992077 0.704 4294833908
0.0058365948 -0.082638383 0.70099998 4294769139
0.0071344604 -0.082284681 0.69800001 4294834932
0.0084451875 -0.082166784 0.69700003 4294966005
0.009724102 -0.081813112 0.69400001 4294966005
0.01103937 -0.081813119 0.69400001 4294966005
0.012336838 -0.081695266 0.69300002 4294966776
0.01361082 -0.08145953 0.69099998 4294966263
0.014920417 -0.081459582 0.69099998 4294966776
0.016206527 -0.081341758 0.69 4294967033
0.017463472 -0.081106059 0.68800002 4294967033
0.018740121 -0.080988258 0.68699998 4294967035
0.020042164 -0.080988362 0.68699998 4294967035
0.021313144 -0.080870584 0.68599999 4294967292
0.022547383 -0.080634944 0.68400002 4294967292
0.023808915 -0.080517218 0.68300003 4294967035
0.025103416 -0.080517359 0.68300003 4294967292
0.026359286 -0.08039964 0.68199998 4294967294
0.027651921 -0.080399819 0.68199998 4294967294
0.028944571 -0.080400005 0.68199998 4294967294
0.030148566 -0.080164447 0.68000001 4294967294
0.031344991 -0.079928882 0.67799997 4294967295
0.032630116 -0.079929106 0.67799997 4294967295
0.033815205 -0.079693578 0.676 4294967294
0.035096567 -0.079693839 0.676 4294967294
0.03632414 -0.079576217 0.67500001 4294967295
0.037603647 -0.079576492 0.67500001 4294967295
0.038825579 -0.079458892 0.67400002 4294967295
0.040103234 -0.079459198 0.67400002 4294967295
0.041380912 -0.079459503 0.67400002 4294967295
0.042532034 -0.07922405 0.67199999 4294967295
0.043805975 -0.079224385 0.67199999 4294967295
0.045079935 -0.079224735 0.67199999 4294967295
0.046353918 -0.079225093 0.67199999 4294967295
