# .PCD v0.7 - Point Cloud Data file format
VERSION 0.7
FIELDS x y z rgba
SIZE 4 4 4 4
TYPE F F F U
COUNT 1 1 1 1
WIDTH 1074
HEIGHT 1
VIEWPOINT 0 0 0 1 0 0 0
POINTS 1074
DATA ascii
0.11048234 -0.10751614 0.70700002 4294242543
0.11166663 -0.1073651 0.70599997 4294308336
0.11268712 -0.10706199 0.704 4294374129
0.11386203 -0.10691097 0.70300001 4294374129
0.11519705 -0.10691201 0.70300001 4294307312
0.11620057 -0.10660888 0.70099998 4294307312
0.1175319 -0.10660996 0.70099998 4294307566
0.11886327 -0.10661102 0.70099998 4294307566
0.12019467 -0.10661208 0.70099998 4294307564
0.12135278 -0.10646106 0.69999999 4294307564
0.12268238 -0.10646213 0.69999999 4294307818
0.12401204 -0.10646319 0.69999999 4294373611
0.12498364 -0.1061601 0.69800001 4294176233
0.1263096 -0.10616117 0.69800001 4294110439
0.12745275 -0.10601014 0.69700003 4294110439
0.12877691 -0.10601123 0.69700003 4294110439
0.13010108 -0.10601229 0.69700003 4294110441
0.13142535 -0.10601338 0.69700003 4294044648
0.1325592 -0.10586235 0.69599998 4293978603
0.13388163 -0.10586344 0.69599998 4293978603
0.13520412 -0.10586451 0.69599998 4293912808
0.13652667 -0.10586558 0.69599998 4293912808
0.13784924 -0.10586666 0.69599998 4293912808
0.13877198 -0.10556352 0.69400001 4293847015
0.13988899 -0.10541248 0.69300002 4293847015
0.14079851 -0.10510932 0.69099998 4293715686
0.1419061 -0.10495826 0.69 4293715684
0.14321752 -0.10495932 0.69 4293715684
0.14452899 -0.10496039 0.69 4293649890
0.14605182 -0.10511354 0.69099998 4293584097
0.14736527 -0.10511459 0.69099998 4293584097
0.14867876 -0.10511564 0.69099998 4293584097
0.1499923 -0.10511667 0.69099998 4293649888
0.15174381 -0.10542197 0.69300002 4293649888
0.15306123 -0.10542299 0.69300002 4293386464
0.15437868 -0.10542401 0.69300002 4293452257
0.15524682 -0.10512077 0.69099998 4293386462
0.15633401 -0.10496964 0.69 4293255133
0.15696044 -0.10451426 0.68699998 4293189085
0.15803628 -0.10436311 0.68599999 4293123292
0.15934063 -0.1043641 0.68599999 4293254360
0.16064501 -0.10436508 0.68599999 4293386203
0.16194943 -0.10436604 0.68599999 4293320153
0.16349185 -0.10451911 0.68699998 4293386203
0.1647982 -0.10452006 0.68699998 4293056986
0.16610466 -0.10452101 0.68699998 4292991193
0.16765481 -0.10467409 0.68800002 4292991193
0.16896319 -0.104675 0.68800002 4292991193
0.17027159 -0.10467589 0.68800002 4292991191
0.17232819 -0.10513321 0.69099998 4292925398
0.17364235 -0.10513411 0.69099998 4292925400
0.17495656 -0.10513497 0.69099998 4292925400
0.17627083 -0.10513584 0.69099998 4292925400
0.17835608 -0.10559315 0.69400001 4292925400
0.17941716 -0.10544182 0.69300002 4292728535
0.18021366 -0.10513831 0.69099998 4292728535
0.18152802 -0.10513913 0.69099998 4292662995
0.18284237 -0.10513991 0.69099998 4292728788
0.18468975 -0.105445 0.69300002 4292596950
0.18600796 -0.10544577 0.69300002 4292465108
0.18732616 -0.1054465 0.69300002 4292596687
0.18864438 -0.1054472 0.69300002 4292728016
0.19023673 -0.10560007 0.69400001 4292334031
0.1915569 -0.10560077 0.69400001 4292268238
0.19287708 -0.10560143 0.69400001 4292268238
0.19475691 -0.10590641 0.69599998 4292070602
0.19608092 -0.10590702 0.69599998 4292136651
0.19740491 -0.10590763 0.69599998 4292202444
0.19872889 -0.1059082 0.69599998 4292136136
0.2000529 -0.10590877 0.69599998 4292070343
0.20137693 -0.10590931 0.69599998 4291938503
0.20328347 -0.10621419 0.69800001 4291938503
0.20519756 -0.10651901 0.69999999 4291938503
0.2074143 -0.106976 0.70300001 4291938503
0.20904857 -0.10712861 0.704 4291610055
0.21038784 -0.10712905 0.704 4291544006
0.21172705 -0.10712945 0.704 4291610053
0.21306628 -0.10712982 0.704 4291544260
0.22812772 -0.10987081 0.722 4290754744
0.22950104 -0.10987096 0.722 4290754744
0.23087431 -0.10987107 0.722 4290688953
0.087306187 -0.11261156 0.75 4290756030
0.088610962 -0.1124623 0.74900001 4292662745
0.09003219 -0.11246322 0.74900001 4294504693
0.090232447 -0.11096263 0.73900002 4294438891
0.09151078 -0.11081338 0.73799998 4294438891
0.092659481 -0.110514 0.736 4294373096
0.093800634 -0.11021464 0.73400003 4294307303
0.094804548 -0.1097651 0.73100001 4294307818
0.096060306 -0.1096159 0.73000002 4294176233
0.097178824 -0.10931654 0.72799999 4294176233
0.098560557 -0.1093175 0.72799999 4294373611
0.098844096 -0.10811717 0.72000003 4294110439
0.10007155 -0.10796797 0.71899998 4294439404
0.10143636 -0.10796896 0.71899998 4294373611
0.10251526 -0.10766961 0.71700001 4294373611
0.10387634 -0.1076706 0.71700001 4294570220
0.10509074 -0.10752144 0.71600002 4294373098
0.10615269 -0.10722209 0.71399999 4294307818
0.10735767 -0.10707293 0.713 4294439404
0.10840643 -0.10677361 0.71100003 4294307564
0.10975638 -0.10677462 0.71100003 4294307564
0.11048132 -0.10617495 0.70700002 4294373357
0.1116656 -0.10602578 0.70599997 4294373357
0.11268607 -0.10572647 0.704 4294308336
0.11386097 -0.10557731 0.70300001 4294308336
0.11519599 -0.10557836 0.70300001 4293979114
0.11619954 -0.10527904 0.70099998 4294176750
0.11753085 -0.10528007 0.70099998 4294307564
0.1188622 -0.10528112 0.70099998 4294307564
0.12019362 -0.10528217 0.70099998 4294307564
0.12135172 -0.10513305 0.69999999 4294176235
0.12268131 -0.10513409 0.69999999 4294241255
0.124011 -0.10513517 0.69999999 4294307305
0.12498256 -0.10483583 0.69800001 4294110439
0.12630853 -0.1048369 0.69800001 4293978853
0.12745167 -0.10468777 0.69700003 4294175462
0.12877582 -0.10468883 0.69700003 4294175462
0.13010004 -0.10468991 0.69700003 4294044648
0.1312357 -0.10454075 0.69599998 4294044648
0.13255812 -0.10454183 0.69599998 4293978601
0.13388057 -0.10454289 0.69599998 4293912808
0.13520305 -0.10454395 0.69599998 4293912808
0.1361333 -0.10424461 0.69400001 4293912808
0.13745207 -0.10424566 0.69400001 4293847015
0.13877089 -0.10424672 0.69400001 4293847015
0.13988794 -0.10409758 0.69300002 4293847015
0.14079745 -0.10379819 0.69099998 4293715686
0.14190505 -0.10364903 0.69 4293715684
0.14321649 -0.10365009 0.69 4293715684
0.14452791 -0.10365111 0.69 4293649890
0.1460508 -0.10380238 0.69099998 4293518304
0.14736424 -0.10380341 0.69099998 4293451742
0.14867774 -0.10380445 0.69099998 4293517791
0.14999127 -0.10380547 0.69099998 4293584095
0.15174277 -0.10410695 0.69300002 4293584095
0.15306023 -0.10410798 0.69300002 4293255135
0.15437767 -0.104109 0.69300002 4293386464
0.15524583 -0.10380954 0.69099998 4293386464
0.15633301 -0.10366032 0.69 4293255135
0.15695946 -0.10321058 0.68699998 4293254108
0.15803531 -0.10306133 0.68599999 4293254108
0.15933964 -0.10306228 0.68599999 4293253847
0.16064404 -0.10306326 0.68599999 4293253847
0.16194846 -0.1030642 0.68599999 4293056468
0.16349089 -0.10321539 0.68699998 4293253847
0.16479729 -0.10321634 0.68699998 4293056988
0.16610372 -0.10321725 0.68699998 4293056988
0.16765387 -0.10336844 0.68800002 4293056986
0.16896228 -0.10336933 0.68800002 4292991193
0.17027071 -0.10337023 0.68800002 4292926165
0.17207794 -0.10367161 0.69 4292926165
0.17339019 -0.10367249 0.69 4292925911
0.17470253 -0.10367335 0.69 4292925911
0.17601487 -0.1036742 0.69 4292794584
0.17809823 -0.1041258 0.69300002 4292794584
0.17941631 -0.10412661 0.69300002 4292728788
0.18021289 -0.10382692 0.69099998 4292728788
0.18152721 -0.1038277 0.69099998 4292662993
0.18284157 -0.10382848 0.69099998 4292662993
0.18415599 -0.10382925 0.69099998 4292465362
0.18547037 -0.10382999 0.69099998 4292334033
0.18678479 -0.10383072 0.69099998 4292529870
0.18809927 -0.10383144 0.69099998 4292529870
0.18996197 -0.10413266 0.69300002 4292333260
0.19128019 -0.10413333 0.69300002 4292267467
0.19287643 -0.10428426 0.69400001 4292267467
0.19419663 -0.1042849 0.69400001 4292136138
0.1960803 -0.10458605 0.69599998 4292070602
0.19740431 -0.10458665 0.69599998 4292070602
0.19815731 -0.1042867 0.69400001 4291939014
0.19947752 -0.10428726 0.69400001 4292005063
0.20137642 -0.10458833 0.69599998 4291806916
0.20299172 -0.10473912 0.69700003 4291872709
0.20519708 -0.10519043 0.69999999 4291938503
0.20741384 -0.10564171 0.70300001 4291938503
0.20904815 -0.10579244 0.704 4291610055
0.21038744 -0.10579287 0.704 4291610055
0.21172665 -0.10579326 0.704 4291609542
0.21306589 -0.10579363 0.704 4291543493
0.22812754 -0.10850044 0.722 4290623928
0.2295009 -0.10850059 0.722 4290623928
0.0873053 -0.11118907 0.75 4291084994
0.088610068 -0.11104171 0.74900001 4293254360
0.089790866 -0.11074609 0.74699998 4294833649
0.090231545 -0.10956097 0.73900002 4294570218
0.091509864 -0.1094136 0.73799998 4294373096
0.092910334 -0.10941453 0.73799998 4294307303
0.094055295 -0.10911894 0.736 4294307303
0.094803624 -0.10837857 0.73100001 4294176233
0.09605936 -0.10823126 0.73000002 4294176233
0.097177848 -0.10793565 0.72799999 4294176235
0.098559603 -0.10793662 0.72799999 4294373357
0.09884312 -0.10675146 0.72000003 4294373611
0.10007057 -0.10660415 0.71899998 4294636784
0.10143538 -0.10660512 0.71899998 4294438891
0.10251425 -0.10630956 0.71700001 4294438891
0.10387536 -0.10631054 0.71700001 4294372844
0.10508972 -0.10616325 0.71600002 4294372844
0.10644902 -0.10616425 0.71600002 4294307564
0.10750723 -0.10586869 0.71399999 4294570992
0.10840542 -0.10542487 0.71100003 4294307564
0.10975537 -0.10542589 0.71100003 4294307564
0.11094909 -0.10527863 0.70999998 4294176233
0.11166459 -0.10468652 0.70599997 4294176233
0.11300519 -0.10468754 0.70599997 4294439404
0.11434583 -0.10468856 0.70599997 4294505197
0.11519497 -0.10424475 0.70300001 4294176237
0.1161985 -0.1039492 0.70099998 4294307566
0.11752981 -0.10395022 0.70099998 4294307564
0.11886116 -0.10395127 0.70099998 4294307564
0.12019256 -0.1039523 0.70099998 4294307564
0.12135068 -0.10380507 0.69999999 4294110441
0.12268027 -0.1038061 0.69999999 4294175462
0.12400992 -0.10380714 0.69999999 4294307305
0.12533961 -0.1038082 0.69999999 4294241255
0.12630749 -0.10351268 0.69800001 4293978340
0.12763347 -0.10351372 0.69800001 4293912806
0.12895952 -0.10351477 0.69800001 4293912806
0.13009897 -0.10336753 0.69700003 4293913060
0.13085756 -0.10292366 0.69400001 4293913060
0.13217616 -0.10292471 0.69400001 4293912808
0.13349479 -0.10292575 0.69400001 4293912808
0.13520201 -0.10322343 0.69599998 4293847013
0.13613223 -0.10292787 0.69400001 4293847013
0.13745102 -0.10292891 0.69400001 4293847013
0.13876987 -0.10292996 0.69400001 4293715684
0.1398869 -0.10278271 0.69300002 4293715684
0.14120394 -0.10278374 0.69300002 4293715684
0.14210969 -0.10248815 0.69099998 4293715682
0.14342299 -0.10248916 0.69099998 4293715682
0.14473635 -0.10249019 0.69099998 4293649888
0.14604975 -0.10249124 0.69099998 4293518302
0.1473632 -0.10249226 0.69099998 4293451744
0.14867669 -0.10249327 0.69099998 4293451744
0.15042436 -0.10279094 0.69300002 4293649118
0.15174177 -0.10279197 0.69300002 4293780704
0.15305918 -0.10279297 0.69300002 4293386464
0.15437666 -0.10279398 0.69300002 4293386464
0.15524483 -0.10249832 0.69099998 4293255135
0.156332 -0.10235096 0.69 4293255135
0.15695848 -0.10190693 0.68699998 4293254110
0.1582647 -0.1019079 0.68699998 4293254110
0.15980326 -0.10205722 0.68800002 4293320153
0.16111146 -0.10205817 0.68800002 4293320153
0.16241969 -0.10205911 0.68800002 4293188315
0.16372797 -0.10206005 0.68800002 4293385951
0.16503625 -0.10206098 0.68800002 4293056988
0.16634461 -0.1020619 0.68800002 4293056988
0.16765298 -0.10206281 0.68800002 4292925913
0.16896138 -0.10206369 0.68800002 4292925913
0.17026982 -0.10206459 0.68800002 4292926165
0.17207704 -0.10236216 0.69 4293189337
0.17338936 -0.10236302 0.69 4292925652
0.17470171 -0.10236388 0.69 4292859602
0.17626914 -0.10251308 0.69099998 4292794582
0.17758346 -0.10251392 0.69099998 4292728788
0.17941555 -0.10281144 0.69300002 4292728786
0.18021208 -0.10251551 0.69099998 4292728786
0.18152641 -0.10251629 0.69099998 4292662991
0.18284082 -0.10251708 0.69099998 4292597198
0.1841552 -0.10251781 0.69099998 4292464847
0.18546964 -0.10251856 0.69099998 4292399054
0.18678412 -0.10251929 0.69099998 4292529870
0.18809853 -0.10251998 0.69099998 4292529870
0.18996127 -0.10281741 0.69300002 4292267467
0.19127955 -0.10281809 0.69300002 4292136138
0.1928758 -0.10296711 0.69400001 4292136136
0.19419602 -0.10296773 0.69400001 4292136136
0.19607967 -0.10326507 0.69599998 4292136136
0.19683649 -0.10296895 0.69400001 4292070343
0.19815673 -0.10296951 0.69400001 4291939014
0.19947696 -0.10297007 0.69400001 4292005063
0.2013759 -0.10326734 0.69599998 4291741893
0.2029912 -0.10341623 0.69700003 4291741893
0.20519659 -0.10386185 0.69999999 4291806662
0.20741338 -0.10430742 0.70300001 4291806662
0.2090477 -0.10445625 0.704 4291610055
0.21038702 -0.10445667 0.704 4291544006
0.21172626 -0.10445707 0.704 4291346884
0.21306553 -0.10445745 0.704 4291346884
0.087304436 -0.10976665 0.75 4291216581
0.088254273 -0.1091821 0.74599999 4293123546
0.089669779 -0.10918298 0.74599999 4294636786
0.090230644 -0.10815935 0.73900002 4294570220
0.091508962 -0.10801389 0.73799998 4294175462
0.092909425 -0.10801481 0.73799998 4293912545
0.094054364 -0.107723 0.736 4294109667
0.094802663 -0.10699209 0.73100001 4293978853
0.096058413 -0.10684666 0.73000002 4294110439
0.097043425 -0.10640849 0.727 4294176235
0.098423265 -0.10640942 0.727 4294307564
0.098842166 -0.10538582 0.72000003 4294438637
0.10006963 -0.10524039 0.71899998 4294570222
0.10143439 -0.10524133 0.71899998 4294438891
0.10251329 -0.10494955 0.71700001 4294438891
0.10387439 -0.10495053 0.71700001 4294373098
0.10508876 -0.10480513 0.71600002 4294373098
0.10644802 -0.10480612 0.71600002 4294373611
0.10750622 -0.10451437 0.71399999 4294505197
0.10870934 -0.10436897 0.713 4294176235
0.10975436 -0.1040772 0.71100003 4294373357
0.11094808 -0.10393182 0.70999998 4294372844
0.11197989 -0.10364006 0.708 4294372844
0.11316422 -0.10349468 0.70700002 4294438637
0.1143448 -0.1033493 0.70599997 4294570222
0.11535779 -0.10305756 0.704 4294307818
0.116529 -0.1029122 0.70300001 4294307818
0.11786408 -0.1029132 0.70300001 4294110441
0.11886013 -0.10262144 0.70099998 4294176235
0.12019152 -0.10262248 0.70099998 4294307564
0.12134961 -0.1024771 0.69999999 4294176235
0.12267924 -0.10247815 0.69999999 4293978340
0.12400888 -0.10247917 0.69999999 4294373098
0.1253386 -0.10248023 0.69999999 4294372844
0.12630641 -0.10218846 0.69800001 4294109671
0.12763242 -0.1021895 0.69800001 4293847013
0.12895849 -0.10219055 0.69800001 4293978599
0.13009793 -0.10204518 0.69700003 4293978599
0.13085651 -0.10160701 0.69400001 4293978599
0.1321751 -0.10160802 0.69400001 4293716197
0.13349375 -0.10160908 0.69400001 4293716197
0.13520093 -0.10190294 0.69599998 4293583843
0.13652349 -0.10190398 0.69599998 4293715686
0.13784608 -0.10190503 0.69599998 4293715684
0.13876881 -0.10161323 0.69400001 4293715684
0.14008769 -0.10161426 0.69400001 4293517537
0.14120287 -0.10146888 0.69300002 4293648866
0.14251995 -0.10146991 0.69300002 4293649118
0.14383709 -0.10147093 0.69300002 4293714911
0.14515425 -0.10147195 0.69300002 4293584095
0.14647146 -0.10147299 0.69300002 4293452509
0.14778873 -0.101474 0.69300002 4293254108
0.1486757 -0.10118214 0.69099998 4293385951
0.14998923 -0.10118314 0.69099998 4293582812
0.15130283 -0.10118417 0.69099998 4293582812
0.15261646 -0.10118514 0.69099998 4293386716
0.15393014 -0.10118613 0.69099998 4293386716
0.15524384 -0.10118711 0.69099998 4293255133
0.15633102 -0.10104167 0.69 4293255133
0.15764292 -0.10104262 0.69 4293123546
0.15895486 -0.10104359 0.69 4293189339
0.16026682 -0.10104454 0.69 4293386203
0.16157882 -0.10104548 0.69 4293386203
0.16289088 -0.10104644 0.69 4293189339
0.16372702 -0.10075448 0.68800002 4293123546
0.16503534 -0.1007554 0.68800002 4292991708
0.16634367 -0.1007563 0.68800002 4292991708
0.16765209 -0.1007572 0.68800002 4292925911
0.16896048 -0.10075809 0.68800002 4292794582
0.17026894 -0.10075895 0.68800002 4292662993
0.1720762 -0.10105273 0.69 4292991958
0.17338847 -0.10105358 0.69 4292728786
0.17470086 -0.10105444 0.69 4292728786
0.17626828 -0.10120172 0.69099998 4292728786
0.17758259 -0.10120253 0.69099998 4292728786
0.17941475 -0.10149627 0.69300002 4292662993
0.18021129 -0.10120413 0.69099998 4292597200
0.18152565 -0.10120489 0.69099998 4292465612
0.18284008 -0.10120567 0.69099998 4292465612
0.1841545 -0.10120642 0.69099998 4292333260
0.18546891 -0.10120715 0.69099998 4292333260
0.18678337 -0.10120786 0.69099998 4292398540
0.18809786 -0.10120856 0.69099998 4292266954
0.18996058 -0.10150218 0.69300002 4292201161
0.1915549 -0.10164931 0.69400001 4292201161
0.19287515 -0.10164996 0.69400001 4292070089
0.194755 -0.10194353 0.69599998 4292136138
0.19607908 -0.10194414 0.69599998 4291939014
0.19683588 -0.10165178 0.69400001 4291939014
0.19815619 -0.10165235 0.69400001 4292004548
0.19947645 -0.10165291 0.69400001 4292004548
0.20137538 -0.10194638 0.69599998 4291741891
0.2029907 -0.10209336 0.69700003 4291741891
0.20519611 -0.10253327 0.69999999 4291676100
0.20652781 -0.10253374 0.69999999 4291676100
0.20964117 -0.10341304 0.70599997 4291544260
0.21098426 -0.10341344 0.70599997 4291544260
0.21232738 -0.10341385 0.70599997 4291347136
0.21367045 -0.10341421 0.70599997 4291281342
0.088253401 -0.10776725 0.74599999 4293123544
0.089428499 -0.10747922 0.74400002 4294570990
0.09047395 -0.10704671 0.741 4294373098
0.091508061 -0.10661419 0.73799998 4293978340
0.092908502 -0.10661509 0.73799998 4293912547
0.094053455 -0.10632707 0.736 4294175462
0.094801761 -0.10560565 0.73100001 4293979112
0.095794313 -0.10517314 0.72799999 4293979112
0.097042501 -0.10502962 0.727 4294110439
0.098151565 -0.1047416 0.72500002 4294110439
0.099115789 -0.10430913 0.722 4294241257
0.10020787 -0.10402113 0.72000003 4294372844
0.10143345 -0.10387758 0.71899998 4294373098
0.10279828 -0.10387854 0.71899998 4294373098
0.1038734 -0.10359054 0.71700001 4294307305
0.10523453 -0.10359152 0.71700001 4294438891
0.10644706 -0.103448 0.71600002 4294373611
0.10750525 -0.10316002 0.71399999 4294570990
0.10870837 -0.10301652 0.713 4294176235
0.10975337 -0.10272854 0.71100003 4294307564
0.11094708 -0.10258505 0.70999998 4294307312
0.1119789 -0.10229705 0.708 4294175983
0.11316322 -0.10215358 0.70700002 4294176235
0.1143438 -0.10201009 0.70599997 4294176235
0.11535678 -0.10172211 0.704 4294176233
0.11669374 -0.10172312 0.704 4294307818
0.11786307 -0.10157964 0.70300001 4294110441
0.11919822 -0.10158066 0.70300001 4294176235
0.1201905 -0.10129266 0.70099998 4294176235
0.12152194 -0.10129369 0.70099998 4294176235
0.12267818 -0.1011502 0.69999999 4294175210
0.12400785 -0.10115124 0.69999999 4294372846
0.12497944 -0.10086326 0.69800001 4294307051
0.12630539 -0.10086428 0.69800001 4294109671
0.1276314 -0.10086532 0.69800001 4293912808
0.12895744 -0.10086634 0.69800001 4294176237
0.13009688 -0.10072287 0.69700003 4293979112
0.13123256 -0.10057937 0.69599998 4293847783
0.13255496 -0.10058042 0.69599998 4293716197
0.13387741 -0.10058144 0.69599998 4293716197
0.13519992 -0.10058248 0.69599998 4293649636
0.13652243 -0.10058349 0.69599998 4293649636
0.13784504 -0.10058451 0.69599998 4293780704
0.13876778 -0.10029652 0.69400001 4293846754
0.14008667 -0.10029753 0.69400001 4293517537
0.14140561 -0.10029857 0.69400001 4293517537
0.14251892 -0.10015504 0.69300002 4293649120
0.14383607 -0.10015608 0.69300002 4293649120
0.14515322 -0.10015707 0.69300002 4293649118
0.14647046 -0.1001581 0.69300002 4293517789
0.14778772 -0.10015911 0.69300002 4293320157
0.1486747 -0.099871032 0.69099998 4293320157
0.14998825 -0.09987203 0.69099998 4293517019
0.15130183 -0.099873006 0.69099998 4293582812
0.15261546 -0.099873997 0.69099998 4293386203
0.15392914 -0.099874973 0.69099998 4293386203
0.15524288 -0.099875949 0.69099998 4293255131
0.15633006 -0.099732384 0.69 4293255131
0.15764198 -0.09973333 0.69 4293189337
0.15895391 -0.099734284 0.69 4293189337
0.15980135 -0.099446133 0.68800002 4293320153
0.16110955 -0.099447072 0.68800002 4293320153
0.16241781 -0.099447988 0.68800002 4293254360
0.16372611 -0.099448904 0.68800002 4293188567
0.16503444 -0.099449828 0.68800002 4293057753
0.16634279 -0.099450715 0.68800002 4293057753
0.1674075 -0.099307038 0.68699998 4292991704
0.16871402 -0.099307925 0.68699998 4292794582
0.17026809 -0.09945336 0.68800002 4292926165
0.17207532 -0.099743299 0.69 4293057751
0.17338765 -0.099744163 0.69 4292859602
0.17470002 -0.09974499 0.69 4292859602
0.17626746 -0.099890366 0.69099998 4292793809
0.1775818 -0.099891178 0.69099998 4292859602
0.17941391 -0.1001811 0.69300002 4292728016
0.18021049 -0.099892765 0.69099998 4292530894
0.18152489 -0.099893518 0.69099998 4292530892
0.1828393 -0.099894293 0.69099998 4292399305
0.18415377 -0.099895023 0.69099998 4292070089
0.1854682 -0.099895746 0.69099998 4292070089
0.18678269 -0.099896453 0.69099998 4292070089
0.18809716 -0.099897139 0.69099998 4291872709
0.18995993 -0.10018696 0.69300002 4291937989
0.19155425 -0.10033218 0.69400001 4292069319
0.19287452 -0.10033283 0.69400001 4292004296
0.19475438 -0.10062258 0.69599998 4292399054
0.19607851 -0.10062319 0.69599998 4292004548
0.19683529 -0.10033461 0.69400001 4291938754
0.19815563 -0.1003352 0.69400001 4291807685
0.1994759 -0.10033575 0.69400001 4291807685
0.2013749 -0.10062541 0.69599998 4291807168
0.20299022 -0.1007705 0.69700003 4291807168
0.20431624 -0.10077096 0.69700003 4291675585
0.21232697 -0.10207387 0.70599997 4291478204
0.21367013 -0.10207424 0.70599997 4291412410
0.08660429 -0.1060665 0.74400002 4291478983
0.088015936 -0.10606735 0.74400002 4293254360
0.08918722 -0.10578307 0.74199998 4294636013
0.090473063 -0.10564138 0.741 4294373098
0.091507189 -0.10521456 0.73799998 4294109669
0.09265583 -0.1049303 0.736 4293714911
0.093796983 -0.10464606 0.73400003 4294109669
0.09480086 -0.10421923 0.73100001 4294110439
0.095793404 -0.10379242 0.72799999 4294110439
0.097041585 -0.10365078 0.727 4294110439
0.098150633 -0.10336654 0.72500002 4294176233
0.099114858 -0.10293974 0.722 4294176233
0.10020693 -0.10265552 0.72000003 4294176233
0.10143252 -0.10251387 0.71899998 4294373098
0.10279732 -0.1025148 0.71899998 4294373098
0.10387244 -0.10223059 0.71700001 4294373098
0.10523358 -0.10223155 0.71700001 4294373098
0.10644609 -0.10208994 0.71600002 4294307818
0.10750426 -0.10180572 0.71399999 4294307818
0.10840246 -0.10137894 0.71100003 4294176233
0.10975239 -0.10137992 0.71100003 4294176233
0.1109461 -0.1012383 0.70999998 4294176237
0.11181974 -0.10081151 0.70700002 4294176237
0.11316223 -0.1008125 0.70700002 4294110441
0.1143428 -0.1006709 0.70599997 4294110441
0.11568349 -0.10067188 0.70599997 4294176235
0.11669274 -0.10038769 0.704 4294110441
0.11802972 -0.10038869 0.704 4294044648
0.11936676 -0.10038969 0.704 4294176235
0.12070385 -0.1003907 0.704 4294044648
0.12152093 -0.099963903 0.70099998 4293978599
0.12285242 -0.099964902 0.70099998 4293978342
0.12400683 -0.099823333 0.69999999 4293978342
0.12497844 -0.099539131 0.69800001 4293780706
0.12630436 -0.099540129 0.69800001 4293780706
0.12763035 -0.09954115 0.69800001 4293584097
0.12895644 -0.099542178 0.69800001 4293978599
0.13009587 -0.099400595 0.69700003 4293978599
0.13085446 -0.098973751 0.69400001 4293978599
0.13217305 -0.098974764 0.69400001 4293912806
0.13349168 -0.098975778 0.69400001 4293847013
0.13481039 -0.098976798 0.69400001 4293518050
0.13652144 -0.09926305 0.69599998 4293649636
0.13744792 -0.098978817 0.69400001 4293780706
0.13876675 -0.098979831 0.69400001 4293714913
0.14008564 -0.098980837 0.69400001 4293452255
0.14140458 -0.098981835 0.69400001 4293452255
0.14251792 -0.098840222 0.69300002 4293517789
0.14383505 -0.098841228 0.69300002 4293451996
0.14515223 -0.098842226 0.69300002 4293451996
0.14646946 -0.098843232 0.69300002 4293451996
0.14778671 -0.098844223 0.69300002 4293255133
0.14867371 -0.098559931 0.69099998 4293189339
0.14998727 -0.098560922 0.69099998 4293188567
0.15130085 -0.098561883 0.69099998 4293320153
0.15261449 -0.098562866 0.69099998 4293057238
0.15392818 -0.098563835 0.69099998 4293320153
0.15524191 -0.098564781 0.69099998 4293255133
0.15632911 -0.098423108 0.69 4293189339
0.15764101 -0.098424055 0.69 4293189337
0.15895297 -0.098424986 0.69 4293189337
0.15980041 -0.098140627 0.68800002 4293319640
0.16087446 -0.097998895 0.68699998 4293385689
0.16218081 -0.097999804 0.68699998 4293254360
0.1634872 -0.098000698 0.68699998 4293254360
0.16503353 -0.098144263 0.68800002 4292991704
0.1663419 -0.09814515 0.68800002 4292991704
0.1674066 -0.098003358 0.68699998 4292991706
0.16871315 -0.098004237 0.68699998 4292925913
0.17001972 -0.098005079 0.68699998 4292925911
0.17157571 -0.098148592 0.68800002 4292925911
0.1733868 -0.098434746 0.69 4292662995
0.17469922 -0.098435581 0.69 4292597202
0.17626666 -0.098579027 0.69099998 4292793296
0.17758098 -0.098579824 0.69099998 4292727503
0.17889535 -0.098580636 0.69099998 4292464847
0.18020973 -0.098581396 0.69099998 4292399054
0.18152413 -0.098582149 0.69099998 4292399051
0.18283856 -0.098582916 0.69099998 4292333258
0.18415302 -0.098583624 0.69099998 4292005063
0.1854675 -0.098584354 0.69099998 4292070856
0.18678199 -0.098585047 0.69099998 4292070343
0.18864089 -0.098871067 0.69300002 4291938501
0.18995924 -0.09887173 0.69300002 4291937989
0.19155359 -0.099015042 0.69400001 4292069319
0.19287388 -0.099015683 0.69400001 4292069321
0.1947538 -0.099301636 0.69599998 4292069321
0.19607791 -0.099302255 0.69599998 4291938754
0.19740196 -0.099302836 0.69599998 4291872961
0.1987261 -0.09930338 0.69599998 4291609790
0.20005025 -0.099303931 0.69599998 4291807168
0.20137437 -0.09930443 0.69599998 4291675583
0.2026985 -0.099304929 0.69599998 4291807168
0.20460889 -0.099590756 0.69800001 4291610305
0.085191876 -0.10465474 0.74400002 4286874242
0.086603455 -0.10465556 0.74400002 4291413703
0.088015087 -0.10465639 0.74400002 4293386199
0.089186363 -0.1043759 0.74199998 4294636265
0.090472214 -0.1042361 0.741 4294372844
0.091506317 -0.10381494 0.73799998 4294372844
0.092654951 -0.10353448 0.736 4294175462
0.093796082 -0.10325401 0.73400003 4294175462
0.094799966 -0.10283288 0.73100001 4294175462
0.096055686 -0.1026931 0.73000002 4294241255
0.097040676 -0.10227195 0.727 4294241255
0.098149702 -0.10199151 0.72500002 4294307305
0.099251211 -0.10171106 0.72299999 4294307305
0.10048436 -0.10157131 0.722 4294307305
0.10157266 -0.10129087 0.72000003 4294307303
0.10279638 -0.1011511 0.71899998 4294373096
0.10416125 -0.10115205 0.71899998 4294307303
0.10523263 -0.10087162 0.71700001 4294307303
0.10644512 -0.10073189 0.71600002 4294373096
0.10780443 -0.10073283 0.71600002 4294373096
0.10840148 -0.10003034 0.71100003 4294307305
0.1097514 -0.10003132 0.71100003 4294241255
0.1111014 -0.10003228 0.71100003 4294307305
0.11181878 -0.099470489 0.70700002 4294307305
0.11316124 -0.099471442 0.70700002 4294307305
0.11434181 -0.099331714 0.70599997 4294241255
0.11568251 -0.09933272 0.70599997 4294110441
0.11669175 -0.099052303 0.704 4294044648
0.11802875 -0.099053293 0.704 4294044648
0.1191962 -0.098913565 0.70300001 4294373357
0.12053141 -0.098914564 0.70300001 4294109671
0.12151993 -0.098634154 0.70099998 4293912293
0.12285143 -0.098635145 0.70099998 4293912293
0.12400582 -0.098495431 0.69999999 4293846500
0.12533551 -0.098496445 0.69999999 4293780708
0.12630336 -0.098216027 0.69800001 4293978088
0.12762935 -0.098217033 0.69800001 4293715684
0.12895541 -0.098218031 0.69800001 4293847013
0.13009486 -0.098078318 0.69700003 4293978853
0.13085344 -0.097657166 0.69400001 4293978853
0.13217205 -0.097658165 0.69400001 4293913060
0.13349067 -0.097659171 0.69400001 4293913060
0.13480937 -0.097660176 0.69400001 4293649636
0.13652043 -0.097942606 0.69599998 4293715686
0.13744693 -0.097662173 0.69400001 4293714911
0.13856582 -0.097522452 0.69300002 4293517789
0.1398828 -0.097523443 0.69300002 4293517789
0.14119986 -0.097524434 0.69300002 4293517789
0.14251694 -0.097525425 0.69300002 4293385949
0.14341894 -0.097244948 0.69099998 4293385949
0.14473233 -0.097245924 0.69099998 4293320153
0.14604574 -0.097246908 0.69099998 4293320153
0.14735924 -0.097247891 0.69099998 4293320153
0.14867273 -0.09724886 0.69099998 4293254360
0.14998627 -0.097249821 0.69099998 4293319640
0.15129989 -0.097250797 0.69099998 4293648605
0.15261352 -0.097251743 0.69099998 4293320155
0.15392722 -0.097252704 0.69099998 4293320155
0.15524095 -0.09725365 0.69099998 4293189339
0.15632817 -0.097113855 0.69 4293123546
0.15764007 -0.097114779 0.69 4293254360
0.1591824 -0.097256474 0.69099998 4293254360
0.16026403 -0.097116619 0.69 4293188567
0.16087353 -0.096695282 0.68699998 4293188567
0.1621799 -0.096696183 0.68699998 4293188567
0.16348632 -0.096697092 0.68699998 4293188567
0.16503263 -0.096838713 0.68800002 4292925913
0.16634105 -0.096839607 0.68800002 4292925913
0.16740575 -0.096699715 0.68699998 4292662741
0.16871229 -0.096700542 0.68699998 4292662741
0.1700189 -0.096701406 0.68699998 4292662995
0.17157489 -0.096842997 0.68800002 4292597202
0.17338598 -0.097125351 0.69 4292596689
0.17469837 -0.097126149 0.69 4292728018
0.17626587 -0.097267717 0.69099998 4292596435
0.17758022 -0.097268507 0.69099998 4292530642
0.17889458 -0.097269297 0.69099998 4292530640
0.18020897 -0.097270049 0.69099998 4292399054
0.1815234 -0.097270802 0.69099998 4292333260
0.1828378 -0.097271524 0.69099998 4292267467
0.18388581 -0.097131483 0.69 4292070343
0.18519837 -0.097132184 0.69 4292070343
0.18678132 -0.097273648 0.69099998 4292004548
0.18864025 -0.097555876 0.69300002 4291872961
0.19023272 -0.097697303 0.69400001 4291872707
0.19155295 -0.097697943 0.69400001 4292004550
0.19342908 -0.097980112 0.69599998 4292004044
0.1947532 -0.09798073 0.69599998 4291938251
0.19607729 -0.097981304 0.69599998 4291872961
0.1974014 -0.09798187 0.69599998 4291872961
0.19872558 -0.097982429 0.69599998 4291807168
0.20004971 -0.097982973 0.69599998 4292004548
0.20137386 -0.097983472 0.69599998 4291675583
0.20328048 -0.098265529 0.69800001 4291675583
0.20460846 -0.098266013 0.69800001 4291609790
0.08496204 -0.10296631 0.74199998 4287071622
0.08636982 -0.10296711 0.74199998 4291611339
0.087777659 -0.10296795 0.74199998 4293386716
0.089185528 -0.10296878 0.74199998 4294307818
0.090471357 -0.10283084 0.741 4294241257
0.091629438 -0.10255415 0.73900002 4294241257
0.092905864 -0.10241622 0.73799998 4294241255
0.093795218 -0.10186201 0.73400003 4294241255
0.094799072 -0.10144655 0.73100001 4294175462
0.096054792 -0.10130865 0.73000002 4294175462
0.097039774 -0.1008932 0.727 4294175462
0.09814883 -0.10061654 0.72500002 4294175462
0.099250302 -0.10033987 0.72299999 4294109669
0.10020509 -0.099924415 0.72000003 4294241255
0.10157174 -0.099925339 0.72000003 4294110693
0.10279547 -0.099787444 0.71899998 4294110693
0.1041603 -0.099788375 0.71899998 4294174949
0.10523169 -0.099511735 0.71700001 4294240742
0.10644419 -0.099373884 0.71600002 4294307305
0.10780349 -0.099374823 0.71600002 4294241255
0.10840055 -0.098681822 0.71100003 4294175462
0.10975046 -0.098682739 0.71100003 4294175462
0.11094415 -0.098544903 0.70999998 4294241255
0.11197598 -0.098268285 0.708 4294373098
0.11316029 -0.098130427 0.70700002 4294373098
0.11450282 -0.098131396 0.70700002 4294241255
0.11568153 -0.09799356 0.70599997 4294044648
0.11702227 -0.097994536 0.70599997 4294044648
0.11802775 -0.097717911 0.704 4294109669
0.11919524 -0.097580098 0.70300001 4293978340
0.12053043 -0.097581059 0.70300001 4293912547
0.12151895 -0.097304426 0.70099998 4293912547
0.12285044 -0.097305402 0.70099998 4293912547
0.12400484 -0.097167596 0.69999999 4293912547
0.12533452 -0.097168572 0.69999999 4293847267
0.12666427 -0.097169563 0.69999999 4293913060
0.12762837 -0.096892923 0.69800001 4293847267
0.12895441 -0.096893921 0.69800001 4293847267
0.13028051 -0.096894912 0.69800001 4293847013
0.13122956 -0.096618257 0.69599998 4293715684
0.13255195 -0.096619241 0.69599998 4293780704
0.13387439 -0.096620239 0.69599998 4293846754
0.13519689 -0.096621223 0.69599998 4293584097
0.13651942 -0.096622199 0.69599998 4293649890
0.13744593 -0.096345551 0.69400001 4293714911
0.13856483 -0.096207708 0.69300002 4293649118
0.13988182 -0.096208692 0.69300002 4293452509
0.14119887 -0.096209683 0.69300002 4293452509
0.14251596 -0.096210644 0.69300002 4293189337
0.14341797 -0.095933951 0.69099998 4293123544
0.14473136 -0.09593492 0.69099998 4293319640
0.14604479 -0.095935889 0.69099998 4293319640
0.14735824 -0.095936835 0.69099998 4293320153
0.14867175 -0.095937803 0.69099998 4293320153
0.14998534 -0.095938779 0.69099998 4293517019
0.15129893 -0.095939718 0.69099998 4293648605
0.1526126 -0.095940664 0.69099998 4293517019
0.15392628 -0.095941603 0.69099998 4293385689
0.15524001 -0.095942527 0.69099998 4293189085
0.1565538 -0.095943466 0.69099998 4293123292
0.15786761 -0.09594439 0.69099998 4293254360
0.15918146 -0.095945299 0.69099998 4293254360
0.16049537 -0.095946215 0.69099998 4293188567
0.16110684 -0.09553057 0.68800002 4293188567
0.16241512 -0.095531464 0.68800002 4293188567
0.16372341 -0.095532335 0.68800002 4293057238
0.1655115 -0.095810905 0.69 4292926165
0.16634016 -0.095534064 0.68800002 4292926165
0.16764858 -0.095534913 0.68800002 4292465360
0.16895705 -0.09553577 0.68800002 4292597202
0.17026556 -0.095536597 0.68800002 4292793298
0.17157407 -0.095537424 0.68800002 4292793298
0.17338517 -0.095815964 0.69 4292728018
0.17469756 -0.095816761 0.69 4292728018
0.17626506 -0.095956422 0.69099998 4292596689
0.17757943 -0.09595719 0.69099998 4292596689
0.1788938 -0.09595795 0.69099998 4292465360
0.18020822 -0.095958717 0.69099998 4292334031
0.18152264 -0.095959455 0.69099998 4292202444
0.1828371 -0.09596017 0.69099998 4292070602
0.18388513 -0.095822029 0.69 4291939014
0.1851977 -0.095822714 0.69 4291939014
0.18651031 -0.095823385 0.69 4291675583
0.1886396 -0.096240692 0.69300002 4291807168
0.18995798 -0.096241333 0.69300002 4291872961
0.19155236 -0.096380837 0.69400001 4291938754
0.19342846 -0.096659198 0.69599998 4292004298
0.19475259 -0.096659802 0.69599998 4292004298
0.19607674 -0.096660383 0.69599998 4291938754
0.19740087 -0.096660957 0.69599998 4291938754
0.19872506 -0.096661516 0.69599998 4291807168
0.20004918 -0.096662022 0.69599998 4291675583
0.20137337 -0.096662529 0.69599998 4291543997
0.20298879 -0.096801899 0.69700003 4291609790
0.20431487 -0.096802354 0.69700003 4291543999
0.084961243 -0.10155926 0.74199998 4287268233
0.086369008 -0.10156006 0.74199998 4291807950
0.087776832 -0.10156088 0.74199998 4293386199
0.089064494 -0.10142481 0.741 4294307301
0.090470508 -0.10142565 0.741 4294307053
0.091628589 -0.10115273 0.73900002 4294109417
0.092905015 -0.10101671 0.73799998 4294109669
0.094049908 -0.1007438 0.736 4294109669
0.095187262 -0.10047091 0.73400003 4294109669
0.09618549 -0.10006113 0.73100001 4294438891
0.097038895 -0.099514462 0.727 4294175462
0.098147929 -0.099241585 0.72500002 4294109669
0.0992494 -0.098968692 0.72299999 4294175462
0.1002042 -0.09855894 0.72000003 4294175462
0.10157083 -0.098559834 0.72000003 4294175462
0.10279454 -0.098423839 0.71899998 4294109669
0.10415941 -0.098424762 0.71899998 4294109669
0.10523076 -0.098151892 0.71700001 4294175462
0.10644324 -0.098015919 0.71600002 4294175462
0.10750142 -0.097743072 0.71399999 4294175462
0.10839961 -0.097333312 0.71100003 4293978853
0.10974952 -0.097334236 0.71100003 4294044646
0.1109432 -0.09719827 0.70999998 4294044648
0.11197504 -0.09692543 0.708 4294044648
0.11331938 -0.096926354 0.708 4294175462
0.11450185 -0.096790418 0.70700002 4293978340
0.11584444 -0.096791372 0.70700002 4294109671
0.1170213 -0.096655421 0.70599997 4294175464
0.11836208 -0.09665639 0.70599997 4293912293
0.11970291 -0.096657343 0.70599997 4293846500
0.1207009 -0.09638451 0.704 4293912547
0.12186467 -0.09624856 0.70300001 4293846754
0.12284947 -0.095975719 0.70099998 4293846236
0.12418099 -0.095976666 0.70099998 4293846236
0.12533353 -0.095840745 0.69999999 4293846754
0.12666328 -0.095841721 0.69999999 4293912547
0.12762739 -0.095568858 0.69800001 4293912547
0.12895343 -0.095569834 0.69800001 4293846754
0.13027951 -0.09557081 0.69800001 4293846500
0.13141713 -0.095434889 0.69700003 4293846500
0.13255094 -0.095298916 0.69599998 4293649890
0.1338734 -0.095299892 0.69599998 4293649890
0.1351959 -0.095300876 0.69599998 4293780704
0.13651843 -0.095301852 0.69599998 4293780704
0.13744496 -0.095028967 0.69400001 4293451742
0.1387638 -0.095029928 0.69400001 4293517791
0.1400827 -0.095030911 0.69400001 4293386716
0.14140163 -0.095031865 0.69400001 4293255131
0.14251499 -0.094895914 0.69300002 4293123546
0.14341702 -0.094622999 0.69099998 4293123546
0.14473039 -0.094623946 0.69099998 4293188567
0.14604384 -0.094624899 0.69099998 4293188567
0.14714405 -0.094488911 0.69 4293254362
0.14845566 -0.094489843 0.69 4293320155
0.14976734 -0.094490789 0.69 4293385435
0.15107904 -0.094491735 0.69 4293385435
0.15239078 -0.094492652 0.69 4293385689
0.1537026 -0.094493575 0.69 4293319640
0.15501446 -0.094494507 0.69 4293254110
0.15632631 -0.094495416 0.69 4293254110
0.15763824 -0.094496325 0.69 4293188569
0.15918058 -0.094634175 0.69099998 4293057240
0.16049448 -0.094635077 0.69099998 4293057238
0.16110593 -0.094225101 0.68800002 4293057238
0.16241422 -0.094225995 0.68800002 4293057236
0.16372254 -0.094226852 0.68800002 4292991443
0.16551064 -0.094501615 0.69 4292926165
0.16682287 -0.094502494 0.69 4292926165
0.16764775 -0.094229408 0.68800002 4292729040
0.16895621 -0.094230227 0.68800002 4292926163
0.17075965 -0.094504967 0.69 4292728018
0.17207202 -0.094505802 0.69 4292728018
0.17363566 -0.09464357 0.69099998 4292597200
0.17494997 -0.09464436 0.69099998 4292597200
0.1762643 -0.094645143 0.69099998 4292530640
0.17757867 -0.094645917 0.69099998 4292464847
0.17889304 -0.094646655 0.69099998 4292334031
0.18020749 -0.094647393 0.69099998 4292268238
0.18152194 -0.094648123 0.69099998 4292333258
0.1828364 -0.094648838 0.69099998 4292070343
0.18335141 -0.094238624 0.68800002 4292004550
0.1846602 -0.094239302 0.68800002 4292004550
0.18650967 -0.094513923 0.69 4291872961
0.18863894 -0.094925523 0.69300002 4291872961
0.18995732 -0.094926156 0.69300002 4291872959
0.19155172 -0.095063753 0.69400001 4291872959
0.19342786 -0.095338315 0.69599998 4291872707
0.19475201 -0.095338918 0.69599998 4291872707
0.19607617 -0.095339485 0.69599998 4292069568
0.1974003 -0.095340036 0.69599998 4292201411
0.19872449 -0.095340572 0.69599998 4291675583
0.20004867 -0.095341094 0.69599998 4291609790
0.20137289 -0.095341593 0.69599998 4291543997
0.20298828 -0.095479049 0.69700003 4291543997
0.20431443 -0.095479518 0.69700003 4291412156
0.086368203 -0.10015302 0.74199998 4291610055
0.08777602 -0.10015383 0.74199998 4293057751
0.089063674 -0.10001964 0.741 4294307818
0.090469673 -0.10002046 0.741 4294307051
0.091627754 -0.099751338 0.73900002 4294175464
0.092652388 -0.099347241 0.736 4294109669
0.093793489 -0.099078119 0.73400003 4294109669
0.095056713 -0.098943979 0.73299998 4294174949
0.096184619 -0.098674864 0.73100001 4294240742
0.097171508 -0.098270774 0.72799999 4294109669
0.098147057 -0.097866677 0.72500002 4294175462
0.09952309 -0.097867556 0.72500002 4294109669
0.10048165 -0.097463466 0.722 4294109669
0.10156994 -0.097194351 0.72000003 4294109669
0.10279365 -0.097060241 0.71899998 4294109669
0.10386877 -0.096791171 0.71700001 4294109669
0.10508308 -0.096657075 0.71600002 4294241255
0.10614501 -0.09638799 0.71399999 4294175462
0.10734995 -0.096253909 0.713 4294175462
0.10839867 -0.095984824 0.71100003 4293978853
0.10974859 -0.09598574 0.71100003 4293978853
0.11109854 -0.095986672 0.71100003 4293979114
0.11229039 -0.095852606 0.70999998 4293979114
0.11331844 -0.095583521 0.708 4293978340
0.11450092 -0.095449455 0.70700002 4294109669
0.11584347 -0.095450386 0.70700002 4294175464
0.11718611 -0.09545134 0.70700002 4294109671
0.11836112 -0.095317282 0.70599997 4293912547
0.11936287 -0.095048204 0.704 4293978340
0.1205285 -0.094914161 0.70300001 4293978340
0.12186372 -0.094915114 0.70300001 4293780704
0.12319899 -0.094916053 0.70300001 4293846238
0.12418003 -0.09464699 0.70099998 4293780445
0.12533258 -0.094512947 0.69999999 4293846240
0.12666231 -0.094513886 0.69999999 4293846240
0.1276264 -0.094244808 0.69800001 4293780704
0.12895246 -0.094245784 0.69800001 4293780704
0.13027856 -0.09424673 0.69800001 4293780706
0.13141616 -0.094112687 0.69700003 4293780706
0.13254999 -0.093978606 0.69599998 4293780704
0.13387245 -0.093979582 0.69599998 4293846754
0.13519494 -0.093980528 0.69599998 4293846754
0.13612518 -0.093711421 0.69400001 4293780704
0.13744399 -0.093712404 0.69400001 4293451996
0.13876282 -0.093713343 0.69400001 4293517789
0.14008172 -0.093714297 0.69400001 4293452509
0.14140068 -0.093715258 0.69400001 4293386716
0.14251402 -0.093581162 0.69300002 4293189337
0.14341608 -0.093312047 0.69099998 4293189337
0.14472944 -0.093312979 0.69099998 4293254360
0.14604288 -0.093313918 0.69099998 4293188567
0.14714311 -0.093179822 0.69 4293254360
0.14845471 -0.093180746 0.69 4293320153
0.14976639 -0.09318167 0.69 4293189339
0.1510781 -0.093182594 0.69 4293189339
0.15194815 -0.092913412 0.68800002 4293320153
0.15325618 -0.092914328 0.68800002 4293254360
0.15501353 -0.09318532 0.69 4293254108
0.1558723 -0.092916124 0.68800002 4293254108
0.15718043 -0.092917025 0.68800002 4292991704
0.15894933 -0.093188025 0.69 4292991704
0.16026132 -0.093188889 0.69 4292794580
0.16110505 -0.092919648 0.68800002 4292991958
0.16241334 -0.092920512 0.68800002 4292991958
0.16419761 -0.09319149 0.69 4292926165
0.16574965 -0.093327411 0.69099998 4292794580
0.16682202 -0.093193188 0.69 4292728786
0.16764693 -0.092923895 0.68800002 4292597202
0.1689554 -0.092924707 0.68800002 4292597202
0.17075884 -0.093195654 0.69 4292597202
0.17207119 -0.093196459 0.69 4292597202
0.17363487 -0.093332313 0.69099998 4292728016
0.17494921 -0.093333095 0.69099998 4292596687
0.1762635 -0.093333848 0.69099998 4292334283
0.17757791 -0.093334623 0.69099998 4292334283
0.17889231 -0.09333536 0.69099998 4292268238
0.18020673 -0.09333609 0.69099998 4292202444
0.18204659 -0.093606956 0.69300002 4292267465
0.18283568 -0.093337506 0.69099998 4292070343
0.18335073 -0.092932969 0.68800002 4292004550
0.18465954 -0.092933655 0.68800002 4292070343
0.18677929 -0.093339533 0.69099998 4292004548
0.1889105 -0.093745425 0.69400001 4291938754
0.1902308 -0.093746051 0.69400001 4291938754
0.19210312 -0.094016828 0.69599998 4291872961
0.19342729 -0.094017439 0.69599998 4291872707
0.19475141 -0.094018005 0.69599998 4291675585
0.19635735 -0.09415368 0.69700003 4291806655
0.19739978 -0.094019115 0.69599998 4291740606
0.198724 -0.094019644 0.69599998 4291674813
0.20004818 -0.094020166 0.69599998 4291674813
0.20137239 -0.09402065 0.69599998 4291543997
0.20298785 -0.094156213 0.69700003 4291478204
0.20431395 -0.094156638 0.69700003 4291215034
0.088011816 -0.099012993 0.74400002 4293188304
0.089183062 -0.098747618 0.74199998 4294504164
0.090468854 -0.098615341 0.741 4294241255
0.091626935 -0.098350003 0.73900002 4294109669
0.092651546 -0.097951546 0.736 4294109669
0.093792647 -0.097686216 0.73400003 4294175462
0.095055871 -0.097553954 0.73299998 4294109669
0.096183747 -0.097288616 0.73100001 4293978340
0.097170658 -0.096890219 0.72799999 4294109667
0.098416924 -0.096757971 0.727 4294241509
0.099522211 -0.096492656 0.72500002 4294175716
0.10048077 -0.096094251 0.722 4293978338
0.10142798 -0.095695823 0.71899998 4293978340
0.10279275 -0.095696695 0.71899998 4293978340
0.10386787 -0.095431402 0.71700001 4294175462
0.10508219 -0.095299192 0.71600002 4294175462
0.10614409 -0.095033877 0.71399999 4294175462
0.10734905 -0.094901681 0.713 4294109669
0.10870268 -0.094902575 0.713 4294109669
0.10974767 -0.094637297 0.71100003 4294241255
0.11109763 -0.094638206 0.71100003 4294110187
0.11228945 -0.094505996 0.70999998 4293978601
0.11331751 -0.094240718 0.708 4293912545
0.11466192 -0.094241641 0.708 4294109667
0.11584253 -0.094109438 0.70700002 4294109417
0.11718518 -0.094110399 0.70700002 4293978088
0.11836018 -0.093978189 0.70599997 4293912547
0.1193619 -0.093712904 0.704 4294109669
0.12052753 -0.093580745 0.70300001 4293912547
0.12186275 -0.093581676 0.70300001 4293714911
0.12319803 -0.093582608 0.70300001 4293780704
0.12417908 -0.093317322 0.70099998 4293780704
0.12533163 -0.093185149 0.69999999 4293714911
0.12666136 -0.093186095 0.69999999 4293714911
0.12799114 -0.093187042 0.69999999 4293780706
0.12895152 -0.092921756 0.69800001 4293780706
0.13027759 -0.092922695 0.69800001 4293649118
0.13141517 -0.092790514 0.69700003 4293649118
0.13273948 -0.09279146 0.69700003 4293780445
0.1338715 -0.092659272 0.69599998 4293977568
0.13519397 -0.092660218 0.69599998 4293977568
0.13612424 -0.092394896 0.69400001 4293977568
0.13744305 -0.09239585 0.69400001 4293517789
0.13876188 -0.092396781 0.69400001 4293517789
0.14008078 -0.09239772 0.69400001 4293452509
0.14139973 -0.092398666 0.69400001 4293452509
0.14251308 -0.092266463 0.69300002 4293386716
0.14341512 -0.092001118 0.69099998 4293386716
0.14472853 -0.092002034 0.69099998 4293254360
0.14604193 -0.092002973 0.69099998 4293254360
0.14714219 -0.09187074 0.69 4293254360
0.1484538 -0.091871664 0.69 4293320153
0.14976548 -0.091872573 0.69 4293320153
0.1510772 -0.091873474 0.69 4293320153
0.15194726 -0.091608092 0.68800002 4293188567
0.15325527 -0.091608971 0.68800002 4293057238
0.15456332 -0.091609873 0.68800002 4293057499
0.15587141 -0.091610759 0.68800002 4292991706
0.15717953 -0.091611631 0.68800002 4293057240
0.15894845 -0.091878824 0.69 4293057240
0.16026045 -0.091879688 0.69 4292991191
0.16157253 -0.091880552 0.69 4293188569
0.16288462 -0.091881394 0.69 4293057238
0.1632449 -0.091349587 0.68599999 4292991445
0.16550896 -0.091883078 0.69 4292728788
0.16682117 -0.091883905 0.69 4292597202
0.16813344 -0.091884732 0.69 4292597202
0.16944572 -0.091885537 0.69 4292597202
0.17100552 -0.092019506 0.69099998 4292662741
0.17231978 -0.092020288 0.69099998 4292596948
0.17363407 -0.092021078 0.69099998 4292465614
0.17494841 -0.092021845 0.69099998 4292334029
0.17626275 -0.092022598 0.69099998 4292268485
0.17757717 -0.092023335 0.69099998 4292465864
0.17889157 -0.092024066 0.69099998 4292202444
0.18020603 -0.092024796 0.69099998 4292136651
0.18204588 -0.092291847 0.69300002 4292267719
0.182835 -0.092026189 0.69099998 4292136134
0.18414953 -0.092026867 0.69099998 4292070343
0.1854641 -0.092027545 0.69099998 4292070343
0.18731926 -0.092294551 0.69300002 4292004548
0.18890986 -0.092428371 0.69400001 4291938754
0.19023018 -0.092428982 0.69400001 4291872707
0.19210252 -0.092695959 0.69599998 4291872707
0.19342668 -0.09269654 0.69599998 4291806916
0.19475086 -0.092697121 0.69599998 4291675587
0.19635677 -0.092830874 0.69700003 4291806655
0.19739924 -0.092698209 0.69599998 4291674813
0.19872348 -0.092698738 0.69599998 4291477950
0.2000477 -0.092699245 0.69599998 4291477950
0.20137194 -0.092699714 0.69599998 4291478201
0.2029874 -0.092833363 0.69700003 4291478201
0.20431353 -0.09283381 0.69700003 4291215036
0.088011026 -0.097602241 0.74400002 4292661710
0.089182265 -0.097340643 0.74199998 4294503914
0.090468049 -0.097210243 0.741 4294175464
0.091874085 -0.097211048 0.741 4293978342
0.092650734 -0.096555918 0.736 4293715682
0.09379182 -0.096294358 0.73400003 4293978853
0.095055014 -0.096163981 0.73299998 4294109669
0.09618292 -0.095902428 0.73100001 4294109669
0.097169794 -0.095509686 0.72799999 4293846238
0.098416068 -0.095379338 0.727 4294043361
0.099795885 -0.09538018 0.727 4294109156
0.10047991 -0.094725065 0.722 4294109156
0.10142712 -0.09433233 0.71899998 4293978340
0.10279188 -0.094333187 0.71899998 4294175462
0.10386699 -0.094071649 0.71700001 4294241255
0.1050813 -0.093941323 0.71600002 4294175462
0.10614322 -0.093679801 0.71399999 4293977570
0.10749871 -0.093680695 0.71399999 4294109156
0.10870179 -0.093550362 0.713 4293846754
0.10974677 -0.093288861 0.71100003 4294109669
0.11109672 -0.09328974 0.71100003 4294175464
0.11228854 -0.093159437 0.70999998 4294109671
0.11363669 -0.093160331 0.70999998 4293978340
0.11466101 -0.092898831 0.708 4293978340
0.11584163 -0.092768535 0.70700002 4293978342
0.11718424 -0.092769451 0.70700002 4293978342
0.11835925 -0.092639148 0.70599997 4293912547
0.11970007 -0.092640087 0.70599997 4293846754
0.12104094 -0.092640996 0.70599997 4293780704
0.12186183 -0.092248276 0.70300001 4293780704
0.12319712 -0.092249207 0.70300001 4293780706
0.12417814 -0.091987692 0.70099998 4293780706
0.1253307 -0.091857396 0.69999999 4293780191
