# .PCD v0.7 - Point Cloud Data file format
VERSION 0.7
FIELDS x y z rgba
SIZE 4 4 4 4
TYPE F F F U
COUNT 1 1 1 1
WIDTH 1055
HEIGHT 1
VIEWPOINT 0 0 0 1 0 0 0
POINTS 1055
DATA ascii
-0.008310602 0.019834628 0.66399997 4287003008
-0.0070735109 0.019894281 0.66600001 4286346359
-0.0058201239 0.019924074 0.667 4286149236
-0.0045629558 0.019953879 0.66799998 4286806910
0.08768595 0.01964906 0.65700001 4289309338
0.088932872 0.019649746 0.65700001 4289638046
0.090179846 0.019650444 0.65700001 4291739593
-0.17354241 0.021822905 0.68400002 4294967295
-0.17223954 0.021821652 0.68400002 4294967295
-0.17093667 0.0218204 0.68400002 4292664288
-0.16963387 0.021819158 0.68400002 4281150769
-0.16833116 0.021817919 0.68400002 4279571483
-0.16702844 0.021816682 0.68400002 4281940031
-0.16572584 0.021815456 0.68400002 4281610283
-0.15638021 0.021775139 0.68300003 4290227137
-0.15507996 0.02177396 0.68300003 4291015886
-0.1537798 0.021772785 0.68300003 4290818250
-0.15247969 0.021771621 0.68300003 4287797671
-0.14966024 0.021737432 0.68199998 4283978344
-0.14836223 0.021736283 0.68199998 4281346625
-0.13737361 0.021631783 0.67900002 4278190080
-0.13608192 0.021630706 0.67900002 4278190080
-0.13479029 0.021629635 0.67900002 4287139464
-0.13369533 0.021660421 0.68000001 4291343805
-0.070001125 0.021110525 0.66399997 4290163377
-0.068741173 0.021109914 0.66399997 4290097584
-0.067481287 0.021109311 0.66399997 4290030505
-0.066221446 0.021108717 0.66399997 4289898919
-0.064863823 0.021076348 0.66299999 4290159273
-0.063510038 0.021043986 0.662 4290159273
-0.062160112 0.021011639 0.66100001 4289962150
-0.060721867 0.020947514 0.65899998 4289896357
-0.05947176 0.020946974 0.65899998 4289569441
-0.058221683 0.020946447 0.65899998 4289043097
-0.05688522 0.020914145 0.65799999 4288713110
-0.055637136 0.020913634 0.65799999 4288647317
-0.054306448 0.02088136 0.65700001 4288384911
-0.052898835 0.02081731 0.65499997 4288187788
-0.051656581 0.020816831 0.65499997 4288384915
-0.050414369 0.020816371 0.65499997 4288450708
-0.049172189 0.020815914 0.65499997 4288516240
-0.047930066 0.020815475 0.65499997 4288450447
-0.046616696 0.020783264 0.65399998 4288384649
-0.045376536 0.020782841 0.65399998 4288384649
-0.0442039 0.020814206 0.65499997 4288449674
-0.040478077 0.020813035 0.65499997 4288450447
-0.039236207 0.020812664 0.65499997 4288187538
-0.038110383 0.020875853 0.65700001 4288121745
-0.036752556 0.020811951 0.65499997 4288318352
-0.035510786 0.020811616 0.65499997 4288318352
-0.034269046 0.020811288 0.65499997 4288514704
-0.03297691 0.020779198 0.65399998 4288514704
-0.031737126 0.020778896 0.65399998 4288448907
-0.030543998 0.020810371 0.65499997 4288448907
-0.029257635 0.020778311 0.65399998 4288448907
-0.028017933 0.020778039 0.65399998 4288448907
-0.026778255 0.020777779 0.65399998 4288514954
-0.025538597 0.020777522 0.65399998 4288514954
-0.024298966 0.020777283 0.65399998 4288580749
-0.023024103 0.020745279 0.653 4288580749
-0.021753052 0.020713292 0.65200001 4288646293
-0.02045434 0.020649545 0.64999998 4288777622
-0.019222381 0.020649347 0.64999998 4288580749
-0.018045792 0.020712698 0.65200001 4288514956
-0.016835859 0.020744283 0.653 4288580749
-0.015622153 0.020775888 0.65399998 4288843665
-0.014536628 0.0209981 0.66100001 4288646804
-0.013283902 0.020997955 0.66100001 4288515218
-0.012031197 0.020997822 0.66100001 4288384402
-0.010794807 0.021029463 0.662 4288318352
-0.0095690535 0.021092879 0.66399997 4287662728
-0.0083106989 0.021092778 0.66399997 4286083695
-0.0070735975 0.021156216 0.66600001 4286214261
0.051702924 0.020941794 0.65899998 4291542211
0.052952383 0.02094222 0.65899998 4291609038
0.054201875 0.020942651 0.65899998 4291806160
0.059110358 0.020912714 0.65799999 4292860636
0.060358133 0.020913193 0.65799999 4293189337
0.062853813 0.020914201 0.65799999 4294898672
0.089768775 0.020800577 0.65399998 4290354044
0.091010086 0.020801296 0.65399998 4294959811
-0.17328998 0.023087749 0.68300003 4294967295
-0.16524249 0.023046345 0.68199998 4283771696
-0.16394374 0.0230451 0.68199998 4293706439
-0.15181114 0.022966586 0.68000001 4286679215
-0.15051678 0.0229654 0.68000001 4278455346
-0.14922251 0.02296422 0.68000001 4278190343
-0.1479283 0.022963049 0.68000001 4278195226
-0.14663419 0.022961887 0.68000001 4279571233
-0.13913383 0.02278737 0.67500001 4278714386
-0.13784958 0.02278625 0.67500001 4279631883
-0.13656545 0.02278515 0.67500001 4282986046
-0.13548177 0.022817804 0.676 4283315813
-0.13459285 0.022884211 0.67799997 4291605988
-0.082201347 0.022611273 0.671 4289701806
-0.08092761 0.022610545 0.671 4289898413
-0.073448591 0.022270136 0.66100001 4290159275
-0.071975738 0.022202095 0.65899998 4290423215
-0.070725143 0.022201445 0.65899998 4290949559
-0.069263786 0.022133436 0.65700001 4290687668
-0.06801711 0.022132814 0.65700001 4290687668
-0.066770494 0.022132197 0.65700001 4290489771
-0.065922849 0.022266336 0.66100001 4290029220
-0.064668745 0.022265743 0.66100001 4289896618
-0.063414678 0.022265151 0.66100001 4289896618
-0.061972585 0.022197211 0.65899998 4289699494
-0.060722414 0.022196643 0.65899998 4289699494
-0.0594723 0.022196088 0.65899998 4289569443
-0.058222219 0.022195546 0.65899998 4289108892
-0.056885738 0.022161335 0.65799999 4288778907
-0.05563765 0.022160811 0.65799999 4288778907
-0.054141637 0.022059264 0.65499997 4288647317
-0.052899323 0.022058764 0.65499997 4288450195
-0.05157819 0.0220246 0.65399998 4288450960
-0.050337866 0.022024121 0.65399998 4288450960
-0.049097583 0.022023657 0.65399998 4288516240
-0.04785734 0.022023201 0.65399998 4288450447
-0.046617132 0.022022756 0.65399998 4288384649
-0.045376949 0.022022322 0.65399998 4288516492
-0.044136826 0.022021901 0.65399998 4288580749
-0.042896733 0.022021484 0.65399998 4288580749
-0.041720368 0.022054752 0.65499997 4288580749
-0.040478457 0.022054361 0.65499997 4288646543
-0.039236572 0.022053981 0.65499997 4288384915
-0.037994727 0.022053611 0.65499997 4288384915
-0.036752909 0.022053251 0.65499997 4288450447
-0.035511121 0.022052897 0.65499997 4288384397
-0.034217056 0.022018896 0.65399998 4288384402
-0.032977227 0.02201857 0.65399998 4288318352
-0.031737428 0.022018252 0.65399998 4288318604
-0.030497655 0.022017943 0.65399998 4288384397
-0.029257918 0.022017654 0.65399998 4288318352
-0.027975364 0.021983707 0.653 4288186766
-0.026737569 0.021983434 0.653 4288318604
-0.0254998 0.021983175 0.653 4288516240
-0.024113437 0.021848263 0.64899999 4288581263
-0.022883296 0.02184803 0.64899999 4288449420
-0.021753272 0.021948794 0.65200001 4288712095
-0.020517487 0.021948578 0.65200001 4288712095
-0.019281721 0.021948375 0.65200001 4288581263
-0.018045979 0.021948183 0.65200001 4288515469
-0.016836032 0.02198166 0.653 4288647056
-0.015622318 0.022015149 0.65399998 4288778642
-0.014470805 0.022149639 0.65799999 4288384397
-0.013284046 0.022250472 0.66100001 4287529345
-0.012031329 0.02225033 0.66100001 4286872205
-0.010794927 0.022283861 0.662 4286345861
-0.0095691634 0.022351064 0.66399997 4286344049
-0.0083107986 0.022350958 0.66399997 4286278256
0.051546428 0.022123344 0.65700001 4290885562
0.052631397 0.022056429 0.65499997 4291345861
0.053873323 0.022056876 0.65499997 4292069841
0.055115271 0.022057328 0.65499997 4292136397
0.060083438 0.022059252 0.65499997 4293582814
0.061231948 0.022026079 0.65399998 4293648607
0.062472232 0.022026597 0.65399998 4293450206
0.063712545 0.022027122 0.65399998 4293121498
0.065052211 0.022061335 0.65499997 4292266187
0.066294529 0.022061886 0.65499997 4290818741
0.067536861 0.022062443 0.65499997 4290028988
0.068779238 0.022063015 0.65499997 4289107886
0.092635937 0.02184049 0.648 4294767342
-0.16864438 0.02427352 0.68000001 4280952369
-0.16734925 0.024272226 0.68000001 4280231716
-0.16427457 0.024198288 0.67799997 4285146160
-0.16250265 0.024125637 0.676 4294817475
-0.16121538 0.024124382 0.676 4294242806
-0.16040131 0.024194494 0.67799997 4293453291
-0.15911034 0.024193246 0.67799997 4293124839
-0.15781942 0.024191998 0.67799997 4292664288
-0.15652859 0.024190759 0.67799997 4292137433
-0.14427258 0.024072891 0.67500001 4280092960
-0.14298809 0.024071721 0.67500001 4279896085
-0.14170364 0.024070555 0.67500001 4280290843
-0.14021124 0.024033742 0.67400002 4282261033
-0.13851659 0.023961278 0.67199999 4284893009
-0.13723804 0.023960141 0.67199999 4286473057
-0.1359596 0.023959013 0.67199999 4288315261
-0.1346812 0.02395789 0.67199999 4289894811
-0.13399842 0.024063725 0.67500001 4292986825
-0.13291109 0.024098258 0.676 4294896371
-0.13162526 0.02409715 0.676 4294501613
-0.082079597 0.023847887 0.67000002 4289701804
-0.080807731 0.023847139 0.67000002 4289767084
-0.079298526 0.023775214 0.66799998 4289767084
-0.077913769 0.023738898 0.667 4290095535
-0.076532863 0.023702595 0.66600001 4289766314
-0.075042799 0.023630712 0.66399997 4289304738
-0.073449269 0.023523265 0.66100001 4289633703
-0.071976401 0.023451414 0.65899998 4290159262
-0.070725799 0.023450749 0.65899998 4290685606
-0.069264427 0.023378925 0.65700001 4290883250
-0.068017744 0.023378283 0.65700001 4290949044
-0.066771105 0.023377651 0.65700001 4290817709
-0.065524526 0.023377027 0.65700001 4290357158
-0.064473674 0.023447584 0.65899998 4289765287
-0.063223392 0.023446977 0.65899998 4289896616
-0.061973162 0.023446387 0.65899998 4289764517
-0.060630839 0.023410229 0.65799999 4289896103
-0.059382606 0.023409661 0.65799999 4289700257
-0.058134411 0.023409098 0.65799999 4289305499
-0.056886267 0.023408551 0.65799999 4289173148
-0.055384498 0.023301288 0.65499997 4288975768
-0.054059487 0.023265196 0.65399998 4288909971
-0.052819066 0.023264684 0.65399998 4288778642
-0.051578682 0.023264179 0.65399998 4288713614
-0.050338343 0.023263691 0.65399998 4288516492
-0.049098045 0.023263209 0.65399998 4287989896
-0.047857791 0.023262743 0.65399998 4288252811
-0.046546299 0.023226714 0.653 4288317575
-0.045308016 0.023226265 0.653 4288646541
-0.044137258 0.0232614 0.65399998 4288647056
-0.042897146 0.02326097 0.65399998 4288581263
-0.041720778 0.023296125 0.65499997 4288581515
-0.040417049 0.023260152 0.65399998 4288515465
-0.039177056 0.023259763 0.65399998 4288384397
-0.03793709 0.023259383 0.65399998 4288450447
-0.036753271 0.023294576 0.65499997 4288450447
-0.035457257 0.023258653 0.65399998 4288450447
-0.034217395 0.023258304 0.65399998 4288450447
-0.032927129 0.023222405 0.653 4288384397
-0.031689215 0.02322208 0.653 4288581515
-0.030451328 0.023221765 0.653 4288647308
-0.029213473 0.023221463 0.653 4288450447
-0.027847115 0.023114486 0.64999998 4288516240
-0.026614998 0.023114212 0.64999998 4288779407
-0.025382906 0.023113944 0.64999998 4288647821
-0.024113681 0.023078131 0.64899999 4288647056
-0.022883531 0.023077887 0.64899999 4288712849
-0.021686763 0.023113213 0.64999998 4288713114
-0.020517699 0.023184104 0.65200001 4288449943
-0.019281926 0.023183897 0.65200001 4288187788
-0.018046169 0.023183692 0.65200001 4288187788
-0.016836215 0.023219062 0.653 4288516240
-0.015646376 0.023290001 0.65499997 4288516240
-0.014470963 0.023396501 0.65799999 4287465096
-0.013284196 0.023503019 0.66100001 4286938752
-0.012031465 0.023502873 0.66100001 4286347642
-0.010795055 0.023538297 0.662 4285953140
0.052471135 0.023226652 0.653 4290952391
0.05370928 0.023227107 0.653 4291083977
0.05494744 0.023227569 0.653 4290426032
0.061138839 0.023230055 0.653 4290884014
0.062377229 0.023230584 0.653 4290488747
0.063615665 0.023231123 0.653 4289962402
0.064854145 0.023231674 0.653 4289239454
0.066092648 0.023232233 0.653 4288515988
0.085520193 0.023135785 0.64999998 4278190099
0.086753823 0.023136519 0.64999998 4278190080
0.089221172 0.023137998 0.64999998 4279894016
0.09017662 0.023067558 0.648 4289561982
0.091406628 0.02306832 0.648 4292135100
0.092636704 0.023069091 0.648 4294437855
-0.16507868 0.025411548 0.676 4278589467
-0.16379127 0.025410246 0.676 4282384914
-0.16250393 0.025408957 0.676 4284885049
-0.16121666 0.025407668 0.676 4282847041
-0.15992942 0.025406389 0.676 4279631889
-0.15864225 0.025405109 0.676 4278190083
-0.15735513 0.025403835 0.676 4278190080
-0.14427376 0.025353912 0.67500001 4291671733
-0.14277741 0.025315152 0.67400002 4293910207
-0.141075 0.025238849 0.67199999 4294370758
-0.13958831 0.025200114 0.671 4294964718
-0.13831161 0.025198944 0.671 4294967294
-0.13703498 0.02519778 0.671 4294967295
-0.1355561 0.025159076 0.67000002 4294967295
-0.13428149 0.025157925 0.67000002 4294967295
-0.13320547 0.025194334 0.671 4294967295
-0.13212574 0.025230745 0.67199999 4294767102
-0.079180554 0.02500424 0.667 4289767084
-0.077914499 0.025003493 0.667 4290029492
-0.076533586 0.024965275 0.66600001 4289963443
-0.075043507 0.024889581 0.66399997 4289305252
-0.07367219 0.024851386 0.66299999 4288318356
-0.072195515 0.02477573 0.66100001 4289041552
-0.070511818 0.024625119 0.65700001 4290028448
-0.069054224 0.024549484 0.65499997 4290356908
-0.067811325 0.024548829 0.65499997 4290422701
-0.066568486 0.024548184 0.65499997 4290358444
-0.065325677 0.024547545 0.65499997 4290555566
-0.06427861 0.024621872 0.65700001 4290489523
-0.063032113 0.024621254 0.65700001 4290489523
-0.061785676 0.02462065 0.65700001 4290160043
-0.060354985 0.024545105 0.65499997 4290226092
-0.05911243 0.024544524 0.65499997 4289897893
-0.057869915 0.02454395 0.65499997 4289437342
-0.056627452 0.02454339 0.65499997 4289173661
-0.055300485 0.024505371 0.65399998 4288844952
-0.053977344 0.024467364 0.653 4288713362
-0.052738819 0.024466841 0.653 4288713362
-0.051500324 0.024466325 0.653 4288516742
-0.050261866 0.02446582 0.653 4288516742
-0.049023464 0.024465328 0.653 4288647056
-0.047785085 0.024464846 0.653 4288909971
-0.04654675 0.024464374 0.653 4288712847
-0.045308452 0.024463914 0.653 4288515467
-0.044205181 0.024538392 0.65499997 4288514704
-0.042963166 0.024537953 0.65499997 4288514704
-0.041721195 0.024537526 0.65499997 4288383870
-0.040355656 0.024462191 0.653 4288515456
-0.038937826 0.024349406 0.64999998 4288515467
-0.037589423 0.024274096 0.648 4288515467
-0.036360852 0.024273718 0.648 4288516238
-0.035403401 0.024460647 0.653 4288516238
-0.034113098 0.024422832 0.65200001 4288516240
-0.032776188 0.024347568 0.64999998 4288450447
-0.031495422 0.024309777 0.64899999 4288581515
-0.03026511 0.02430946 0.64899999 4288976016
-0.029079562 0.024346609 0.64999998 4288779407
-0.027804567 0.024308853 0.64899999 4288647821
-0.02657433 0.024308562 0.64899999 4288779146
-0.025344118 0.024308287 0.64899999 4288647304
-0.024151091 0.02434548 0.64999998 4288646795
-0.022919033 0.02434523 0.64999998 4288778124
-0.021686995 0.024344986 0.64999998 4288516240
-0.020517921 0.024419667 0.65200001 4288318604
-0.019282134 0.024419449 0.65200001 4288187786
-0.018074047 0.024456697 0.653 4287924614
-0.016862184 0.024493949 0.65399998 4287333506
-0.015646549 0.024531223 0.65499997 4286215282
-0.014493119 0.024680858 0.65899998 4285753458
0.051155023 0.024426337 0.65200001 4291938766
0.052391239 0.024426794 0.65200001 4291675081
0.053627491 0.024427257 0.65200001 4291411908
0.05486377 0.024427729 0.65200001 4289769886
0.063323945 0.024356423 0.64999998 4278190080
0.064556748 0.024356985 0.64999998 4278190080
0.065688357 0.024320081 0.64899999 4278255616
0.066919342 0.024320664 0.64899999 4278190091
0.068255365 0.024358731 0.64999998 4278190087
0.069488324 0.024359331 0.64999998 4278190091
0.070721328 0.024359945 0.64999998 4278190080
0.071954377 0.024360573 0.64999998 4278190336
0.081694506 0.024328442 0.64899999 4278190080
0.082798302 0.024291668 0.648 4278190080
0.083898351 0.024254905 0.64700001 4278648840
0.084994666 0.024218148 0.64600003 4278977293
0.086220697 0.024218889 0.64600003 4278517787
0.087582126 0.024257129 0.64700001 4278190093
0.088810146 0.024257889 0.64700001 4278190081
0.089899063 0.024221165 0.64600003 4282332992
0.090843163 0.024146954 0.64399999 4288712056
0.09206564 0.024147736 0.64399999 4294304461
0.093288168 0.024148533 0.64399999 4294439152
-0.17229436 0.026624011 0.67400002 4294966527
-0.17101043 0.026622659 0.67400002 4294967295
-0.16997837 0.026660809 0.67500001 4293519336
-0.16869262 0.026659461 0.67500001 4288132546
-0.16740698 0.026658123 0.67500001 4278191121
-0.16612135 0.026656786 0.67500001 4278190080
-0.1648358 0.026655458 0.67500001 4279768344
-0.14342003 0.026477125 0.671 4294965503
-0.1421431 0.026475908 0.671 4294967295
-0.14086628 0.026474696 0.671 4294967295
-0.13938147 0.026434038 0.67000002 4294967295
-0.13810666 0.026432844 0.67000002 4294967295
-0.13683191 0.026431648 0.67000002 4294967295
-0.13555725 0.026430471 0.67000002 4294967295
-0.13428266 0.026429297 0.67000002 4294966772
-0.13300812 0.026428135 0.67000002 4294505449
-0.13193026 0.026466414 0.671 4294110953
-0.13065395 0.026465259 0.671 4294110953
-0.12937769 0.026464116 0.671 4292794332
-0.075044222 0.026148481 0.66399997 4289305002
-0.073672906 0.026108375 0.66299999 4287989142
-0.072196215 0.026028905 0.66100001 4288383114
-0.070512511 0.025870698 0.65700001 4289370009
-0.069054894 0.02579125 0.65499997 4289699744
-0.067811981 0.025790578 0.65499997 4289962916
-0.066569127 0.025789911 0.65499997 4289701541
-0.065226577 0.025749883 0.65399998 4290096299
-0.063985728 0.025749244 0.65399998 4290096049
-0.062840857 0.025787983 0.65499997 4290030255
-0.061598193 0.025787361 0.65499997 4289898156
-0.060355585 0.025786756 0.65499997 4289963949
-0.059022762 0.025746789 0.65399998 4289832613
-0.057782143 0.0257462 0.65399998 4289437855
-0.05654157 0.025745627 0.65399998 4289175197
-0.055216473 0.025705695 0.653 4288648852
-0.053895228 0.025665784 0.65200001 4288712847
-0.052658584 0.025665246 0.65200001 4288910225
-0.051264234 0.025585985 0.64999998 4288911246
-0.050031453 0.025585471 0.64999998 4288713866
-0.048798725 0.025584966 0.64999998 4288712597
-0.047712389 0.025663197 0.65200001 4288778390
-0.046475947 0.025662715 0.65200001 4288647567
-0.045239534 0.02566224 0.65200001 4288647567
-0.044003163 0.025661783 0.65200001 4288514704
-0.042832423 0.02570069 0.653 4288448911
-0.041594226 0.025700254 0.653 4287529341
-0.040047061 0.025503043 0.648 4288187270
-0.038818419 0.025502631 0.648 4288515467
-0.037531801 0.025462877 0.64700001 4288647054
-0.036305118 0.025462491 0.64700001 4288450445
-0.035186898 0.025540825 0.64899999 4288450445
-0.03395649 0.025540458 0.64899999 4288516240
-0.032675683 0.02550075 0.648 4288450447
-0.031447224 0.025500409 0.648 4288580747
-0.030218793 0.025500081 0.648 4288975505
-0.028945656 0.025460416 0.64700001 4288713880
-0.027719175 0.025460105 0.64700001 4288516501
-0.026574615 0.025538513 0.64899999 4288712847
-0.025344396 0.025538232 0.64899999 4288712847
-0.024151349 0.025577307 0.64999998 4288777872
-0.022919282 0.02557705 0.64999998 4288580749
-0.021687234 0.025576802 0.64999998 4288252046
-0.020518146 0.025655262 0.65200001 4288186253
-0.019282348 0.025655041 0.65200001 4288055950
-0.018101925 0.025733519 0.65399998 4287726985
-0.016939726 0.025851363 0.65700001 4286545530
0.052230988 0.025583811 0.64999998 4291741389
0.053463463 0.025584288 0.64999998 4291938512
0.059534606 0.025547467 0.64899999 4278190080
0.060765389 0.025548005 0.64899999 4278190080
0.061996225 0.025548557 0.64899999 4278190080
0.064358681 0.025510326 0.648 4278190080
0.065486521 0.025471542 0.64700001 4278255620
0.066713713 0.025472136 0.64700001 4278649877
0.067835942 0.025433371 0.64600003 4278386962
0.069061324 0.025433986 0.64600003 4278255616
0.070395552 0.025473982 0.64700001 4278190080
0.071622916 0.025474617 0.64700001 4278190080
0.072850317 0.02547526 0.64700001 4287863182
0.081317596 0.0254407 0.64600003 4279566336
0.082287923 0.025362656 0.64399999 4284035636
0.083510064 0.025363391 0.64399999 4284568937
0.084732264 0.02536414 0.64399999 4284305508
0.085821025 0.025325513 0.64300001 4282925674
0.087041415 0.025326274 0.64300001 4279043631
0.088261865 0.025327047 0.64300001 4278190080
0.08948236 0.025327833 0.64300001 4278190083
0.090702899 0.025328627 0.64300001 4286469141
0.09192349 0.025329432 0.64300001 4294298508
0.093144141 0.025330244 0.64300001 4293978090
0.094364822 0.025331059 0.64300001 4294372848
-0.17127319 0.027738208 0.67000002 4294966270
-0.17025061 0.027778236 0.671 4294966782
-0.16897246 0.027776865 0.671 4293387749
-0.16769433 0.027775506 0.671 4289049310
-0.16641627 0.02777414 0.671 4286944190
-0.16538437 0.027814174 0.67199999 4288390043
-0.16410452 0.027812824 0.67199999 4289508525
-0.1419325 0.02770802 0.67000002 4294967295
-0.14065756 0.02770678 0.67000002 4294306537
-0.13896661 0.027622845 0.66799998 4293648094
-0.1376956 0.027621625 0.66799998 4292266441
-0.071978472 0.027199565 0.65899998 4287464842
-0.070513219 0.027116304 0.65700001 4287399049
-0.06905558 0.027033053 0.65499997 4288318345
-0.067812666 0.02703236 0.65499997 4289173398
-0.06656979 0.027031675 0.65499997 4289436319
-0.06522724 0.026989738 0.65399998 4289699492
-0.063986368 0.02698908 0.65399998 4289764517
-0.06284149 0.027029701 0.65499997 4289698724
-0.061598808 0.02702906 0.65499997 4289634214
-0.060356196 0.027028434 0.65499997 4289634214
-0.059023373 0.026986562 0.65399998 4289700257
-0.057782736 0.026985956 0.65399998 4289700257
-0.056542136 0.026985364 0.65399998 4289437853
-0.055217046 0.026943527 0.653 4289174937
-0.053730454 0.026819181 0.64999998 4289239958
-0.052497584 0.026818624 0.64999998 4289305751
-0.051107019 0.02673557 0.648 4289174417
-0.049878031 0.026735041 0.648 4289174417
-0.04864908 0.026734525 0.648 4288976541
-0.047493342 0.026775274 0.64899999 4289107870
-0.046262577 0.026774785 0.64899999 4288976789
-0.045031842 0.026774302 0.64899999 4288976789
-0.043801147 0.026773831 0.64899999 4288646804
-0.042570494 0.026773373 0.64899999 4288646804
-0.041339871 0.026772926 0.64899999 4288318604
-0.040047485 0.02673124 0.648 4288384397
-0.038818829 0.026730817 0.648 4288647308
-0.037474193 0.026647909 0.64600003 4288778894
-0.036249392 0.02664751 0.64600003 4288713353
-0.035024628 0.026647126 0.64600003 4288647304
-0.033799887 0.026646748 0.64600003 4288647567
-0.03267603 0.026728885 0.648 4288516238
-0.031447563 0.026728531 0.648 4288516240
-0.030219125 0.026728196 0.648 4288516240
-0.028945969 0.026686624 0.64700001 4288516251
-0.027719481 0.026686311 0.64700001 4288384409
-0.026533963 0.026727252 0.648 4288252811
-0.025344677 0.026768209 0.64899999 4287726467
-0.02415162 0.026809171 0.64999998 4287264649
-0.022919536 0.026808904 0.64999998 4287133063
-0.02168748 0.026808655 0.64999998 4286146165
-0.020549847 0.026932135 0.653 4285751408
-0.019312143 0.026931908 0.653 4285816944
-0.018102137 0.026972933 0.65399998 4285816944
0.05812471 0.026694568 0.64700001 4278191150
0.059259944 0.02665385 0.64600003 4278521362
0.060485065 0.026654402 0.64600003 4279639586
0.06171022 0.026654964 0.64600003 4279900192
0.062935404 0.02665554 0.64600003 4278781967
0.063961998 0.026573595 0.64399999 4278190085
0.065082252 0.026532926 0.64300001 4278255626
0.06630186 0.026533524 0.64300001 4278321178
0.067521527 0.026534146 0.64300001 4280027444
0.068741225 0.026534768 0.64300001 4280814902
0.069852166 0.026494138 0.64200002 4284038759
0.071070053 0.026494781 0.64200002 4283186780
0.072175384 0.026454164 0.64099997 4288516012
0.073391467 0.026454834 0.64099997 4291212747
0.074956782 0.026579328 0.64399999 4294964479
0.076178648 0.026580025 0.64399999 4294966267
0.077400558 0.026580719 0.64399999 4294966267
0.07862252 0.026581433 0.64399999 4294506744
0.079720527 0.026540877 0.64300001 4292730333
0.080940686 0.026541611 0.64300001 4293322974
0.08203312 0.026501074 0.64200002 4294244076
0.083251469 0.026501823 0.64200002 4294569970
0.084601462 0.026543867 0.64300001 4294372848
0.085554846 0.026462071 0.64099997 4291546806
0.086771451 0.026462851 0.64099997 4279046400
0.087988108 0.026463639 0.64099997 4278190084
0.089343987 0.026505729 0.64200002 4278190081
0.090562642 0.026506539 0.64200002 4280549376
0.091781355 0.026507363 0.64200002 4290547333
0.093000107 0.026508193 0.64200002 4292593870
0.094218917 0.02650903 0.64200002 4294963704
-0.17076331 0.028923849 0.66799998 4294966783
-0.16949078 0.028922454 0.66799998 4294967294
-0.168722 0.029007653 0.67000002 4293782505
-0.16744578 0.02900626 0.67000002 4292335073
-0.16616964 0.029004879 0.67000002 4291742936
-0.16489352 0.029003497 0.67000002 4292596700
-0.071979217 0.028449025 0.65899998 4287400085
-0.070513926 0.02836195 0.65700001 4287268242
-0.069056295 0.02827489 0.65499997 4287201927
-0.067813359 0.02827418 0.65499997 4287596685
-0.066570483 0.028273482 0.65499997 4289040015
-0.065327652 0.028272795 0.65499997 4289829531
-0.064084865 0.028272117 0.65499997 4290092703
-0.063034028 0.028357776 0.65700001 4289961117
-0.061787549 0.02835712 0.65700001 4289765021
-0.060541119 0.028356479 0.65700001 4289830814
-0.059023988 0.028226368 0.65399998 4289700257
-0.057783335 0.02822575 0.65399998 4289568671
-0.056110453 0.028009357 0.64899999 4289634466
-0.054794826 0.027965611 0.648 4289437088
-0.053565688 0.027965033 0.648 4289437342
-0.0523366 0.027964469 0.648 4289239706
-0.051028691 0.027920762 0.64700001 4289108372
-0.049801584 0.027920222 0.64700001 4289239958
-0.04849945 0.027876543 0.64600003 4288976537
-0.047274314 0.027876025 0.64600003 4288976537
-0.046191789 0.027961822 0.648 4288976789
-0.044893555 0.027918179 0.64700001 4288976789
-0.043666642 0.027917696 0.64700001 4288515988
-0.042439759 0.027917227 0.64700001 4288515988
-0.041212928 0.02791677 0.64700001 4288253330
-0.040047918 0.027959477 0.648 4288384915
-0.03881925 0.027959039 0.648 4288909712
-0.037474595 0.027872326 0.64600003 4289041298
-0.036249783 0.02787192 0.64600003 4289369748
-0.035025008 0.027871523 0.64600003 4288843404
-0.033800263 0.027871139 0.64600003 4288384651
-0.032625973 0.027913915 0.64700001 4288516238
-0.031399384 0.027913554 0.64700001 4288516751
-0.030172825 0.027913203 0.64700001 4288450958
-0.028946301 0.027912874 0.64700001 4288450708
-0.027719792 0.027912548 0.64700001 4287990157
-0.026534261 0.027955383 0.648 4287529858
-0.025384018 0.028041361 0.64999998 4287069307
-0.024151895 0.028041076 0.64999998 4286214259
-0.022919802 0.028040802 0.64999998 4286017137
-0.021687731 0.028040538 0.64999998 4285949293
-0.020550093 0.028169706 0.653 4285685864
-0.019341948 0.028212607 0.65399998 4285882216
0.054192074 0.027789915 0.64399999 4290955471
0.055413261 0.027790438 0.64399999 4289047474
0.056634478 0.02779096 0.64399999 4283919747
0.057855729 0.0277915 0.64399999 4278192415
0.059077032 0.027792051 0.64399999 4278190092
0.060204729 0.027749458 0.64300001 4278784029
0.061424203 0.027750032 0.64300001 4278389271
0.062741131 0.027793773 0.64399999 4279310373
0.063763946 0.027708055 0.64200002 4281146179
0.064981624 0.027708655 0.64200002 4282264660
0.06619937 0.027709275 0.64200002 4283906394
0.067417145 0.027709903 0.64200002 4285879927
0.06863495 0.02771054 0.64200002 4287133051
0.069744006 0.027668027 0.64099997 4288317069
0.070960008 0.027668688 0.64099997 4288911511
0.072176054 0.027669357 0.64099997 4289569441
0.073392145 0.027670037 0.64099997 4292856022
0.074608289 0.027670735 0.64099997 4294961399
0.075824469 0.027671434 0.64099997 4294506483
0.077040702 0.027672149 0.64099997 4294506483
0.078379065 0.027716048 0.64200002 4294965498
0.079473309 0.027673613 0.64099997 4294439154
0.080689661 0.027674355 0.64099997 4294965736
0.08190608 0.027675113 0.64099997 4294965993
0.083122559 0.027675878 0.64099997 4294966783
0.084339067 0.027676655 0.64099997 4294967295
0.085422173 0.027634267 0.63999999 4291746800
0.086636879 0.027635064 0.63999999 4283193709
0.087851644 0.027635872 0.63999999 4278190096
0.08920563 0.027679868 0.64099997 4278190088
0.090422384 0.027680695 0.64099997 4278190080
0.091639206 0.027681531 0.64099997 4284964181
0.09271121 0.02763919 0.63999999 4290881435
0.093926236 0.027640052 0.63999999 4294963171
-0.1705091 0.030147118 0.667 4294967038
-0.16949221 0.030190893 0.66799998 4294967292
-0.16821976 0.030189477 0.66799998 4294967295
-0.16694734 0.030188061 0.66799998 4294967295
-0.16567498 0.030186653 0.66799998 4294967295
-0.070514672 0.029607635 0.65700001 4287728282
-0.06905701 0.029516758 0.65499997 4287398801
-0.067814067 0.029516032 0.65499997 4287135630
-0.066571176 0.029515315 0.65499997 4287856511
-0.065328337 0.029514614 0.65499997 4287988097
-0.064085543 0.029513916 0.65499997 4288579462
-0.06035747 0.029511916 0.65499997 4289502085
-0.059024613 0.029466212 0.65399998 4289304986
-0.057783954 0.029465578 0.65399998 4289173400
-0.056024604 0.02919464 0.648 4289107357
-0.05479541 0.029194033 0.648 4289107357
-0.053566277 0.029193444 0.648 4289173148
-0.052256398 0.029147815 0.64700001 4289173148
-0.051029246 0.029147247 0.64700001 4289173652
-0.049802125 0.029146697 0.64700001 4289305238
-0.048499968 0.029101102 0.64600003 4289239445
-0.047274824 0.029100575 0.64600003 4289239445
-0.046121016 0.029145103 0.64700001 4289174417
-0.044824656 0.029099554 0.64600003 4288713866
-0.043599632 0.029099064 0.64600003 4288713110
-0.042374637 0.02909858 0.64600003 4288515988
-0.041149687 0.029098116 0.64600003 4288450447
-0.039986566 0.0291427 0.64700001 4288252811
-0.038759783 0.029142259 0.64700001 4288250765
-0.03747502 0.029096784 0.64600003 4287987593
-0.036137961 0.02900628 0.64399999 4287659648
-0.034916967 0.02900588 0.64399999 4287396219
-0.033800647 0.02909557 0.64600003 4286478451
-0.032626335 0.029140221 0.64700001 4286215280
-0.031399742 0.02913986 0.64700001 4285951853
-0.030173169 0.0291395 0.64700001 4285623144
-0.028946629 0.029139156 0.64700001 4285293409
-0.027720116 0.029138828 0.64700001 4284832858
-0.026534572 0.029183544 0.648 4285489244
-0.025384314 0.029273307 0.64999998 4285686366
-0.024152182 0.029273013 0.64999998 4286409574
-0.022920074 0.029272728 0.64999998 4286541416
-0.021754723 0.029362531 0.65200001 4286805113
0.052806932 0.028920023 0.64200002 4291938512
0.054024294 0.028920533 0.64200002 4291479496
0.055241697 0.02892106 0.64200002 4291479496
0.05637119 0.028876547 0.64099997 4289310380
0.057586767 0.028877093 0.64099997 4278651914
0.05889412 0.028922707 0.64200002 4278190084
0.060111668 0.028923279 0.64200002 4278190091
0.061233725 0.02887881 0.64099997 4280942606
0.062449455 0.02887941 0.64099997 4290810532
0.063665226 0.028880013 0.64099997 4293382337
0.064881034 0.028880635 0.64099997 4294964196
0.065993764 0.028836209 0.63999999 4294965243
0.067207754 0.028836846 0.63999999 4294966271
0.068421789 0.028837495 0.63999999 4294833912
0.069418244 0.028748043 0.63800001 4294965755
0.070628576 0.028748717 0.63800001 4294833658
0.071838953 0.028749401 0.63800001 4294966783
0.073049352 0.028750092 0.63800001 4294702840
0.074143417 0.028705733 0.63700002 4292860636
0.075352035 0.02870645 0.63700002 4290887111
0.076560684 0.028707175 0.63700002 4289373873
0.077769376 0.02870791 0.63700002 4289045155
0.079102091 0.028753724 0.63800001 4288321688
0.080564536 0.028844621 0.63999999 4290620566
0.08152353 0.028755255 0.63800001 4294370767
0.082734294 0.028756032 0.63800001 4294899192
0.083945148 0.028756829 0.63800001 4294966270
0.085156016 0.028757624 0.63800001 4294111734
0.086231589 0.028713362 0.63700002 4289308845
0.087440662 0.028714186 0.63700002 4281357931
0.088788956 0.028760087 0.63800001 4278190096
0.090000041 0.028760934 0.63800001 4278190080
0.09121117 0.028761784 0.63800001 4278191104
0.092132628 0.028672479 0.63599998 4285224010
0.093340069 0.028673351 0.63599998 4294303187
0.094547547 0.028674228 0.63599998 4294767602
0.095453985 0.028584948 0.634 4294636015
-0.069057755 0.030758671 0.65499997 4287858319
-0.067814797 0.030757925 0.65499997 4287660940
-0.059025262 0.030706096 0.65399998 4288711563
-0.056025207 0.030423116 0.648 4289041560
-0.05479601 0.030422498 0.648 4288975766
-0.053566866 0.030421894 0.648 4288976791
-0.052256986 0.030374352 0.64700001 4288779155
-0.051029813 0.030373769 0.64700001 4288646795
-0.049802687 0.030373206 0.64700001 4288975503
-0.048500512 0.030325705 0.64600003 4289041812
-0.047275364 0.030325163 0.64600003 4288778896
-0.046121527 0.030371573 0.64700001 4288516240
-0.044825163 0.030324118 0.64600003 4288516240
-0.043600112 0.030323612 0.64600003 4288450195
-0.042375114 0.03032312 0.64600003 4288186766
-0.041150149 0.030322641 0.64600003 4287464063
-0.03992521 0.030322172 0.64600003 4287595649
-0.038700312 0.030321717 0.64600003 4287397502
-0.037475448 0.03032128 0.64600003 4286805365
-0.036138378 0.030226974 0.64399999 4286804600
-0.034917366 0.030226562 0.64399999 4286607220
-0.03380103 0.030320028 0.64600003 4286017646
-0.032626718 0.030366572 0.64700001 4285886060
-0.031448636 0.030413127 0.648 4284244319
-0.030313432 0.030506629 0.64999998 4284244319
-0.02908119 0.030506274 0.64999998 4284635997
-0.02784897 0.030505935 0.64999998 4284964706
-0.02661678 0.030505605 0.64999998 4285948260
-0.025384622 0.030505294 0.64999998 4286343017
-0.024152473 0.030504989 0.64999998 4287066225
0.052725185 0.030090021 0.64099997 4291939538
0.053940669 0.030090548 0.64099997 4292266963
0.055156186 0.030091083 0.64099997 4292596185
0.05584408 0.029809963 0.63499999 4290888140
0.057048291 0.029810516 0.63499999 4281743170
0.058436014 0.029904978 0.63700002 4278190100
0.059737731 0.029952509 0.63800001 4278190104
0.060947739 0.029953104 0.63800001 4283301891
0.062157787 0.029953707 0.63800001 4292774035
0.063367881 0.029954325 0.63800001 4293645010
0.064578004 0.029954955 0.63800001 4294964210
0.065788172 0.029955594 0.63800001 4294966268
0.066998385 0.029956246 0.63800001 4294635761
0.068208635 0.029956909 0.63800001 4294241757
0.069310121 0.029910631 0.63700002 4294439393
0.070407845 0.029864356 0.63599998 4294768117
0.071614429 0.029865053 0.63599998 4294966781
0.072821066 0.029865762 0.63599998 4294965503
0.074027739 0.029866477 0.63599998 4293057251
0.075234465 0.029867211 0.63599998 4290231734
0.076441221 0.029867949 0.63599998 4284112985
0.077770121 0.029915664 0.63700002 4284174933
0.079102851 0.029963393 0.63800001 4281674543
0.080313556 0.029964171 0.63800001 4284233728
0.081396528 0.029917989 0.63700002 4292128870
0.082605429 0.029918786 0.63700002 4294962664
0.08381436 0.029919591 0.63700002 4294964720
0.085023366 0.02992041 0.63700002 4294177531
0.086097032 0.029874263 0.63599998 4292203485
0.08730422 0.0298751 0.63599998 4286551465
0.088650644 0.029922923 0.63700002 4278190090
0.089718759 0.029876804 0.63599998 4278190080
0.090926111 0.029877674 0.63599998 4278190080
0.091843791 0.029784594 0.634 4282652928
0.09304744 0.029785482 0.634 4293113996
0.094251134 0.029786374 0.634 4293780191
0.095454887 0.02978728 0.634 4294767342
-0.16040727 0.032425221 0.662 4280092165
-0.15914655 0.032423791 0.662 4279238656
-0.15764742 0.032373387 0.66100001 4282386944
-0.15591548 0.032274019 0.65899998 4283110659
-0.15466067 0.032272615 0.65899998 4285422097
-0.1534059 0.032271214 0.65899998 4285948441
-0.15215118 0.032269817 0.65899998 4286612579
-0.15089652 0.032268424 0.65899998 4287336045
-0.14964193 0.032267042 0.65899998 4284577189
-0.14838737 0.032265659 0.65899998 4283984795
-0.14713292 0.032264292 0.65899998 4278597201
-0.13438736 0.032202005 0.65799999 4280627015
-0.13313547 0.032200709 0.65799999 4278190097
-0.057343457 0.031701121 0.64899999 4286935922
-0.056025844 0.031651631 0.648 4287002745
-0.054796632 0.031650994 0.648 4287265916
-0.053567469 0.031650379 0.648 4287067767
-0.052338343 0.031649772 0.648 4286673266
-0.051030394 0.031600337 0.64700001 4286803818
-0.049803253 0.031599753 0.64700001 4286935405
-0.048576139 0.031599183 0.64700001 4286476404
-0.04734908 0.031598628 0.64700001 4286147440
-0.046122059 0.031598087 0.64700001 4286409072
-0.044825673 0.031548716 0.64600003 4286277743
-0.043600623 0.031548202 0.64600003 4286474604
-0.042375609 0.031547699 0.64600003 4286343017
-0.04115063 0.031547211 0.64600003 4286803805
-0.039925676 0.031546723 0.64600003 4287132770
-0.038700767 0.031546265 0.64600003 4287067506
-0.037475888 0.03154581 0.64600003 4286935920
-0.036251042 0.031545375 0.64600003 4286870906
-0.035026226 0.03154495 0.64600003 4286607991
-0.033853754 0.03159336 0.64700001 4286346611
-0.032677535 0.031641789 0.648 4286478197
0.054726496 0.031061994 0.63599998 4292333260
0.055844635 0.03101371 0.63499999 4291414225
0.057048861 0.03101428 0.63499999 4286677129
0.058253117 0.031014852 0.63499999 4278195284
0.059551049 0.031064289 0.63599998 4278190136
0.060852818 0.031113744 0.63700002 4280549376
0.061963547 0.031065514 0.63599998 4284758078
0.063169859 0.031066142 0.63599998 4288511050
0.064477436 0.031115633 0.63700002 4288905807
0.065685712 0.031116281 0.63700002 4286538611
0.06689404 0.031116953 0.63700002 4282986046
0.068102404 0.031117629 0.63700002 4283247678
0.069201991 0.031069459 0.63599998 4290748080
0.070297845 0.03102131 0.63499999 4294108111
0.071502537 0.031022014 0.63499999 4294967018
0.072707288 0.031022739 0.63499999 4294967034
0.073912077 0.031023471 0.63499999 4293386203
0.07511691 0.031024216 0.63499999 4291085985
0.076321788 0.031024972 0.63499999 4278190080
0.077526711 0.031025739 0.63499999 4278190080
0.078731671 0.031026512 0.63499999 4278190080
0.080062568 0.031076163 0.63599998 4278190080
0.081141762 0.031028103 0.63499999 4287331709
0.082346871 0.031028911 0.63499999 4293315245
0.083552025 0.031029733 0.63499999 4294966751
0.084623747 0.030981699 0.634 4294966015
0.08582712 0.030982539 0.634 4294964218
0.087030523 0.030983392 0.634 4293189337
0.088233985 0.030984255 0.634 4283649352
0.0894375 0.030985126 0.634 4278190101
0.090641059 0.030986013 0.634 4278190097
0.091410071 0.030840274 0.63099998 4278190080
0.092608042 0.030841179 0.63099998 4285951351
0.093657389 0.03079321 0.63 4291146661
0.094853558 0.030794125 0.63 4294964711
0.096049778 0.030795056 0.63 4294833397
-0.16394317 0.033635713 0.66100001 4279173120
-0.16219194 0.033532478 0.65899998 4278190080
-0.16093682 0.03353101 0.65899998 4279375372
-0.15968177 0.033529557 0.65899998 4282454067
-0.15842675 0.033528108 0.65899998 4286533233
-0.15717182 0.033526666 0.65899998 4288378741
-0.15591691 0.033525221 0.65899998 4288970878
-0.15466207 0.033523791 0.65899998 4289171837
-0.15340731 0.033522364 0.65899998 4289763974
-0.15215258 0.033520941 0.65899998 4290356897
-0.15089792 0.033519521 0.65899998 4291606708
-0.14964332 0.033518109 0.65899998 4291281370
-0.14838876 0.033516705 0.65899998 4288320685
-0.14713429 0.033515308 0.65899998 4282671711
-0.14565851 0.033463061 0.65799999 4278196501
-0.14440607 0.033461675 0.65799999 4278191115
-0.14337122 0.033511151 0.65899998 4278392350
-0.14190131 0.033458926 0.65799999 4290143110
-0.14064905 0.033457566 0.65799999 4294954480
-0.13939683 0.033456206 0.65799999 4294892778
-0.13730492 0.033251487 0.65399998 4294761191
-0.13606045 0.033250153 0.65399998 4293843449
-0.13502219 0.03329967 0.65499997 4287658907
-0.1335717 0.033247504 0.65399998 4279450169
-0.13232742 0.033246197 0.65399998 4278191363
-0.13128366 0.033295728 0.65499997 4278255616
-0.13003761 0.033294432 0.65499997 4289107605
-0.058575328 0.032932259 0.64899999 4287199095
-0.057255752 0.032880843 0.648 4287067508
-0.056026492 0.032880183 0.648 4286542194
-0.054797269 0.032879535 0.648 4286608243
-0.053568095 0.032878902 0.648 4286540910
-0.05233895 0.032878283 0.648 4286540910
-0.051109865 0.032877676 0.648 4285949543
-0.049803827 0.032826345 0.64700001 4286146921
-0.048576724 0.032825764 0.64700001 4286146156
-0.047349639 0.032825191 0.64700001 4286211949
-0.046122603 0.032824632 0.64700001 4286079850
-0.044826206 0.032773361 0.64600003 4286342765
-0.04360114 0.032772828 0.64600003 4286341219
-0.042376108 0.032772318 0.64600003 4287130734
-0.041151121 0.032771815 0.64600003 4287197802
-0.03992616 0.032771323 0.64600003 4287526510
-0.038701233 0.032770846 0.64600003 4287330424
-0.037476338 0.03277038 0.64600003 4287330424
-0.036251478 0.032769937 0.64600003 4287134587
0.054554962 0.032166194 0.634 4292070354
0.055757262 0.03216676 0.634 4291808979
0.056959596 0.032167338 0.634 4289572273
0.058161981 0.032167934 0.634 4283589758
0.059364386 0.032168534 0.634 4278190104
0.060566835 0.032169145 0.634 4278190080
0.061866742 0.032220513 0.63499999 4279703069
0.063071176 0.032221157 0.63499999 4279373056
0.067889266 0.032223839 0.63499999 4278321152
0.069093883 0.03222454 0.63499999 4286935407
0.070187844 0.032174505 0.634 4291933360
0.071390666 0.032175232 0.634 4294499287
0.072593518 0.032175962 0.634 4293582562
0.073796429 0.032176711 0.634 4292727253
0.07499937 0.032177471 0.634 4287340954
0.076202363 0.032178238 0.634 4278190848
0.077405393 0.032179017 0.634 4278190080
0.078608483 0.03217981 0.634 4278386692
0.07955984 0.032079101 0.63200003 4278190080
0.080503657 0.031978395 0.63 4283451453
0.081699297 0.031979214 0.63 4290549111
0.082894966 0.031980041 0.63 4294963667
0.084224164 0.032031644 0.63099998 4294966783
0.085421845 0.032032501 0.63099998 4294767350
0.086482301 0.031982604 0.63 4294370799
0.087678172 0.031983476 0.63 4285949295
0.088874094 0.031984363 0.63 4283050035
0.090070076 0.031985261 0.63 4279369728
0.091266111 0.031986166 0.63 4278190080
0.092462197 0.031987086 0.63 4281283369
0.093509659 0.031937234 0.62900001 4288052825
0.094703943 0.031938173 0.62900001 4294566332
0.095898278 0.031939119 0.62900001 4294373361
0.097092651 0.031940073 0.62900001 4294833912
-0.16470382 0.034786835 0.65899998 4282729574
-0.1634486 0.034785338 0.65899998 4279374131
-0.16069408 0.034729581 0.65799999 4282861131
-0.15944092 0.034728102 0.65799999 4289172616
-0.15818782 0.034726627 0.65799999 4294967286
-0.15568177 0.034723695 0.65799999 4294967295
-0.15419416 0.034669466 0.65700001 4294967295
-0.15294316 0.034668013 0.65700001 4294967295
-0.14919059 0.034663696 0.65700001 4294967295
-0.14793985 0.034662269 0.65700001 4292663257
-0.14668916 0.034660846 0.65700001 4291019447
-0.14499579 0.034553923 0.65499997 4289572001
-0.14374904 0.034552518 0.65499997 4290818993
-0.14125572 0.034549735 0.65499997 4291408804
-0.14000916 0.03454835 0.65499997 4284631868
-0.13876267 0.034546975 0.65499997 4282647587
-0.13730627 0.034492861 0.65399998 4281597971
-0.1360618 0.034491505 0.65399998 4281408052
-0.13502352 0.034542888 0.65499997 4280224035
-0.13357304 0.034488808 0.65399998 4280098581
-0.13232875 0.034487467 0.65399998 4278190080
-0.13108453 0.034486141 0.65399998 4278190080
-0.12984039 0.034484822 0.65399998 4288713112
-0.12741651 0.034167144 0.648 4293118915
-0.04727703 0.033999167 0.64600003 4287463813
-0.046051875 0.033998605 0.64600003 4287397506
-0.043466676 0.033892248 0.64399999 4287593850
-0.042245425 0.033891723 0.64399999 4287922815
-0.041024208 0.033891205 0.64399999 4287725952
-0.039803032 0.033890709 0.64399999 4287989123
0.053353231 0.033367548 0.634 4292794584
0.054383427 0.033262853 0.63200003 4292004811
0.05558195 0.033263426 0.63200003 4291939018
0.056780513 0.033264019 0.63200003 4292004811
0.057979103 0.033264618 0.63200003 4288717741
0.059177741 0.033265233 0.63200003 4278190087
0.060376395 0.033265859 0.63200003 4278190080
0.072365277 0.033272795 0.63200003 4281861921
0.07356438 0.033273548 0.63200003 4281073684
0.074763551 0.033274319 0.63200003 4279372051
0.075842559 0.033222448 0.63099998 4278780171
0.077039927 0.033223245 0.63099998 4279702819
0.079308867 0.033172213 0.63 4279045389
0.08050447 0.033173036 0.63 4278190080
0.081700116 0.033173874 0.63 4287065607
0.0828958 0.033174716 0.63 4291934546
0.084091552 0.03317558 0.63 4291604159
0.085151955 0.033123787 0.62900001 4291209401
0.086345896 0.03312467 0.62900001 4290031759
0.087539904 0.033125564 0.62900001 4284899905
0.088733926 0.033126462 0.62900001 4278649920
0.089928016 0.033127375 0.62900001 4278190121
0.091122173 0.033128299 0.62900001 4278190080
0.092316344 0.03312923 0.62900001 4278190080
0.093361929 0.033077508 0.62800002 4278190093
0.094554327 0.033078458 0.62800002 4289901779
0.095594302 0.033026747 0.62699997 4293057753
0.09678489 0.033027716 0.62699997 4294505199
0.097975545 0.033028699 0.62699997 4294308336
-0.15372621 0.035807572 0.65499997 4294967295
-0.15247902 0.035806101 0.65499997 4294967295
-0.14873786 0.035801716 0.65499997 4294967295
-0.14749092 0.035800267 0.65499997 4293518311
-0.14477587 0.035742741 0.65399998 4293385184
-0.14353101 0.035741311 0.65399998 4294830826
-0.14228621 0.035739888 0.65399998 4293252050
-0.14104146 0.035738472 0.65399998 4290822336
-0.13979682 0.035737067 0.65399998 4280163870
-0.13855217 0.035735663 0.65399998 4278190083
-0.13337013 0.035675503 0.653 4281081640
-0.1319254 0.035619512 0.65200001 4278386688
-0.13028412 0.035508905 0.64999998 4279304192
-0.1286505 0.035398316 0.648 4290154896
-0.1274178 0.035396986 0.648 4292659911
-0.12618518 0.035395667 0.648 4294964208
-0.1018597 0.035480365 0.64999998 4293846250
-0.10046982 0.035424657 0.64899999 4293649641
-0.099236719 0.03542354 0.64899999 4293715434
-0.098003685 0.035422444 0.64899999 4293583845
-0.096770681 0.035421349 0.64899999 4293518052
0.053185493 0.034460444 0.63200003 4292991706
0.054297946 0.034406487 0.63099998 4292267984
0.055406634 0.034352548 0.63 4291740358
0.056601427 0.034353148 0.63 4292595667
0.05779624 0.034353763 0.63 4290755278
0.058991078 0.034354378 0.63 4279504675
0.060281508 0.034409553 0.63099998 4278190080
0.061478328 0.034410201 0.63099998 4280159509
0.073332347 0.034362838 0.63 4278190080
0.074527748 0.034363627 0.63 4278191883
0.075602964 0.034309871 0.62900001 4279310621
0.076796532 0.034310676 0.62900001 4280033579
0.077990159 0.034311496 0.62900001 4280099372
0.079183809 0.034312323 0.62900001 4279639836
0.080377534 0.034313165 0.62900001 4278191875
0.081571296 0.034314018 0.62900001 4280814848
0.082765095 0.034314882 0.62900001 4286670663
0.083958939 0.034315754 0.62900001 4287924360
0.085152857 0.03431664 0.62900001 4285819240
0.087401621 0.034263883 0.62800002 4280040758
0.088593781 0.034264807 0.62800002 4278190614
0.089785986 0.034265738 0.62800002 4278190100
0.09097822 0.034266673 0.62800002 4278190080
0.092170522 0.034267623 0.62800002 4278190080
0.093362883 0.034268584 0.62800002 4278190080
0.094404705 0.034214985 0.62699997 4288260761
0.095290355 0.034106825 0.625 4291282885
0.096322797 0.03405324 0.62400001 4294112240
0.09750776 0.034054235 0.62400001 4294307312
-0.16818301 0.036956448 0.653 4294966526
-0.16719463 0.037011489 0.65399998 4294967295
-0.14061159 0.036866914 0.65200001 4290623399
-0.13937069 0.03686548 0.65200001 4290425763
-0.13378939 0.036690235 0.64899999 4285689189
-0.13235031 0.036632322 0.648 4279113542
-0.13091508 0.036574416 0.64700001 4278190113
-0.12968417 0.036573052 0.64700001 4278190080
-0.12825479 0.036515169 0.64600003 4289306015
-0.12702589 0.03651382 0.64600003 4293054156
-0.12579705 0.036512479 0.64600003 4294966521
-0.12456831 0.036511153 0.64600003 4293318620
-0.1233396 0.036509827 0.64600003 4290950072
0.0529336 0.035489373 0.62900001 4292794063
0.054126427 0.035489954 0.62900001 4292925650
0.055319291 0.035490554 0.62900001 4292530894
0.056512184 0.035491161 0.62900001 4292793809
0.057705116 0.035491779 0.62900001 4292335829
0.05889808 0.03549242 0.62900001 4285624687
0.060091089 0.035493065 0.62900001 4278193475
0.061284125 0.035493724 0.62900001 4278192447
0.074291937 0.035445377 0.62800002 4278192140
0.075483575 0.035446193 0.62800002 4278190341
0.08250279 0.035394832 0.62699997 4278190080
0.083692871 0.035395723 0.62699997 4279631872
0.089358009 0.035287421 0.625 4284180868
0.090544567 0.035288367 0.625 4286017898
0.094104566 0.035291292 0.625 4289045427
0.09513887 0.035235822 0.62400001 4291412938
0.096323788 0.035236824 0.62400001 4294242293
0.097508758 0.035237838 0.62400001 4294242289
0.098693803 0.035238869 0.62400001 4294242289
-0.16715431 0.037962697 0.64899999 4294966526
-0.16591798 0.03796114 0.64899999 4294967295
-0.16493534 0.038018059 0.64999998 4294571254
-0.16420089 0.038133476 0.65200001 4285754992
-0.16295889 0.038131915 0.65200001 4280558376
-0.15008044 0.037999626 0.64999998 4292860890
-0.14884289 0.037998125 0.64999998 4292334546
-0.14760539 0.037996627 0.64999998 4291545291
-0.14636797 0.037995141 0.64999998 4291216583
-0.14513059 0.037993655 0.64999998 4291084742
-0.14389326 0.037992179 0.64999998 4290295227
-0.14265601 0.037990704 0.64999998 4288520867
