# .PCD v0.7 - Point Cloud Data file format
VERSION 0.7
FIELDS x y z rgba
SIZE 4 4 4 4
TYPE F F F U
COUNT 1 1 1 1
WIDTH 1044
HEIGHT 1
VIEWPOINT 0 0 0 1 0 0 0
POINTS 1044
DATA ascii
-0.017915955 -0.21193887 0.69300002 4294044909
-0.016672341 -0.21285585 0.69599998 4294110703
-0.015351178 -0.21285537 0.69599998 4293912810
-0.014030024 -0.21285494 0.69599998 4293978603
-0.012727143 -0.21316031 0.69700003 4293781738
-0.011420471 -0.21346571 0.69800001 4293781738
-0.010138939 -0.21438275 0.70099998 4293585131
-0.0088083316 -0.21438238 0.70099998 4293585131
-0.0074990648 -0.21499367 0.70300001 4293585127
-0.11216468 -0.21221119 0.69800001 4293846502
-0.11083823 -0.21221006 0.69800001 4293517539
-0.10951181 -0.21220887 0.69800001 4293517539
-0.1084954 -0.21281572 0.69999999 4293386210
-0.10716522 -0.21281455 0.69999999 4293518052
-0.10553267 -0.21220534 0.69800001 4293518052
-0.10316129 -0.21007602 0.69099998 4293715432
-0.10140612 -0.20916279 0.68800002 4293583845
-0.099953331 -0.20885761 0.68699998 4293649638
-0.098647974 -0.20885642 0.68699998 4293715432
-0.097200952 -0.20855123 0.68599999 4294044396
-0.095897555 -0.20855008 0.68599999 4293979116
-0.094594158 -0.2085489 0.68599999 4294176496
-0.0930188 -0.20793968 0.68400002 4293978349
-0.091719247 -0.20793852 0.68400002 4294110191
-0.090287536 -0.20763335 0.68300003 4294110703
-0.088859677 -0.20732819 0.68199998 4294242289
-0.087178834 -0.20641504 0.67900002 4293978862
-0.085762389 -0.20610987 0.67799997 4294176498
-0.084225193 -0.20550075 0.676 4294242543
-0.082941003 -0.2054996 0.676 4294176750
-0.081656836 -0.20549847 0.676 4294045161
-0.080372691 -0.20549734 0.676 4294308334
-0.078971587 -0.20519227 0.67500001 4294110701
-0.077689379 -0.20519112 0.67500001 4294110701
-0.076407209 -0.20519002 0.67500001 4294110953
-0.075125068 -0.20518892 0.67500001 4294242795
-0.073842943 -0.20518783 0.67500001 4294110701
-0.072560839 -0.20518672 0.67500001 4294242543
-0.071173161 -0.20488165 0.67400002 4294110701
-0.06989301 -0.20488058 0.67400002 4294308336
-0.068612881 -0.20487951 0.67400002 4294175983
-0.067432679 -0.20518243 0.67500001 4294110189
-0.066248693 -0.20548536 0.676 4294175983
-0.064964846 -0.20548432 0.676 4294504947
-0.063680992 -0.20548329 0.676 4294242541
-0.062397186 -0.20548226 0.676 4294308334
-0.061113402 -0.20548126 0.676 4294176496
-0.05982963 -0.20548026 0.676 4294308338
-0.058459278 -0.2051753 0.67500001 4294308336
-0.057177458 -0.20517433 0.67500001 4294308336
-0.055895649 -0.20517336 0.67500001 4294374131
-0.054613866 -0.20517239 0.67500001 4294637047
-0.053253107 -0.20486751 0.67400002 4294374131
-0.051973261 -0.20486662 0.67400002 4294637047
-0.050768651 -0.2051696 0.67500001 4294374131
-0.049486954 -0.20516874 0.67500001 4294571254
-0.048205283 -0.20516784 0.67500001 4294505458
-0.046993125 -0.20547092 0.676 4294505458
-0.045709591 -0.20547004 0.676 4294374131
-0.044426076 -0.20546922 0.676 4294505460
-0.043270215 -0.20607628 0.67799997 4294374131
-0.041982926 -0.20607542 0.67799997 4294374131
-0.040815718 -0.2066825 0.68000001 4294374131
-0.039524686 -0.20668176 0.68000001 4294505460
-0.038233656 -0.20668098 0.68000001 4294374644
-0.036942653 -0.20668021 0.68000001 4294177009
-0.035756521 -0.20728734 0.68199998 4294308595
-0.034461752 -0.20728658 0.68199998 4294374644
-0.033069737 -0.20667803 0.68000001 4294242802
-0.031778798 -0.20667732 0.68000001 4294374644
-0.030577539 -0.20728451 0.68199998 4294242289
-0.029282834 -0.20728385 0.68199998 4294176496
-0.027988143 -0.20728321 0.68199998 4294110703
-0.026771747 -0.20789044 0.68400002 4294176496
-0.02547328 -0.20788981 0.68400002 4294176496
-0.024245519 -0.20849709 0.68599999 4294176496
-0.022943288 -0.2084965 0.68599999 4294177009
-0.021672616 -0.20879985 0.68699998 4294242802
-0.020368511 -0.20879932 0.68699998 4293914093
-0.01917542 -0.21001451 0.69099998 4293848044
-0.01791545 -0.21062185 0.69300002 4294044909
-0.016623944 -0.21092528 0.69400001 4294110703
-0.015350706 -0.21153262 0.69599998 4293912810
-0.014029573 -0.21153219 0.69599998 4293912810
-0.012726708 -0.2118357 0.69700003 4293781738
-0.011403694 -0.21183528 0.69700003 4293781738
-0.010138539 -0.2130505 0.70099998 4293650152
-0.0088079507 -0.21305014 0.70099998 4293650152
-0.0074773687 -0.21304975 0.70099998 4293716199
-0.0061467951 -0.2130494 0.70099998 4293716199
-0.11332739 -0.21058448 0.69700003 4293517800
-0.11200282 -0.2105833 0.69700003 4293452007
-0.11067826 -0.21058211 0.69700003 4293123294
-0.10935374 -0.21058093 0.69700003 4293254881
-0.10818422 -0.21088184 0.69800001 4293123294
-0.10670473 -0.21057852 0.69700003 4293452259
-0.10477553 -0.20936887 0.69300002 4293386210
-0.10301082 -0.2084613 0.69 4293715432
-0.10140492 -0.20785588 0.68800002 4293715686
-0.099952154 -0.20755257 0.68699998 4293715686
-0.098646797 -0.20755136 0.68699998 4293715432
-0.09719976 -0.20724806 0.68599999 4293978603
-0.095896356 -0.20724685 0.68599999 4293650152
-0.094317198 -0.20664148 0.68400002 4293847787
-0.093017608 -0.20664026 0.68400002 4293781738
-0.091583997 -0.20633699 0.68300003 4293979116
-0.090286396 -0.20633584 0.68300003 4294044909
-0.088467635 -0.20512621 0.67900002 4294110703
-0.087049283 -0.20482294 0.67799997 4293715945
-0.085508257 -0.20421758 0.676 4294044909
-0.084224045 -0.20421644 0.676 4294110703
-0.082939856 -0.20421524 0.676 4294044909
-0.081655703 -0.20421414 0.676 4293716199
-0.080371566 -0.20421299 0.676 4294044907
-0.078970455 -0.2039098 0.67500001 4293978603
-0.077688262 -0.20390865 0.67500001 4294175983
-0.076406106 -0.20390755 0.67500001 4294110703
-0.075123958 -0.2039064 0.67500001 4294110703
-0.073841833 -0.2039053 0.67500001 4293978603
-0.072452255 -0.20360214 0.67400002 4294307312
-0.070960879 -0.20299686 0.67199999 4294044907
-0.069684535 -0.20299576 0.67199999 4294242543
-0.068611816 -0.20359884 0.67400002 4294110703
-0.067431614 -0.20389986 0.67500001 4294110703
-0.066149645 -0.20389877 0.67500001 4294110703
-0.064771593 -0.20359567 0.67400002 4294242289
-0.063491575 -0.20359464 0.67400002 4294110701
-0.062211562 -0.2035936 0.67400002 4294242543
-0.060931593 -0.20359261 0.67400002 4294044907
-0.059740126 -0.20389365 0.67500001 4294374129
-0.058458295 -0.20389268 0.67500001 4294374129
-0.057176474 -0.20389168 0.67500001 4294308336
-0.055894688 -0.20389071 0.67500001 4294308338
-0.054612916 -0.20388974 0.67500001 4294505460
-0.053252161 -0.20358674 0.67400002 4294176496
-0.051972345 -0.20358585 0.67400002 4294308338
-0.050692525 -0.20358488 0.67400002 4294242289
-0.049412746 -0.20358396 0.67400002 4294308338
-0.048132978 -0.20358309 0.67400002 4294110189
-0.04692274 -0.20388426 0.67500001 4294175983
-0.045641117 -0.20388339 0.67500001 4294110703
-0.04442523 -0.20418459 0.676 4294242289
-0.043141738 -0.20418374 0.676 4294242289
-0.041858282 -0.20418294 0.676 4294242289
-0.040694874 -0.20478621 0.67799997 4294176496
-0.039407644 -0.20478541 0.67799997 4294374131
-0.038232885 -0.20538872 0.68000001 4294177009
-0.036941897 -0.20538798 0.68000001 4294177009
-0.03575578 -0.20599128 0.68199998 4294242802
-0.034461029 -0.20599051 0.68199998 4294308595
-0.033069029 -0.20538574 0.68000001 4294045680
-0.031778108 -0.20538506 0.68000001 4294045680
-0.030576866 -0.20598844 0.68199998 4294176496
-0.029196303 -0.2053837 0.68000001 4294176496
-0.027905427 -0.20538306 0.68000001 4294110703
-0.026614565 -0.20538242 0.68000001 4294176496
-0.025435431 -0.20628792 0.68300003 4294045680
-0.024174241 -0.20658934 0.68400002 4294177009
-0.022875829 -0.20658875 0.68400002 4294177263
-0.021640515 -0.20719227 0.68599999 4294177263
-0.020367973 -0.20749372 0.68699998 4293914093
-0.019174898 -0.2087013 0.69099998 4293848044
-0.01786324 -0.20870076 0.69099998 4293913839
-0.016623454 -0.20960638 0.69400001 4293979633
-0.015306126 -0.20960589 0.69400001 4293781738
-0.014029118 -0.21020947 0.69599998 4293781738
-0.012708012 -0.21020904 0.69599998 4293781738
-0.011386916 -0.21020862 0.69599998 4293781738
-0.010123678 -0.21141627 0.69999999 4293846761
-0.0087950062 -0.21141593 0.69999999 4293715432
-0.0074663404 -0.21141553 0.69999999 4293650152
-0.0061376845 -0.21141517 0.69999999 4293650152
-0.0048159049 -0.21171688 0.70099998 4293387234
-0.11399284 -0.20806086 0.69300002 4294108159
-0.11267583 -0.20805967 0.69300002 4293583845
-0.11184092 -0.20895913 0.69599998 4293123294
-0.11051825 -0.20895796 0.69599998 4293123294
-0.10919563 -0.20895673 0.69599998 4293452259
-0.10802802 -0.20925573 0.69700003 4293386210
-0.10655043 -0.20895429 0.69599998 4293649638
-0.10447194 -0.20745198 0.69099998 4293583843
-0.10271104 -0.20655012 0.68800002 4293715686
-0.10125632 -0.20624867 0.68699998 4293715686
-0.099950947 -0.20624748 0.68699998 4293715686
-0.098501995 -0.20594606 0.68599999 4293715432
-0.097198576 -0.20594488 0.68599999 4294175983
-0.095615573 -0.20534322 0.68400002 4293912810
-0.094315998 -0.20534204 0.68400002 4293978603
-0.092880435 -0.20504063 0.68300003 4293847787
-0.091582805 -0.20503943 0.68300003 4294044909
-0.089756452 -0.20383744 0.67900002 4294044907
-0.088336162 -0.203536 0.67799997 4294308336
-0.086791337 -0.20293444 0.676 4294110189
-0.085507095 -0.20293328 0.676 4294175983
-0.084098309 -0.20263192 0.67500001 4294176496
-0.08281602 -0.20263074 0.67500001 4294308338
-0.08153376 -0.20262958 0.67500001 4294110701
-0.080251522 -0.20262842 0.67500001 4294176750
-0.078969315 -0.20262729 0.67500001 4294044907
-0.077687129 -0.20262614 0.67500001 4294242543
-0.076291785 -0.20232484 0.67400002 4294110705
-0.075011544 -0.20232369 0.67400002 4294110705
-0.073840722 -0.20262273 0.67500001 4294044909
-0.072451144 -0.20232145 0.67400002 4294308338
-0.070959799 -0.20172001 0.67199999 4294110955
-0.069683455 -0.20171888 0.67199999 4294110955
-0.068407141 -0.20171781 0.67199999 4294110703
-0.067330651 -0.20231707 0.67400002 4294242289
-0.066050582 -0.20231602 0.67400002 4294242289
-0.064770542 -0.20231496 0.67400002 4294308338
-0.06330213 -0.20171356 0.67199999 4294176750
-0.062025938 -0.20171253 0.67199999 4294374129
-0.060930572 -0.20231187 0.67400002 4294176496
-0.05973912 -0.20261097 0.67500001 4294374131
-0.058457296 -0.20260997 0.67500001 4294308336
-0.057175495 -0.20260899 0.67500001 4294308336
-0.055893719 -0.202608 0.67500001 4294308338
-0.054611962 -0.20260704 0.67500001 4294637047
-0.053251226 -0.20230593 0.67400002 4294374131
-0.051971409 -0.20230499 0.67400002 4294374131
-0.050691616 -0.20230407 0.67400002 4294308338
-0.049411841 -0.20230316 0.67400002 4294505460
-0.048132084 -0.20230223 0.67400002 4294176498
-0.046852361 -0.20230137 0.67400002 4294110705
-0.04564026 -0.20260063 0.67500001 4294175985
-0.044358663 -0.20259975 0.67500001 4294504693
-0.043140907 -0.20289908 0.676 4294242289
-0.041857462 -0.20289826 0.676 4294242289
-0.040574033 -0.20289746 0.676 4294242289
-0.039406858 -0.2034969 0.67799997 4294637047
-0.038119655 -0.20349611 0.67799997 4294242289
-0.036941137 -0.20409566 0.68000001 4294176496
-0.035650183 -0.20409493 0.68000001 4294308338
-0.034359246 -0.20409417 0.68000001 4294637047
-0.033068318 -0.20409346 0.68000001 4294176496
-0.031777408 -0.20409274 0.68000001 4294110703
-0.030576186 -0.20469233 0.68199998 4294176496
-0.029195642 -0.20409139 0.68000001 4294176496
-0.027904782 -0.20409071 0.68000001 4294110703
-0.026613938 -0.20409009 0.68000001 4294176496
-0.025397582 -0.20468974 0.68199998 4294176750
-0.024138309 -0.20498927 0.68300003 4294242543
-0.022841809 -0.2049887 0.68300003 4294176748
-0.021639958 -0.20588851 0.68599999 4294242541
-0.020337785 -0.20588797 0.68599999 4294044909
-0.019146621 -0.20708793 0.69 4294044909
-0.017836882 -0.20708743 0.69 4294110705
-0.016551105 -0.20738707 0.69099998 4294110705
-0.015283599 -0.20798682 0.69300002 4293847533
-0.013988353 -0.20828648 0.69400001 4293781740
-0.012671064 -0.20828605 0.69400001 4293715945
-0.0113865 -0.20888588 0.69599998 4293715945
-0.010123278 -0.21008593 0.69999999 4293715945
-0.0087946262 -0.21008556 0.69999999 4294044909
-0.0074659814 -0.2100852 0.69999999 4293846763
-0.0061373436 -0.21008486 0.69999999 4293583591
-0.0048155831 -0.21038464 0.70099998 4293387234
-0.0034950052 -0.21098457 0.70300001 4293387234
-0.0021606928 -0.21098427 0.70300001 4293255394
-0.11399163 -0.20674452 0.69300002 4293060595
-0.11267463 -0.20674331 0.69300002 4293189088
-0.11151833 -0.20704041 0.69400001 4293254881
-0.11051705 -0.20763585 0.69599998 4293386210
-0.10919442 -0.20763463 0.69599998 4293386210
-0.10787181 -0.20763339 0.69599998 4293254881
-0.10624304 -0.20703553 0.69400001 4293518052
-0.10401715 -0.20524439 0.68800002 4293518050
-0.10270983 -0.20524319 0.68800002 4293649636
-0.10125512 -0.2049436 0.68699998 4293518050
-0.09994974 -0.20494239 0.68699998 4293715686
-0.098500788 -0.20464283 0.68599999 4293649638
-0.097197346 -0.20464161 0.68599999 4293978603
-0.095614381 -0.20404379 0.68400002 4293715945
-0.094176896 -0.20374426 0.68300003 4293781738
-0.092743233 -0.2034447 0.68199998 4293912810
-0.091179334 -0.2028469 0.68000001 4293978603
-0.089623049 -0.20224907 0.67799997 4293912810
-0.088074408 -0.20165126 0.676 4294307312
-0.086790137 -0.2016501 0.676 4294044909
-0.085505918 -0.20164891 0.676 4294110703
-0.084097125 -0.20134944 0.67500001 4293978862
-0.082814842 -0.20134823 0.67500001 4294110705
-0.08153259 -0.20134707 0.67500001 4294110701
-0.080250368 -0.20134592 0.67500001 4294176750
-0.078968167 -0.20134477 0.67500001 4294044396
-0.077685989 -0.2013436 0.67500001 4294110189
-0.076290645 -0.20104416 0.67400002 4294044396
-0.075010419 -0.20104305 0.67400002 4294110189
-0.073839605 -0.20134017 0.67500001 4293979116
-0.072450019 -0.20104074 0.67400002 4294242289
-0.070958689 -0.20044309 0.67199999 4294044909
-0.06968236 -0.20044197 0.67199999 4294110703
-0.06840606 -0.2004409 0.67199999 4294044909
-0.067129783 -0.20043981 0.67199999 4294176496
-0.065853529 -0.20043875 0.67199999 4294045682
-0.064481199 -0.20013942 0.671 4294045682
-0.063206889 -0.20013836 0.671 4294044396
-0.061932608 -0.20013732 0.671 4294175983
-0.060658343 -0.20013629 0.671 4294044907
-0.059649609 -0.20103006 0.67400002 4294308336
-0.058456291 -0.20132729 0.67500001 4294308334
-0.057174504 -0.20132631 0.67500001 4294242541
-0.055892747 -0.20132533 0.67500001 4294242289
-0.054611001 -0.20132436 0.67500001 4294505460
-0.053329274 -0.20132336 0.67500001 4294308595
-0.051970478 -0.20102419 0.67400002 4294308595
-0.050690692 -0.20102325 0.67400002 4294110703
-0.049410939 -0.20102233 0.67400002 4294374131
-0.048131194 -0.20102142 0.67400002 4294176498
-0.046851471 -0.20102054 0.67400002 4294110705
-0.045639388 -0.20131792 0.67500001 4293847787
-0.04435781 -0.20131706 0.67500001 4294176496
-0.043140072 -0.20161444 0.676 4294110703
-0.041856632 -0.20161359 0.676 4294110703
-0.040573224 -0.2016128 0.676 4294110701
-0.039289825 -0.201612 0.676 4294308336
-0.03811888 -0.20220767 0.67799997 4294110701
-0.036886051 -0.20250517 0.67900002 4294242543
-0.03564943 -0.20280261 0.68000001 4294307312
-0.034358509 -0.20280188 0.68000001 4294307312
-0.033067606 -0.20280115 0.68000001 4294176496
-0.031776719 -0.20280047 0.68000001 4294176496
-0.030485842 -0.20279978 0.68000001 4294110703
-0.029194986 -0.20279911 0.68000001 4294176496
-0.027904138 -0.20279844 0.68000001 4293979116
-0.026691588 -0.20339428 0.68199998 4294110703
-0.025396969 -0.20339364 0.68199998 4294044907
-0.024137717 -0.20369127 0.68300003 4294044907
-0.022841234 -0.20369072 0.68300003 4293979114
-0.021576306 -0.20398831 0.68400002 4294044907
-0.020337243 -0.20458424 0.68599999 4294110703
-0.019062852 -0.20488194 0.68699998 4294110703
-0.017758826 -0.20488141 0.68699998 4294044396
-0.016550617 -0.20607384 0.69099998 4294044396
-0.015283129 -0.20666979 0.69300002 4293847787
-0.013987898 -0.20696756 0.69400001 4293715945
-0.012670627 -0.2069671 0.69400001 4293781738
-0.011386083 -0.20756315 0.69599998 4293781738
-0.010093957 -0.20815919 0.69800001 4293518052
-0.0087942462 -0.20875521 0.69999999 4293846761
-0.007465621 -0.20875485 0.69999999 4293715945
-0.0061457702 -0.20905273 0.70099998 4293650152
-0.0048290007 -0.20964883 0.70300001 4293321187
-0.0034947027 -0.20964852 0.70300001 4293518565
-0.0021604106 -0.20964825 0.70300001 4293321700
-0.11597303 -0.20661518 0.69700003 4293779943
-0.11399043 -0.2054282 0.69300002 4293648357
-0.11267342 -0.20542698 0.69300002 4293254362
-0.11151712 -0.20572217 0.69400001 4293451742
-0.11019824 -0.2057209 0.69400001 4293386462
-0.10872252 -0.20542327 0.69300002 4293518304
-0.10709562 -0.20482914 0.69099998 4293452259
-0.10578254 -0.20482793 0.69099998 4293518052
-0.10401592 -0.20393743 0.68800002 4293452259
-0.1025593 -0.20363976 0.68699998 4293715432
-0.10125388 -0.20363846 0.68699998 4293583845
-0.099803001 -0.20334086 0.68599999 4293649638
-0.098499544 -0.20333961 0.68599999 4293649638
-0.096912764 -0.20274556 0.68400002 4293912810
-0.095333561 -0.20215146 0.68199998 4293847015
-0.094037786 -0.20215026 0.68199998 4293715686
-0.092470057 -0.20155622 0.68000001 4293912810
-0.091178112 -0.20155501 0.68000001 4294110189
-0.089357473 -0.20036814 0.676 4293979116
-0.088073201 -0.20036694 0.676 4294242289
-0.086788937 -0.20036572 0.676 4294307564
-0.085378237 -0.20006815 0.67500001 4294439150
-0.084095933 -0.20006695 0.67500001 4294044655
-0.082813665 -0.20006579 0.67500001 4293847533
-0.08153142 -0.2000646 0.67500001 4293979116
-0.08024919 -0.20006339 0.67500001 4294110703
-0.078966998 -0.20006223 0.67500001 4294044396
-0.077684827 -0.20006105 0.67500001 4294307312
-0.076289497 -0.19976354 0.67400002 4294110701
-0.075009279 -0.19976236 0.67400002 4294242543
-0.07383848 -0.20005763 0.67500001 4294110701
-0.072448909 -0.19976008 0.67400002 4294308336
-0.070957586 -0.19916621 0.67199999 4294242289
-0.069681264 -0.19916511 0.67199999 4294242289
-0.068404973 -0.19916399 0.67199999 4294176750
-0.067128696 -0.1991629 0.67199999 4294242543
-0.065852456 -0.19916181 0.67199999 4294176244
-0.064480141 -0.19886437 0.671 4294110451
-0.063205838 -0.19886331 0.671 4294044142
-0.061931569 -0.19886225 0.671 4294175985
-0.060657322 -0.19886121 0.671 4294110703
-0.059471589 -0.19915655 0.67199999 4294308338
-0.058195479 -0.19915555 0.67199999 4294373611
-0.056919407 -0.19915456 0.67199999 4294307818
-0.05580895 -0.19974628 0.67400002 4294176496
-0.054529127 -0.19974531 0.67400002 4294374131
-0.053249314 -0.19974433 0.67400002 4294374131
-0.051969524 -0.19974336 0.67400002 4294308338
-0.050689764 -0.19974242 0.67400002 4294176496
-0.049410019 -0.19974154 0.67400002 4294571254
-0.048130296 -0.19974059 0.67400002 4294373361
-0.046850588 -0.19973971 0.67400002 4294175983
-0.045638517 -0.20003515 0.67500001 4293979116
-0.044356957 -0.20003429 0.67500001 4294505460
-0.043075416 -0.20003344 0.67500001 4294242289
-0.041855808 -0.20032893 0.676 4294242289
-0.040572409 -0.20032813 0.676 4294176496
-0.039289027 -0.20032732 0.676 4294308338
-0.038118102 -0.2009192 0.67799997 4294176750
-0.03688528 -0.20121476 0.67900002 4294308336
-0.035596259 -0.20121402 0.67900002 4294307312
-0.034357779 -0.20150961 0.68000001 4294175983
-0.033066887 -0.20150888 0.68000001 4294110703
-0.031776011 -0.20150815 0.68000001 4294110703
-0.030485159 -0.20150748 0.68000001 4294176496
-0.029194316 -0.20150679 0.68000001 4294242289
-0.027903492 -0.20150612 0.68000001 4294044909
-0.02661268 -0.20150548 0.68000001 4294044909
-0.02532188 -0.20150483 0.68000001 4294044907
-0.024101777 -0.20209694 0.68199998 4294044907
-0.022807211 -0.20209633 0.68199998 4293979114
-0.021512661 -0.20209578 0.68199998 4293979114
-0.020247767 -0.20239155 0.68300003 4293979116
-0.019062327 -0.20357631 0.68699998 4293979116
-0.017758315 -0.20357576 0.68699998 4293979116
-0.016550127 -0.2047606 0.69099998 4293847787
-0.015282654 -0.20535277 0.69300002 4293847787
-0.01396729 -0.20535232 0.69300002 4293715945
-0.012670192 -0.20564818 0.69400001 4293912810
-0.011385667 -0.20624042 0.69599998 4293978603
-0.0100791 -0.20653632 0.69700003 4293583591
-0.008768742 -0.20683226 0.69800001 4293649641
-0.0074652629 -0.20742454 0.69999999 4293715686
-0.0061366642 -0.20742422 0.69999999 4293715686
-0.0048149424 -0.20772018 0.70099998 4293583845
-0.0034844603 -0.20771986 0.70099998 4293518052
-0.0021539836 -0.20771955 0.70099998 4293321441
-0.00082586281 -0.20831195 0.70300001 4293255648
-0.11580539 -0.20499668 0.69599998 4293516515
-0.11415367 -0.2044064 0.69400001 4293516515
-0.11283476 -0.20440513 0.69400001 4292925659
-0.11151585 -0.20440385 0.69400001 4293057501
-0.11003821 -0.2041081 0.69300002 4293056986
-0.10872126 -0.20410682 0.69300002 4293648866
-0.10709436 -0.20351648 0.69099998 4293518052
-0.10578129 -0.20351525 0.69099998 4293518052
-0.10401468 -0.20263046 0.68800002 4293452257
-0.10255804 -0.20233463 0.68699998 4293649636
-0.10125262 -0.20233336 0.68699998 4293649636
-0.099801779 -0.20203762 0.68599999 4293715686
-0.098498292 -0.20203634 0.68599999 4293715686
-0.09691152 -0.20144612 0.68400002 4293715686
-0.095332325 -0.20085579 0.68199998 4293452257
-0.094036557 -0.20085455 0.68199998 4293847015
-0.092332847 -0.19996981 0.67900002 4293846761
-0.090908736 -0.19967408 0.67799997 4293846761
-0.089356259 -0.19908383 0.676 4293715432
-0.08807198 -0.1990826 0.676 4294110189
-0.08678773 -0.19908138 0.676 4294044907
-0.085377038 -0.19878566 0.67500001 4294242543
-0.084094726 -0.19878446 0.67500001 4293913839
-0.082812481 -0.19878328 0.67500001 4293782253
-0.081530236 -0.19878207 0.67500001 4293781992
-0.080248013 -0.19878086 0.67500001 4293979114
-0.078965828 -0.19877969 0.67500001 4293978603
-0.077568576 -0.19848405 0.67400002 4294044396
-0.076288335 -0.19848286 0.67400002 4293979114
-0.075008124 -0.19848169 0.67400002 4294110701
-0.073727943 -0.19848055 0.67400002 4293847785
-0.072447777 -0.19847943 0.67400002 4294110701
-0.070956461 -0.19788933 0.67199999 4294242289
-0.069680147 -0.1978882 0.67199999 4294308338
-0.06840387 -0.19788706 0.67199999 4294176496
-0.0671276 -0.19788598 0.67199999 4294110703
-0.065753378 -0.1975904 0.671 4294110191
-0.064479068 -0.19758932 0.671 4294175985
-0.063204788 -0.19758828 0.671 4294044907
-0.061930519 -0.19758718 0.671 4294110701
-0.060656283 -0.19758616 0.671 4294176496
-0.059382055 -0.19758511 0.671 4294308338
-0.058107868 -0.19758408 0.671 4294044907
-0.056833703 -0.19758308 0.671 4294110701
-0.055559561 -0.19758208 0.671 4294175983
-0.054285433 -0.1975811 0.671 4294439154
-0.053011343 -0.19758011 0.671 4294374129
-0.051737268 -0.19757918 0.671 4294308336
-0.050463211 -0.19757822 0.671 4294176750
-0.049189173 -0.19757733 0.671 4294308336
-0.047915161 -0.1975764 0.671 4294439154
-0.046710666 -0.19786993 0.67199999 4294307312
-0.045637637 -0.19875242 0.67500001 4293847787
-0.044356093 -0.19875152 0.67500001 4294374131
-0.043074571 -0.19875069 0.67500001 4294242802
-0.041854978 -0.19904429 0.676 4294242802
-0.040571589 -0.19904344 0.676 4294242543
-0.039288223 -0.1990426 0.676 4294242543
-0.038117312 -0.19963072 0.67799997 4294044907
-0.036884513 -0.19992441 0.67900002 4294110701
-0.035595506 -0.19992363 0.67900002 4294110703
-0.034306511 -0.19992286 0.67900002 4294044909
-0.033066168 -0.20021659 0.68000001 4293781738
-0.031728584 -0.19992143 0.67900002 4294110703
-0.030439641 -0.19992074 0.67900002 4294110701
-0.029193649 -0.20021448 0.68000001 4294110701
-0.027902843 -0.20021382 0.68000001 4294044909
-0.026612047 -0.20021318 0.68000001 4294044909
-0.025321269 -0.20021255 0.68000001 4293979114
-0.024030507 -0.20021197 0.68000001 4294044907
-0.022739751 -0.20021135 0.68000001 4294044907
-0.021512102 -0.20079966 0.68199998 4293979114
-0.020217579 -0.20079911 0.68199998 4293979114
-0.018978564 -0.20138742 0.68400002 4294044907
-0.017757811 -0.20227018 0.68699998 4293979114
-0.016477784 -0.20256409 0.68800002 4293979114
-0.015238078 -0.20344689 0.69099998 4293848044
-0.013966837 -0.20403528 0.69300002 4293782251
-0.012651502 -0.20403485 0.69300002 4293649638
-0.011352535 -0.20432884 0.69400001 4293846761
-0.010064241 -0.20491727 0.69599998 4293715432
-0.0087558031 -0.20521133 0.69700003 4293715432
-0.0074435757 -0.2055054 0.69800001 4293715686
-0.0061363252 -0.20609385 0.69999999 4293715686
-0.0048146225 -0.20638791 0.70099998 4293584358
-0.0034841613 -0.20638764 0.70099998 4293518565
-0.0021537046 -0.20638736 0.70099998 4293255394
-0.0008256032 -0.20697592 0.70300001 4293255394
0.00050936162 -0.20727009 0.704 4293123808
-0.1172952 -0.20396852 0.69700003 4293647359
-0.11580414 -0.20367463 0.69599998 4293188567
-0.11415242 -0.20308809 0.69400001 4293386203
-0.11283351 -0.20308685 0.69400001 4293254881
-0.1115146 -0.20308557 0.69400001 4293386210
-0.11003695 -0.20279163 0.69300002 4293254881
-0.10872 -0.20279038 0.69300002 4293846761
-0.1070931 -0.20220385 0.69099998 4293716199
-0.10578002 -0.20220256 0.69099998 4293781992
-0.10401341 -0.20132345 0.68800002 4293583843
-0.10255678 -0.20102952 0.68699998 4293583843
-0.10110398 -0.20073564 0.68599999 4293583843
-0.099800497 -0.20073433 0.68599999 4293847015
-0.0980663 -0.19985528 0.68300003 4293716197
-0.096626878 -0.19956139 0.68199998 4293716197
-0.095331088 -0.19956011 0.68199998 4293715432
-0.093759537 -0.19897364 0.68000001 4294110189
-0.092331603 -0.1986798 0.67900002 4293846761
-0.090907484 -0.19838592 0.67799997 4293715432
-0.089355022 -0.19779946 0.676 4293715434
-0.08807075 -0.19779825 0.676 4294175985
-0.086786509 -0.197797 0.676 4294044907
-0.085375808 -0.19750318 0.67500001 4294308336
-0.084093526 -0.19750197 0.67500001 4294176496
-0.082811266 -0.19750077 0.67500001 4294044909
-0.081529029 -0.19749953 0.67500001 4293847785
-0.080246814 -0.19749835 0.67500001 4294176750
-0.078847654 -0.19720456 0.67400002 4294175985
-0.077567399 -0.19720337 0.67400002 4294373107
-0.076060794 -0.19661701 0.67199999 4294307564
-0.074784391 -0.19661586 0.67199999 4294439150
-0.073726788 -0.19719985 0.67400002 4294044907
-0.072446622 -0.19719869 0.67400002 4294044907
-0.070955321 -0.1966124 0.67199999 4294176750
-0.069679029 -0.19661129 0.67199999 4294176750
-0.06840276 -0.19661015 0.67199999 4294044907
-0.067126505 -0.19660904 0.67199999 4293979114
-0.065752283 -0.19631536 0.671 4294044909
-0.064477995 -0.19631429 0.671 4294308338
-0.063203715 -0.19631319 0.671 4294110441
-0.061929461 -0.19631213 0.671 4294176235
-0.060655244 -0.1963111 0.671 4294307312
-0.059381019 -0.19631003 0.671 4294439154
-0.058106855 -0.19630903 0.671 4294176750
-0.056832697 -0.196308 0.671 4294242543
-0.055558566 -0.19630697 0.671 4294176496
-0.054284461 -0.19630601 0.671 4294308338
-0.053010378 -0.19630502 0.671 4294308336
-0.05173631 -0.19630407 0.671 4294308336
-0.050462268 -0.19630311 0.671 4294045161
-0.049188249 -0.19630219 0.671 4294110955
-0.047914252 -0.19630127 0.671 4294176496
-0.046709783 -0.1965929 0.67199999 4294242289
-0.045433927 -0.19659203 0.67199999 4294044655
-0.044355221 -0.19746877 0.67500001 4294373877
-0.043073721 -0.19746794 0.67500001 4294308338
-0.041854143 -0.19775963 0.676 4294242289
-0.040570769 -0.19775881 0.676 4294176748
-0.039287422 -0.19775797 0.676 4294242541
-0.038004085 -0.19775715 0.676 4294044909
-0.036829412 -0.19834146 0.67799997 4294110703
-0.035542324 -0.19834068 0.67799997 4294110705
-0.034255248 -0.19833994 0.67799997 4293978862
-0.033016823 -0.19863178 0.67900002 4293847787
-0.031727877 -0.19863103 0.67900002 4293979116
-0.030438952 -0.19863032 0.67900002 4293979114
-0.029150046 -0.19862968 0.67900002 4293979114
-0.027861157 -0.19862901 0.67900002 4293847787
-0.02657228 -0.19862837 0.67900002 4293847787
-0.025320651 -0.19892024 0.68000001 4293912808
-0.024029909 -0.19891967 0.68000001 4294110187
-0.022739174 -0.19891906 0.68000001 4293979112
-0.021448456 -0.19891849 0.68000001 4293847783
-0.020217035 -0.19950299 0.68199998 4294044394
-0.018950291 -0.19979501 0.68300003 4294373359
-0.0177573 -0.20096454 0.68699998 4293978853
-0.016453343 -0.20096403 0.68699998 4293978853
-0.015215553 -0.20184116 0.69 4294044909
-0.013926076 -0.20213322 0.69099998 4293979116
-0.012614557 -0.20213276 0.69099998 4293715432
-0.011335762 -0.20271739 0.69300002 4293715432
-0.010034926 -0.20300952 0.69400001 4293715432
-0.0087554259 -0.2038867 0.69700003 4293715432
-0.007443218 -0.20417887 0.69800001 4293715432
-0.0061359862 -0.20476353 0.69999999 4293715432
-0.0048143039 -0.20505571 0.70099998 4293649636
-0.0034838626 -0.2050554 0.70099998 4293518050
-0.0021534269 -0.2050551 0.70099998 4293255394
-0.00082534499 -0.20563991 0.70300001 4293321187
0.00050959981 -0.20593219 0.704 4293255648
0.0018509573 -0.20651695 0.70599997 4293255648
-0.11729393 -0.20264459 0.69700003 4292926442
-0.11580286 -0.20235255 0.69599998 4292662741
-0.11448012 -0.20235127 0.69599998 4293189085
-0.11315738 -0.20234998 0.69599998 4293123294
-0.11151332 -0.20176724 0.69400001 4293254881
-0.11019443 -0.20176592 0.69400001 4293386210
-0.1088756 -0.20176464 0.69400001 4293649638
-0.10740177 -0.20147263 0.69300002 4293255394
-0.10577873 -0.20088987 0.69099998 4293387236
-0.10431448 -0.20059784 0.69 4293452257
-0.1025555 -0.19972439 0.68699998 4293518050
-0.10110269 -0.19943237 0.68599999 4293255135
-0.099508256 -0.19884968 0.68400002 4293847015
-0.098065026 -0.1985577 0.68300003 4293716199
-0.096625604 -0.1982657 0.68199998 4293650150
-0.095050246 -0.19768299 0.68000001 4293519334
-0.093620397 -0.19739102 0.67900002 4293914091
-0.092194349 -0.19709903 0.67799997 4293847787
-0.09090624 -0.19709778 0.67799997 4293781738
-0.089353785 -0.19651511 0.676 4293846763
-0.088069521 -0.19651389 0.676 4294110191
-0.086785264 -0.19651262 0.676 4293979114
-0.085374594 -0.19622068 0.67500001 4294242543
-0.084092312 -0.19621947 0.67500001 4294110703
-0.082810052 -0.19621825 0.67500001 4294044909
-0.081527814 -0.196217 0.67500001 4293716199
-0.080126725 -0.19592512 0.67400002 4294110701
-0.078846455 -0.19592391 0.67400002 4294044655
-0.077566206 -0.19592272 0.67400002 4294110705
-0.076059617 -0.19534016 0.67199999 4294044907
-0.074783221 -0.19533895 0.67199999 4294110701
-0.073725641 -0.19591919 0.67400002 4294110955
-0.072123013 -0.19504595 0.671 4294110955
-0.070848614 -0.19504482 0.671 4294044909
-0.069574207 -0.1950437 0.671 4294176496
-0.068401635 -0.19533323 0.67199999 4293979116
-0.067125395 -0.19533211 0.67199999 4294044909
-0.065751188 -0.19504032 0.671 4294044909
-0.0644769 -0.19503921 0.671 4294176496
-0.063202642 -0.19503815 0.671 4294110441
-0.06192841 -0.1950371 0.671 4294176235
-0.060654189 -0.19503599 0.671 4294110701
-0.059379991 -0.19503495 0.671 4294242543
-0.058105834 -0.19503394 0.671 4294176750
-0.056831688 -0.19503292 0.671 4294110701
-0.055474769 -0.19474125 0.67000002 4294044909
-0.054202575 -0.19474027 0.67000002 4294176496
-0.053009402 -0.19502994 0.671 4294110701
-0.051735353 -0.19502893 0.671 4294242543
-0.050461326 -0.19502798 0.671 4294110701
-0.049187329 -0.19502708 0.671 4294176750
-0.047913335 -0.19502611 0.671 4294242289
-0.046708886 -0.1953159 0.67199999 4294176496
-0.045433037 -0.19531499 0.67199999 4294110701
-0.044288643 -0.19589539 0.67400002 4294176750
-0.04300905 -0.19589452 0.67400002 4294110701
-0.041729473 -0.19589369 0.67400002 4294176750
-0.040509928 -0.19618347 0.67500001 4294110955
-0.039228495 -0.19618267 0.67500001 4294176748
-0.038003296 -0.1964725 0.676 4294044907
-0.036828637 -0.19705299 0.67799997 4294110701
-0.035541564 -0.19705221 0.67799997 4294110703
-0.034254503 -0.19705145 0.67799997 4293979116
-0.033016097 -0.19734138 0.67900002 4294044909
-0.031727172 -0.19734065 0.67900002 4293979116
-0.030438265 -0.19733995 0.67900002 4293716199
-0.029149374 -0.19733928 0.67900002 4293781992
-0.027860506 -0.19733861 0.67900002 4293847015
-0.026571644 -0.19733797 0.67900002 4293912808
-0.025282795 -0.19733731 0.67900002 4293716199
-0.024029305 -0.19762734 0.68000001 4293979114
-0.022738593 -0.19762675 0.68000001 4293848296
-0.021447893 -0.19762619 0.68000001 4293782503
-0.020216491 -0.19820687 0.68199998 4293715686
-0.018949766 -0.19849698 0.68300003 4294110187
-0.017730946 -0.1993683 0.68599999 4293715684
-0.016452854 -0.19965845 0.68699998 4293912806
-0.015170979 -0.19994862 0.68800002 4293979116
-0.01390547 -0.20052938 0.69 4293979116
-0.012614124 -0.20081957 0.69099998 4293715945
-0.011335348 -0.20140038 0.69300002 4293715945
-0.010034532 -0.20169058 0.69400001 4293715686
-0.0087424871 -0.20227143 0.69599998 4293715686
-0.0074321977 -0.20256171 0.69700003 4293518052
-0.0061181202 -0.20285201 0.69800001 4293649638
-0.0048139873 -0.20372351 0.70099998 4293715686
-0.0034835655 -0.20372319 0.70099998 4293649636
-0.0021531505 -0.20372289 0.70099998 4293255394
-0.00082508824 -0.20430388 0.70300001 4293255394
0.0005098363 -0.20459425 0.704 4293255394
0.0018511738 -0.20517525 0.70599997 4293189601
-0.11729264 -0.20132059 0.69700003 4293254112
-0.11580158 -0.20103048 0.69599998 4292991704
-0.11447881 -0.20102915 0.69599998 4293452255
-0.11315608 -0.20102786 0.69599998 4293255135
-0.11151201 -0.20044887 0.69400001 4293123292
-0.11019315 -0.20044759 0.69400001 4293254881
-0.10887429 -0.20044628 0.69400001 4293846761
-0.10740048 -0.20015615 0.69300002 4293583843
-0.10577743 -0.19957717 0.69099998 4293649636
-0.10401083 -0.19870937 0.68800002 4293715684
-0.10240493 -0.19813043 0.68599999 4294044648
-0.10080667 -0.19755152 0.68400002 4293649636
-0.099361509 -0.19726142 0.68300003 4293847015
-0.097920157 -0.1969713 0.68199998 4293716197
-0.096340977 -0.19639237 0.68000001 4293584610
-0.095048979 -0.19639112 0.68000001 4293715432
-0.093481243 -0.19581217 0.67799997 4294175983
-0.091921136 -0.19523327 0.676 4293978601
-0.090636812 -0.195232 0.676 4294044394
-0.089352526 -0.19523074 0.676 4293979114
-0.088068262 -0.1952295 0.676 4294110701
-0.086655647 -0.19493946 0.67500001 4293979116
-0.085373357 -0.19493821 0.67500001 4294176496
-0.084091075 -0.19493695 0.67500001 4294044907
-0.082808822 -0.19493572 0.67500001 4293847785
-0.081405818 -0.1946457 0.67400002 4293979116
-0.080125526 -0.19464448 0.67400002 4294176496
-0.078845255 -0.19464326 0.67400002 4294110189
-0.077219762 -0.19377568 0.671 4294044396
-0.075945251 -0.19377448 0.671 4293979114
-0.074782051 -0.19406213 0.67199999 4294044907
-0.073724449 -0.19463848 0.67400002 4293979112
-0.072121859 -0.19377096 0.671 4294110955
-0.070847444 -0.19376978 0.671 4294175985
-0.069573067 -0.19376867 0.671 4294373107
-0.068400502 -0.19405629 0.67199999 4294110703
-0.067124277 -0.19405517 0.67199999 4294242289
-0.065750085 -0.19376527 0.671 4294110701
-0.064475805 -0.19376417 0.671 4294242543
-0.063201554 -0.19376309 0.671 4294044907
-0.06192733 -0.193762 0.671 4294242543
-0.060653124 -0.19376093 0.671 4294176750
-0.059378941 -0.19375989 0.671 4294176750
-0.058104791 -0.19375885 0.671 4294176750
-0.056830663 -0.1937578 0.671 4294176750
-0.055473767 -0.19346805 0.67000002 4294176750
-0.054201584 -0.19346704 0.67000002 4294374129
-0.052929431 -0.19346607 0.67000002 4294242543
-0.051734388 -0.19375382 0.671 4294308336
-0.050460383 -0.19375288 0.671 4294175983
-0.049186386 -0.19375195 0.671 4294175983
-0.047912423 -0.19375101 0.671 4294176750
-0.046707973 -0.19403885 0.67199999 4294308336
-0.04543215 -0.19403793 0.67199999 4294176748
-0.044156354 -0.19403706 0.67199999 4294110955
-0.042880565 -0.19403617 0.67199999 4294110701
-0.041728627 -0.19461282 0.67400002 4294308336
-0.040449087 -0.19461198 0.67400002 4294110955
-0.039169569 -0.19461118 0.67400002 4294110955
-0.037946284 -0.19489911 0.67500001 4294045159
-0.036664899 -0.19489828 0.67500001 4294045159
-0.03543596 -0.19518627 0.676 4294044907
-0.034152716 -0.19518551 0.676 4293847785
-0.033015363 -0.19605099 0.67900002 4293979114
-0.031726461 -0.19605029 0.67900002 4294044907
-0.030437572 -0.19604957 0.67900002 4293781738
-0.029105773 -0.19576016 0.67799997 4293781738
-0.027818814 -0.19575948 0.67799997 4293978601
-0.026531871 -0.19575883 0.67799997 4294176237
-0.02528218 -0.19604695 0.67900002 4293847785
-0.023993369 -0.19604634 0.67900002 4293847785
-0.022738013 -0.19633447 0.68000001 4293848296
-0.021447329 -0.19633389 0.68000001 4293848296
-0.020215943 -0.19691078 0.68199998 4293847785
-0.018949237 -0.19719897 0.68300003 4294242543
-0.017730437 -0.19806463 0.68599999 4293912810
-0.016428417 -0.19806412 0.68599999 4293846761
-0.01517051 -0.19864114 0.68800002 4293847783
-0.013864712 -0.19864064 0.68800002 4293979112
-0.01261369 -0.19950634 0.69099998 4293716199
-0.011334933 -0.20008336 0.69300002 4293650150
-0.010034136 -0.20037168 0.69400001 4293650150
-0.0087421117 -0.20094873 0.69599998 4293650150
-0.0074318424 -0.20123711 0.69700003 4293518052
-0.0061177835 -0.20152549 0.69800001 4293518052
-0.0048136706 -0.2023913 0.70099998 4293583843
-0.0034832698 -0.20239098 0.70099998 4293583843
-0.0021528755 -0.20239072 0.70099998 4293254881
-0.000824833 -0.20296787 0.70300001 4293254881
0.00051007111 -0.20325632 0.704 4293189599
0.0018513885 -0.20383354 0.70599997 4293189599
0.0032002933 -0.20441079 0.708 4292794845
-0.11729135 -0.19999664 0.69700003 4293187806
-0.11596665 -0.19999532 0.69700003 4292597461
-0.11447749 -0.19970705 0.69599998 4293189599
-0.11282961 -0.19913186 0.69400001 4293255135
-0.11151071 -0.19913055 0.69400001 4293255135
-0.11003305 -0.19884229 0.69300002 4293189088
-0.10871608 -0.19884096 0.69300002 4293583845
-0.10708921 -0.19826576 0.69099998 4293583843
-0.10562302 -0.1979775 0.69 4293649636
-0.10370716 -0.1968285 0.68599999 4293649636
-0.10210507 -0.19625333 0.68400002 4293847015
-0.10065798 -0.19596511 0.68300003 4293518304
-0.099214718 -0.19567688 0.68199998 4293715684
-0.097918861 -0.19567558 0.68199998 4293847013
-0.096339688 -0.19510049 0.68000001 4293715684
-0.09490791 -0.19481225 0.67900002 4293715686
-0.093479969 -0.19452403 0.67799997 4293847015
-0.091919869 -0.19394898 0.676 4293518050
-0.090635546 -0.19394769 0.676 4293847015
-0.089351259 -0.19394638 0.676 4293912808
-0.088066995 -0.19394511 0.676 4293978601
-0.086654402 -0.19365695 0.67500001 4293715432
-0.085372098 -0.19365568 0.67500001 4294044396
-0.084089831 -0.19365445 0.67500001 4293847785
-0.082684904 -0.19336632 0.67400002 4293979114
-0.081404589 -0.19336507 0.67400002 4294044909
-0.080124289 -0.1933638 0.67400002 4294110703
-0.078610078 -0.19278881 0.67199999 4294044909
-0.07721857 -0.19250073 0.671 4293847787
-0.075944059 -0.19249952 0.671 4294044396
-0.074780859 -0.1927852 0.67199999 4294175983
-0.073723264 -0.19335778 0.67400002 4294110441
-0.072443143 -0.19335659 0.67400002 4294044648
-0.070951886 -0.19278169 0.67199999 4293912810
-0.069675609 -0.19278054 0.67199999 4294044396
-0.06839937 -0.19277938 0.67199999 4293912810
-0.06702327 -0.19249137 0.671 4294110189
-0.065748967 -0.19249025 0.671 4293847785
-0.064378627 -0.19220227 0.67000002 4294044907
-0.063106284 -0.19220117 0.67000002 4293716199
-0.061833967 -0.19220011 0.67000002 4294176750
-0.06065207 -0.19248587 0.671 4294177009
-0.05937789 -0.19248481 0.671 4293979887
-0.058103755 -0.19248377 0.671 4293781738
-0.056829639 -0.19248271 0.671 4294044909
-0.055555552 -0.19248171 0.671 4294044907
-0.054200586 -0.19219384 0.67000002 4294110701
-0.052928451 -0.19219287 0.67000002 4294044907
-0.051733423 -0.19247872 0.671 4294110701
-0.050459426 -0.19247775 0.671 4294110701
-0.049185447 -0.19247679 0.671 4294110701
-0.047911491 -0.19247584 0.671 4294110703
-0.046637561 -0.19247496 0.671 4294110703
-0.045431264 -0.19276091 0.67199999 4294110955
-0.044155471 -0.19276002 0.67199999 4294045161
-0.042879708 -0.19275917 0.67199999 4293847015
-0.041727781 -0.19333197 0.67400002 4294044394
-0.04044826 -0.19333115 0.67400002 4294110955
-0.039168753 -0.1933303 0.67400002 4294110955
-0.037889268 -0.19332951 0.67400002 4293848037
-0.03660981 -0.19332871 0.67400002 4293848037
-0.035382777 -0.19361478 0.67500001 4293847785
-0.034151971 -0.19390085 0.676 4293847785
-0.032868765 -0.19390011 0.676 4293583845
-0.031679016 -0.19447304 0.67799997 4293715432
-0.030392051 -0.19447236 0.67799997 4293715686
-0.029105093 -0.19447167 0.67799997 4293912808
-0.027818158 -0.194471 0.67799997 4293650404
-0.026531234 -0.19447036 0.67799997 4293716197
-0.025244325 -0.19446971 0.67799997 4293650150
-0.023957433 -0.19446912 0.67799997 4293650150
-0.02270399 -0.19475533 0.67900002 4293781990
-0.021446768 -0.19504163 0.68000001 4293716197
-0.0202154 -0.19561468 0.68199998 4293716199
-0.018948711 -0.19590102 0.68300003 4293716199
-0.017678237 -0.19618729 0.68400002 4293846761
-0.016427927 -0.19676043 0.68599999 4293715432
-0.015170037 -0.1973336 0.68800002 4293650150
-0.01386426 -0.19733317 0.68800002 4293781992
-0.012613256 -0.19819316 0.69099998 4293716197
-0.011334519 -0.19876637 0.69300002 4293650404
-0.010033742 -0.19905277 0.69400001 4293715684
-0.0087417373 -0.19962604 0.69599998 4293715684
-0.0074208248 -0.19962567 0.69599998 4293518052
-0.0061174487 -0.20019899 0.69800001 4293452259
-0.0048064888 -0.2007723 0.69999999 4293255135
-0.0034780069 -0.20077199 0.69999999 4293518050
-0.0021495305 -0.20077167 0.69999999 4293254881
-0.00082223339 -0.20105828 0.70099998 4293254881
0.00051030429 -0.20191848 0.704 4293386210
0.0018516015 -0.20249188 0.70599997 4293254881
0.0032004858 -0.20306534 0.708 4293058014
0.0045441217 -0.20306511 0.708 4293123808
-0.11878491 -0.19895898 0.69800001 4293123292
-0.11729001 -0.19867264 0.69700003 4292991706
-0.11579894 -0.19838624 0.69599998 4293057499
-0.11447617 -0.19838491 0.69599998 4293255135
-0.11282828 -0.19781354 0.69400001 4293255135
-0.11150936 -0.19781215 0.69400001 4293649636
-0.11003171 -0.19752581 0.69300002 4293451746
-0.10871475 -0.19752446 0.69300002 4293517539
-0.10708787 -0.19695306 0.69099998 4293518052
-0.1056217 -0.19666669 0.69 4293583845
-0.10370584 -0.19552527 0.68599999 4293583843
-0.10210375 -0.1949539 0.68400002 4293649636
-0.10065667 -0.19466756 0.68300003 4293518304
-0.099213399 -0.19438119 0.68199998 4293649890
-0.097917549 -0.1943799 0.68199998 4293715684
-0.096338362 -0.19380853 0.68000001 4293715684
-0.094906606 -0.19352224 0.67900002 4293715686
-0.093478657 -0.1932359 0.67799997 4293715686
-0.091918558 -0.19266459 0.676 4293715686
-0.090500183 -0.1923783 0.67500001 4294044394
-0.089217804 -0.19237702 0.67500001 4293978601
-0.087935455 -0.19237575 0.67500001 4294110187
-0.086653136 -0.19237448 0.67500001 4293978603
-0.085244358 -0.19208817 0.67400002 4294373361
-0.083964005 -0.19208695 0.67400002 4294242795
-0.082683645 -0.19208564 0.67400002 4294242795
-0.081161797 -0.19151445 0.67199999 4294044907
-0.079885304 -0.19151321 0.67199999 4294110701
-0.078608856 -0.19151194 0.67199999 4294044909
-0.077217363 -0.19122578 0.671 4293781738
-0.075942859 -0.19122456 0.671 4294044396
-0.074779667 -0.19150832 0.67199999 4294570740
-0.073503315 -0.19150716 0.67199999 4294176748
-0.072227001 -0.19150595 0.67199999 4294110955
-0.070950709 -0.19150476 0.67199999 4294044396
-0.069674447 -0.19150357 0.67199999 4294175983
-0.068398215 -0.19150244 0.67199999 4293978603
-0.066922255 -0.19093139 0.67000002 4294175983
-0.065649867 -0.19093023 0.67000002 4294044907
-0.064377524 -0.19092913 0.67000002 4294176750
-0.063105188 -0.190928 0.67000002 4293979116
-0.061832882 -0.19092692 0.67000002 4294176496
-0.06056061 -0.19092588 0.67000002 4294045680
-0.059376836 -0.19120975 0.671 4294177009
-0.058016125 -0.19092372 0.67000002 4293847533
-0.056743916 -0.19092269 0.67000002 4294044655
-0.055471733 -0.19092165 0.67000002 4294110189
-0.05419958 -0.19092065 0.67000002 4294175983
-0.052927457 -0.19091965 0.67000002 4293979116
-0.051655356 -0.1909187 0.67000002 4293979116
-0.050383266 -0.1909177 0.67000002 4294044909
-0.049184497 -0.19120169 0.671 4294110703
-0.047910571 -0.19120078 0.671 4294110705
-0.046636645 -0.19119982 0.671 4294044655
-0.045430362 -0.19148389 0.67199999 4294044394
-0.044154592 -0.19148299 0.67199999 4294044394
-0.04287884 -0.19148213 0.67199999 4293847787
-0.041603111 -0.19148126 0.67199999 4293781738
-0.040327407 -0.19148043 0.67199999 4293979112
-0.039051712 -0.19147958 0.67199999 4294110955
-0.037776038 -0.19147876 0.67199999 4293847265
-0.036500391 -0.191478 0.67199999 4293847265
-0.035329595 -0.1920471 0.67400002 4293978601
-0.0341007 -0.19233125 0.67500001 4294044394
-0.032819413 -0.19233057 0.67500001 4293715432
-0.031584863 -0.19261475 0.676 4293715432
-0.030301701 -0.192614 0.676 4293715432
-0.029018566 -0.19261336 0.676 4294110189
-0.027735442 -0.19261268 0.676 4293847267
-0.026452335 -0.19261202 0.676 4293715682
-0.025243705 -0.19318125 0.67799997 4293650150
-0.023956826 -0.19318062 0.67799997 4293650150
-0.022703411 -0.19346498 0.67900002 4293650150
-0.021446202 -0.19374934 0.68000001 4293716199
-0.02021485 -0.19431861 0.68199998 4293716199
-0.01892044 -0.19431809 0.68199998 4293650150
-0.017677728 -0.19488743 0.68400002 4293715432
-0.016379543 -0.19488692 0.68400002 4293715432
-0.015169566 -0.19602615 0.68800002 4293715432
-0.013904111 -0.1965955 0.69 4293846761
-0.012649332 -0.19744982 0.69300002 4293847013
-0.011334106 -0.1974494 0.69300002 4293847013
-0.010033349 -0.19773392 0.69400001 4293715684
-0.008741362 -0.19830337 0.69599998 4293715684
-0.0074204709 -0.19830298 0.69599998 4293583843
-0.0061083501 -0.19858757 0.69700003 4293649636
-0.004792443 -0.19887218 0.69800001 4293583843
-0.0034777136 -0.1994417 0.69999999 4293847015
-0.0021492587 -0.19944142 0.69999999 4293254881
-0.00082198193 -0.19972607 0.70099998 4293254881
0.00051053578 -0.20058055 0.704 4293386210
0.0018518124 -0.20115016 0.70599997 4293254881
0.0031961552 -0.2014349 0.70700002 4293058012
0.0045378725 -0.20143472 0.70700002 4293123805
-0.1186134 -0.19735 0.69700003 4292662745
-0.11712039 -0.19706547 0.69599998 4293057247
-0.11579759 -0.19706415 0.69599998 4293058012
-0.11414588 -0.19649653 0.69400001 4293123805
-0.11282694 -0.19649518 0.69400001 4292991708
-0.11134735 -0.19621065 0.69300002 4293452259
-0.10971282 -0.19564307 0.69099998 4293648353
-0.10839965 -0.19564168 0.69099998 4293714146
-0.10693154 -0.19535722 0.69 4293517539
-0.1053142 -0.19478965 0.68800002 4293648868
-0.10370448 -0.19422202 0.68599999 4293517537
-0.10195314 -0.19337134 0.68300003 4293846502
-0.10065533 -0.19337001 0.68300003 4293846500
-0.099212065 -0.19308552 0.68199998 4293780706
-0.097916216 -0.19308418 0.68199998 4293517537
-0.096337043 -0.19251664 0.68000001 4293714659
-0.094905302 -0.19223222 0.67900002 4293648868
-0.093477339 -0.19194776 0.67799997 4293912297
-0.091917276 -0.19138026 0.676 4293912808
-0.090498887 -0.19109583 0.67500001 4293978601
-0.089216508 -0.19109455 0.67500001 4293649636
-0.087934174 -0.1910933 0.67500001 4293847015
-0.086651854 -0.19109197 0.67500001 4293715432
-0.085243084 -0.19080761 0.67400002 4294175983
-0.083962731 -0.19080634 0.67400002 4294110703
-0.082682401 -0.19080508 0.67400002 4294044909
-0.081160545 -0.19023764 0.67199999 4293912808
-0.079884075 -0.19023637 0.67199999 4294176237
-0.078490652 -0.18995208 0.671 4293979116
-0.077216133 -0.18995081 0.671 4293715945
-0.075941645 -0.1899496 0.671 4293716458
-0.074667178 -0.18994841 0.671 4294177009
-0.073502123 -0.19023025 0.67199999 4294110701
-0.072118342 -0.18994601 0.671 4294044907
-0.070843957 -0.18994483 0.671 4293978603
-0.069465935 -0.18966056 0.67000002 4294110189
-0.06819351 -0.18965942 0.67000002 4293846761
-0.066921107 -0.18965828 0.67000002 4293912810
-0.065648749 -0.18965712 0.67000002 4293847013
-0.064376406 -0.18965602 0.67000002 4294110441
-0.063104086 -0.1896549 0.67000002 4293847787
-0.061831791 -0.18965378 0.67000002 4294044909
-0.060559534 -0.18965271 0.67000002 4293979116
-0.059287291 -0.18965165 0.67000002 4294044909
-0.058015071 -0.18965058 0.67000002 4293846761
-0.056742884 -0.18964955 0.67000002 4293912810
-0.05547072 -0.18964852 0.67000002 4293912808
-0.054198578 -0.18964748 0.67000002 4294044394
-0.052926458 -0.18964648 0.67000002 4293781738
-0.051654376 -0.18964553 0.67000002 4293979116
-0.050382297 -0.1896445 0.67000002 4294044907
-0.049183559 -0.18992661 0.671 4294044907
-0.047909636 -0.18992567 0.671 4294044909
-0.046635736 -0.18992475 0.671 4293979116
-0.04542945 -0.19020687 0.67199999 4293650150
-0.044153705 -0.19020599 0.67199999 4293847785
-0.042877968 -0.1902051 0.67199999 4294044907
-0.041602254 -0.19020423 0.67199999 4293979114
-0.040326566 -0.19020341 0.67199999 4293781990
-0.039050892 -0.19020256 0.67199999 4293979112
-0.037775241 -0.19020177 0.67199999 4293847013
