# .PCD v0.7 - Point Cloud Data file format
VERSION 0.7
FIELDS x y z rgba
SIZE 4 4 4 4
TYPE F F F U
COUNT 1 1 1 1
WIDTH 1052
HEIGHT 1
VIEWPOINT 0 0 0 1 0 0 0
POINTS 1052
DATA ascii
0.092399187 -0.048478756 0.79400003 4292335055
0.093905374 -0.048478983 0.79400003 4292334796
0.095411614 -0.048479218 0.79400003 4292269003
0.096673764 -0.048357327 0.792 4292334535
0.098176338 -0.048357572 0.792 4292465864
0.099930644 -0.048479918 0.79400003 4292531907
0.10143714 -0.048480157 0.79400003 4292597700
0.10268436 -0.04835828 0.792 4292268485
0.10418715 -0.048358526 0.792 4292071106
0.10569 -0.048358779 0.792 4292202440
0.10719292 -0.048359022 0.792 4292202440
0.10869589 -0.048359267 0.792 4292202694
0.11019894 -0.048359524 0.792 4292268487
0.11170202 -0.04835977 0.792 4292268739
0.11320517 -0.04836002 0.792 4292334533
0.11470839 -0.04836027 0.792 4292071106
0.11621169 -0.04836053 0.792 4291807934
0.11771505 -0.048360787 0.792 4291939520
0.11951952 -0.048483167 0.79400003 4292005313
0.12133165 -0.04860555 0.796 4291546047
0.12284279 -0.048605803 0.796 4291414205
0.12435398 -0.048606064 0.796 4291282626
0.12586525 -0.048606321 0.796 4291216833
0.12737659 -0.048606578 0.796 4291347901
0.12921183 -0.048728965 0.79799998 4291282108
0.1307271 -0.048729219 0.79799998 4291282105
0.13224247 -0.048729487 0.79799998 4291216312
0.13342261 -0.048607614 0.796 4291018938
0.13493429 -0.048607867 0.796 4290952889
0.13678886 -0.048730254 0.79799998 4291083957
0.13830447 -0.048730515 0.79799998 4291083957
0.13982011 -0.048730761 0.79799998 4291018164
0.14133587 -0.048731022 0.79799998 4291018164
0.14285168 -0.048731267 0.79799998 4291084211
0.14509121 -0.048975792 0.80199999 4291084211
0.14679754 -0.049037106 0.80299997 4290953141
0.14832306 -0.049037356 0.80299997 4290953141
0.14984865 -0.049037606 0.80299997 4290953141
0.15212835 -0.049282119 0.80699998 4290953141
0.15366168 -0.049282368 0.80699998 4290953141
0.15634894 -0.049649023 0.81300002 4290953141
0.15828221 -0.049771398 0.815 4291084211
0.15983094 -0.049771637 0.815 4291084211
0.16177577 -0.049894013 0.81699997 4291018938
0.16332841 -0.049894243 0.81699997 4291479489
0.16488117 -0.049894471 0.81699997 4290559943
0.16643398 -0.049894694 0.81699997 4289309876
0.16798685 -0.049894918 0.81699997 4288263348
0.049437042 -0.049158216 0.83099997 4291422666
0.051012043 -0.049158335 0.83099997 4294967295
0.052587066 -0.049158446 0.83099997 4294507259
0.054031763 -0.049040247 0.829 4292928482
0.055603076 -0.049040377 0.829 4292730846
0.056622669 -0.048567254 0.82099998 4293189587
0.057895418 -0.048330758 0.81699997 4293255637
0.059444074 -0.048330884 0.81699997 4293190103
0.060992777 -0.048331033 0.81699997 4293190103
0.062388409 -0.048212852 0.815 4293189591
0.063933402 -0.048213005 0.815 4293189591
0.065478437 -0.048213154 0.815 4293255637
0.067023493 -0.048213303 0.815 4293255637
0.068400338 -0.048095152 0.81300002 4293190101
0.069769636 -0.047976993 0.81099999 4293058514
0.071307257 -0.047977161 0.81099999 4292927187
0.072485626 -0.047740698 0.80699998 4293058516
0.074015744 -0.047740865 0.80699998 4292927444
0.075545907 -0.047741044 0.80699998 4292927444
0.077076115 -0.047741223 0.80699998 4292927446
0.078606375 -0.047741402 0.80699998 4292795860
0.079938099 -0.047623273 0.80500001 4292598736
0.081464656 -0.047623456 0.80500001 4292664529
0.082785092 -0.047505334 0.80299997 4292795599
0.08420296 -0.047446363 0.80199999 4292466634
0.085510217 -0.047328237 0.80000001 4292596937
0.087027512 -0.047328439 0.80000001 4292728266
0.088544838 -0.047328632 0.80000001 4292597198
0.08961194 -0.047092199 0.796 4292531405
0.091121793 -0.0470924 0.796 4292465612
0.092631705 -0.047092605 0.796 4292465612
0.094141684 -0.047092818 0.796 4292334794
0.09541139 -0.046974707 0.79400003 4292006085
0.096917681 -0.04697492 0.79400003 4292136386
0.098424032 -0.046975136 0.79400003 4292136386
0.099930421 -0.046975356 0.79400003 4292267967
0.10143691 -0.046975575 0.79400003 4292267967
0.10294344 -0.046975799 0.79400003 4292136640
0.10418691 -0.046857689 0.792 4292136640
0.10568976 -0.046857912 0.792 4292136901
0.10719267 -0.046858143 0.792 4292071108
0.10869566 -0.04685837 0.792 4292005313
0.11019868 -0.046858601 0.792 4292202692
0.11170179 -0.046858832 0.792 4292072389
0.11349081 -0.04697739 0.79400003 4291940803
0.11499782 -0.046977621 0.79400003 4291676859
0.11650492 -0.046977859 0.79400003 4291545530
0.11801206 -0.046978086 0.79400003 4291807164
0.11982033 -0.047096655 0.796 4291675835
0.12163625 -0.04721522 0.79799998 4291479739
0.12315118 -0.047215454 0.79799998 4291347897
0.12466616 -0.047215682 0.79799998 4291282105
0.12618123 -0.047215924 0.79799998 4290953141
0.12769638 -0.047216162 0.79799998 4291018164
0.12921159 -0.047216397 0.79799998 4291150006
0.13072684 -0.047216631 0.79799998 4291347385
0.1322422 -0.047216866 0.79799998 4291215799
0.13375759 -0.047217097 0.79799998 4290887348
0.13527307 -0.047217328 0.79799998 4290887348
0.13678859 -0.047217559 0.79799998 4291083698
0.13865086 -0.047336135 0.80000001 4291083698
0.14017032 -0.047336359 0.80000001 4290887348
0.14168987 -0.047336593 0.80000001 4290953141
0.14320946 -0.047336817 0.80000001 4290887861
0.14509098 -0.047455389 0.80199999 4290887861
0.14679731 -0.047514781 0.80299997 4290887861
0.14832284 -0.047515005 0.80299997 4290756532
0.15022166 -0.047633573 0.80500001 4290756532
0.15212815 -0.047752138 0.80699998 4290756532
0.15366144 -0.047752351 0.80699998 4290887348
0.15673335 -0.04822595 0.815 4290755761
0.158282 -0.048226163 0.815 4290821041
0.15983072 -0.048226375 0.815 4291083957
0.16177554 -0.048344925 0.81699997 4290624693
0.1633282 -0.048345126 0.81699997 4290558900
0.16488096 -0.048345331 0.81699997 4291676863
0.16643377 -0.048345532 0.81699997 4293124309
0.051011931 -0.047584206 0.83099997 4294967295
0.052586954 -0.04758431 0.83099997 4294967295
0.054031666 -0.047469903 0.829 4294967286
0.055602964 -0.047470011 0.829 4292795860
0.056760479 -0.047126554 0.82300001 4292861138
0.058037024 -0.04689762 0.81900001 4293124309
0.059443951 -0.04678322 0.81699997 4293189589
0.060992654 -0.04678335 0.81699997 4293255383
0.062388279 -0.046668954 0.815 4293123544
0.063933261 -0.046669085 0.815 4293123544
0.065478288 -0.046669222 0.815 4293189587
0.067023344 -0.04666936 0.815 4293255637
0.068400189 -0.046554983 0.81300002 4293124307
0.069769479 -0.046440598 0.81099999 4292927185
0.071307093 -0.046440754 0.81099999 4293058262
0.072665103 -0.046326376 0.80900002 4293058262
0.074199013 -0.046326537 0.80900002 4292861905
0.075545736 -0.046212167 0.80699998 4292861905
0.077075951 -0.046212327 0.80699998 4292664531
0.078801021 -0.046327028 0.80900002 4292532688
0.080136515 -0.046212662 0.80699998 4292532940
0.081464477 -0.046098303 0.80500001 4292664527
0.082991086 -0.046098478 0.80500001 4292729290
0.08430776 -0.045984119 0.80299997 4292465862
0.085723802 -0.045927037 0.80199999 4292531659
0.087244876 -0.045927215 0.80199999 4292597452
0.088544644 -0.045812864 0.80000001 4292531657
0.089611739 -0.045583989 0.796 4292268485
0.091121592 -0.045584176 0.796 4292334535
0.092631519 -0.045584366 0.796 4292465864
0.094141483 -0.045584556 0.796 4292268739
0.095411181 -0.045470219 0.79400003 4292005311
0.096917465 -0.045470405 0.79400003 4292071106
0.098423824 -0.04547061 0.79400003 4292071106
0.099930219 -0.045470808 0.79400003 4292136640
0.1014367 -0.045471001 0.79400003 4292267969
0.10294323 -0.045471206 0.79400003 4292070591
0.1041867 -0.04535687 0.792 4292004798
0.10568955 -0.045357071 0.792 4292070593
0.10746315 -0.045471814 0.79400003 4292070593
0.10896992 -0.045472026 0.79400003 4291939518
0.11047675 -0.045472231 0.79400003 4291939518
0.11198363 -0.045472439 0.79400003 4291676861
0.11349058 -0.045472641 0.79400003 4291545532
0.1149976 -0.045472849 0.79400003 4291676348
0.11650469 -0.045473065 0.79400003 4291610555
0.11830908 -0.045587815 0.796 4291347388
0.1198201 -0.045588028 0.796 4291281594
0.12163602 -0.045702782 0.79799998 4291215797
0.12315095 -0.045702986 0.79799998 4291215797
0.12466596 -0.045703202 0.79799998 4291084461
0.12618101 -0.045703411 0.79799998 4290887338
0.12769617 -0.045703623 0.79799998 4290821043
0.12921135 -0.04570384 0.79799998 4290821043
0.13072664 -0.045704048 0.79799998 4290821557
0.13224198 -0.045704253 0.79799998 4290821557
0.13375738 -0.045704458 0.79799998 4290886835
0.13527286 -0.04570467 0.79799998 4290886835
0.13678838 -0.045704875 0.79799998 4290886835
0.13865064 -0.045819636 0.80000001 4290821041
0.14017011 -0.045819838 0.80000001 4290821555
0.14168966 -0.045820039 0.80000001 4290953141
0.14320926 -0.045820236 0.80000001 4290953402
0.14527167 -0.045992263 0.80299997 4290887609
0.14716274 -0.046107017 0.80500001 4290756530
0.14869206 -0.046107218 0.80500001 4290690736
0.15059468 -0.04622196 0.80699998 4290755761
0.15363601 -0.046680361 0.815 4290755761
0.15518455 -0.046680558 0.815 4290624180
0.15673314 -0.046680748 0.815 4290558387
0.15828179 -0.046680927 0.815 4290690485
0.16022274 -0.046795662 0.81699997 4290558898
0.16177535 -0.046795849 0.81699997 4285959846
0.16332801 -0.04679602 0.81699997 4280433234
0.16488078 -0.046796199 0.81699997 4285361851
0.16643359 -0.046796363 0.81699997 4294243839
0.052586861 -0.046010192 0.83099997 4294967295
0.054161914 -0.046010293 0.83099997 4294967295
0.055602852 -0.045899659 0.829 4293058794
0.056898303 -0.045678288 0.82499999 4292664529
0.058178626 -0.04545692 0.82099998 4292861651
0.059589349 -0.045346301 0.81900001 4292991956
0.061141837 -0.045346417 0.81900001 4292991956
0.062541246 -0.04523579 0.81699997 4293057751
0.064090021 -0.045235917 0.81699997 4293057751
0.065799519 -0.045346778 0.81900001 4293123796
0.067352161 -0.045346905 0.81900001 4293058003
0.068736576 -0.045236297 0.81699997 4292861140
0.070285514 -0.045236431 0.81699997 4292861140
0.07183449 -0.045236565 0.81699997 4292795860
0.073024243 -0.045015231 0.81300002 4292795860
0.074565738 -0.045015376 0.81300002 4292795860
0.076107264 -0.045015518 0.81300002 4292598482
0.077457838 -0.044904929 0.81099999 4292466893
0.07880085 -0.044794332 0.80900002 4292466893
0.080136351 -0.044683747 0.80699998 4292664010
0.081666701 -0.0446839 0.80699998 4292466632
0.083197109 -0.04468406 0.80699998 4292597448
0.084517591 -0.044573478 0.80500001 4292597448
0.08583051 -0.044462889 0.80299997 4292465610
0.08735349 -0.044463061 0.80299997 4292334281
0.088765837 -0.044407856 0.80199999 4292268487
0.090061866 -0.044297278 0.80000001 4292202694
0.091350354 -0.0441867 0.79799998 4292202694
0.092864066 -0.044186871 0.79799998 4292202694
0.094377838 -0.044187047 0.79799998 4292005311
0.095651329 -0.044076476 0.796 4292005311
0.097161405 -0.044076648 0.796 4292071104
0.098671556 -0.04407683 0.796 4291939518
0.10018173 -0.044077005 0.796 4291939518
0.10169202 -0.044077184 0.796 4291742395
0.10320232 -0.044077363 0.796 4291872957
0.1044496 -0.0439668 0.79400003 4291675835
0.10595626 -0.04396699 0.79400003 4291610044
0.10746297 -0.043967173 0.79400003 4291872959
0.10896972 -0.043967351 0.79400003 4291939520
0.11047657 -0.043967545 0.79400003 4291610555
0.11198344 -0.043967728 0.79400003 4291478715
0.1134904 -0.043967914 0.79400003 4291478715
0.1149974 -0.0439681 0.79400003 4291413692
0.11650449 -0.043968286 0.79400003 4291413692
0.11830889 -0.044079218 0.796 4291084981
0.12012096 -0.044190161 0.79799998 4290953395
0.12163583 -0.044190351 0.79799998 4291149489
0.12315076 -0.044190537 0.79799998 4291083696
0.12466576 -0.044190723 0.79799998 4291083950
0.12618081 -0.044190906 0.79799998 4291017900
0.12769596 -0.0441911 0.79799998 4290755761
0.129535 -0.044302043 0.80000001 4290755761
0.13105407 -0.044302221 0.80000001 4290755761
0.13257322 -0.044302411 0.80000001 4290755761
0.13409242 -0.044302594 0.80000001 4290821039
0.1356117 -0.044302776 0.80000001 4290755246
0.13713104 -0.044302959 0.80000001 4290755500
0.13865043 -0.044303142 0.80000001 4290755500
0.1401699 -0.04430332 0.80000001 4290755761
0.14168946 -0.044303495 0.80000001 4290887348
0.14320908 -0.044303674 0.80000001 4290756793
0.14527148 -0.044469979 0.80299997 4290691000
0.1478938 -0.044802435 0.80900002 4290756278
0.14943074 -0.044802606 0.80900002 4290690485
0.15246059 -0.045245815 0.81699997 4290558896
0.15401284 -0.045245979 0.81699997 4290558896
0.15556517 -0.045246147 0.81699997 4290492592
0.15711756 -0.045246311 0.81699997 4290887350
0.15867004 -0.045246463 0.81699997 4290822088
0.16022256 -0.045246616 0.81699997 4289374386
0.16177517 -0.045246776 0.81699997 4284320354
0.16332786 -0.045246925 0.81699997 4278465033
0.054161806 -0.044436172 0.83099997 4294967295
0.055736896 -0.044436254 0.83099997 4293651435
0.057036143 -0.044222459 0.82700002 4292138446
0.05832025 -0.044008661 0.82300001 4292664790
0.059880275 -0.044008758 0.82300001 4292861142
0.061291024 -0.043901913 0.82099998 4292861142
0.062694244 -0.043795072 0.81900001 4292861142
0.064246796 -0.043795176 0.81900001 4292861142
0.065960087 -0.043902241 0.82099998 4292927187
0.067352042 -0.043795403 0.81900001 4292927187
0.068904728 -0.043795519 0.81900001 4292861140
0.070285395 -0.043688688 0.81699997 4292795347
0.07183437 -0.043688811 0.81699997 4292795347
0.07320375 -0.043581989 0.815 4292795347
0.074565597 -0.043475166 0.81300002 4292466897
0.076107137 -0.0434753 0.81300002 4292401104
0.077457696 -0.043368474 0.81099999 4292466636
0.078995526 -0.043368611 0.81099999 4292597965
0.080136217 -0.043154843 0.80699998 4292597961
0.081666559 -0.043154981 0.80699998 4292466632
0.083196953 -0.043155119 0.80699998 4292597448
0.084727414 -0.04315526 0.80699998 4292597448
0.086044148 -0.043048456 0.80500001 4292334535
0.087570906 -0.043048598 0.80500001 4292268485
0.088876359 -0.042941794 0.80299997 4292202694
0.090286851 -0.042888463 0.80199999 4292136901
0.091579154 -0.042781662 0.80000001 4292070854
0.093096659 -0.042781815 0.80000001 4292070854
0.094614215 -0.042781975 0.80000001 4291940288
0.095891491 -0.042675167 0.79799998 4291874495
0.097405367 -0.042675328 0.79799998 4291874493
0.098919302 -0.04267548 0.79799998 4291808700
0.10043328 -0.042675637 0.79799998 4291808188
0.10194736 -0.042675797 0.79799998 4291742395
0.10346147 -0.042675961 0.79799998 4291676350
0.10497563 -0.042676121 0.79799998 4291610557
0.10648987 -0.042676285 0.79799998 4291675837
0.10773347 -0.042569488 0.796 4291807166
0.10924403 -0.042569648 0.796 4291478717
0.11075465 -0.042569812 0.796 4291347388
0.11226533 -0.042569973 0.796 4291084731
0.11377609 -0.04257014 0.796 4291018938
0.1152869 -0.042570304 0.796 4291478967
0.1167978 -0.042570475 0.796 4291544760
0.11860597 -0.042677592 0.79799998 4291216051
0.12012078 -0.04267776 0.79799998 4291084209
0.12163564 -0.04267792 0.79799998 4291084211
0.12315059 -0.042678092 0.79799998 4291018418
0.12497803 -0.042785216 0.80000001 4290821039
0.1264969 -0.042785384 0.80000001 4290755246
0.12801583 -0.042785544 0.80000001 4290821039
0.12953484 -0.042785712 0.80000001 4290821039
0.13105389 -0.042785864 0.80000001 4290821039
0.13257304 -0.042786017 0.80000001 4290755246
0.13409226 -0.042786185 0.80000001 4290755248
0.13561153 -0.042786341 0.80000001 4290689455
0.13713089 -0.042786501 0.80000001 4290623912
0.13865028 -0.042786654 0.80000001 4290689705
0.14016975 -0.042786803 0.80000001 4290755759
0.14168929 -0.042786952 0.80000001 4290755759
0.14320892 -0.042787101 0.80000001 4290558900
0.14563315 -0.04305467 0.80500001 4290427058
0.14716239 -0.043054812 0.80500001 4290492338
0.15090826 -0.043696772 0.81699997 4290492338
0.15246044 -0.04369691 0.81699997 4290361253
0.15401269 -0.043697052 0.81699997 4290164131
0.15556504 -0.04369719 0.81699997 4289965994
0.15711744 -0.043697324 0.81699997 4291018938
0.1586699 -0.043697454 0.81699997 4290953684
0.16061465 -0.043804552 0.81900001 4287992998
0.16217107 -0.043804675 0.81900001 4281694782
0.055468518 -0.042655833 0.82700002 4292664540
0.057036057 -0.042655911 0.82700002 4290954424
0.058603618 -0.042655993 0.82700002 4292467406
0.060171217 -0.042656079 0.82700002 4293124055
0.061440248 -0.042449854 0.82300001 4292926933
0.062847234 -0.042346787 0.82099998 4292597711
0.064403579 -0.04234688 0.82099998 4292795347
0.065959975 -0.042346973 0.82099998 4292861140
0.067516401 -0.042347077 0.82099998 4292729554
0.068904608 -0.042244017 0.81900001 4292794834
0.070285268 -0.042140961 0.81699997 4292794834
0.071834251 -0.042141065 0.81699997 4292729552
0.073203631 -0.04203802 0.815 4292729552
0.074565478 -0.041934971 0.81300002 4292335309
0.076107003 -0.041935083 0.81300002 4292401102
0.077457555 -0.041832037 0.81099999 4292466636
0.078995392 -0.041832149 0.81099999 4292466636
0.080334678 -0.041729111 0.80900002 4292466634
0.08166641 -0.041626062 0.80699998 4292466634
0.083196826 -0.041626193 0.80699998 4292268485
0.08472728 -0.041626319 0.80699998 4292202692
0.086043999 -0.041523281 0.80500001 4292333510
0.087570757 -0.041523408 0.80500001 4292333510
0.088876225 -0.041420374 0.80299997 4292136901
0.090286724 -0.041368924 0.80199999 4292071108
0.091579013 -0.04126589 0.80000001 4291874245
0.093096502 -0.04126602 0.80000001 4291874245
0.094614066 -0.041266158 0.80000001 4291743429
0.096131675 -0.041266289 0.80000001 4291677380
0.097649336 -0.041266426 0.80000001 4291414459
0.098919146 -0.0411634 0.79799998 4291480252
0.10043314 -0.041163541 0.79799998 4291676861
0.10194718 -0.041163672 0.79799998 4291545532
0.10346131 -0.041163813 0.79799998 4291544508
0.10497547 -0.041163951 0.79799998 4291610557
0.1064897 -0.041164096 0.79799998 4291676096
0.108004 -0.041164234 0.79799998 4291544510
0.10951836 -0.041164376 0.79799998 4291281590
0.11103278 -0.041164521 0.79799998 4291281590
0.11254726 -0.041164663 0.79799998 4291281590
0.11406179 -0.041164801 0.79799998 4291215797
0.11557642 -0.04116495 0.79799998 4291150004
0.11709109 -0.041165087 0.79799998 4290886832
0.11860581 -0.041165229 0.79799998 4290952111
0.12042167 -0.041268546 0.80000001 4290952111
0.12194034 -0.041268684 0.80000001 4291018418
0.12345908 -0.041268822 0.80000001 4290821039
0.12497789 -0.041268967 0.80000001 4290623658
0.12649675 -0.041269105 0.80000001 4290689451
0.12801568 -0.041269239 0.80000001 4290426538
0.12953468 -0.041269373 0.80000001 4290623660
0.13138139 -0.041372694 0.80199999 4290821041
0.13290434 -0.041372817 0.80199999 4290755248
0.13442734 -0.041372955 0.80199999 4290361004
0.13595039 -0.041373082 0.80199999 4290492590
0.13747354 -0.041373216 0.80199999 4290623406
0.13865012 -0.041270167 0.80000001 4290689455
0.14016962 -0.041270297 0.80000001 4290558385
0.1420434 -0.041373599 0.80199999 4290558385
0.1435668 -0.041373722 0.80199999 4290558387
0.14563301 -0.041528601 0.80500001 4290558387
0.15008722 -0.042354133 0.82099998 4290492338
0.15201639 -0.042457439 0.82300001 4290360752
0.15395318 -0.04256073 0.82499999 4290294443
0.1543896 -0.042251311 0.81900001 4289965735
0.15594572 -0.042251416 0.81900001 4289572003
0.15827118 -0.042457879 0.82300001 4291940551
0.15983504 -0.042457979 0.82300001 4292402165
0.057035975 -0.041089371 0.82700002 4290233018
0.058603536 -0.041089445 0.82700002 4291088327
0.060171142 -0.04108952 0.82700002 4292138444
0.061738778 -0.041089594 0.82700002 4292598995
0.063153364 -0.040990304 0.82499999 4292270286
0.06471727 -0.040990382 0.82499999 4292467408
0.066120565 -0.040891092 0.82300001 4292664277
0.067516312 -0.04079181 0.82099998 4292598484
0.069072776 -0.040791895 0.82099998 4292663504
0.070457235 -0.040692616 0.81900001 4292663504
0.071834154 -0.040593337 0.81699997 4292663756
0.073203526 -0.040494055 0.815 4292663756
0.074565373 -0.04039479 0.81300002 4292466382
0.076106906 -0.040394887 0.81300002 4292466382
0.077648476 -0.040394984 0.81300002 4292400589
0.079190113 -0.040395088 0.81300002 4292334796
0.080533169 -0.04029581 0.81099999 4292531657
0.082071096 -0.040295918 0.81099999 4292334535
0.083402909 -0.040196653 0.80900002 4292136647
0.084937125 -0.04019675 0.80900002 4292202440
0.086257659 -0.04009749 0.80699998 4292202694
0.087788202 -0.040097598 0.80699998 4292136901
0.089097463 -0.039998334 0.80500001 4292071108
0.090399168 -0.039899074 0.80299997 4292071108
0.091807835 -0.039849497 0.80199999 4291808452
0.093096383 -0.039750241 0.80000001 4291808452
0.094613947 -0.039750356 0.80000001 4291676609
0.096371874 -0.039849848 0.80199999 4291545280
0.097649209 -0.039750587 0.80000001 4291479485
0.099166945 -0.039750706 0.80000001 4291545534
0.10068472 -0.039750822 0.80000001 4291413692
0.10220257 -0.039750941 0.80000001 4291347899
0.10346118 -0.039651677 0.79799998 4291347899
0.10497534 -0.039651796 0.79799998 4291282105
0.10648958 -0.039651919 0.79799998 4291084731
0.10827456 -0.039751418 0.80000001 4291084731
0.10979272 -0.039751541 0.80000001 4291215797
0.11103264 -0.039652273 0.79799998 4291215797
0.11254713 -0.039652392 0.79799998 4291216049
0.11406166 -0.039652511 0.79799998 4291281842
0.11586595 -0.039752018 0.80000001 4291150002
0.11738443 -0.039752137 0.80000001 4290821293
0.11890296 -0.039752256 0.80000001 4290886835
0.12042157 -0.039752375 0.80000001 4290821041
0.12194021 -0.039752487 0.80000001 4290623406
0.12345894 -0.039752599 0.80000001 4290623406
0.12497776 -0.039752718 0.80000001 4290623658
0.12649661 -0.03975283 0.80000001 4290623658
0.12801556 -0.039752945 0.80000001 4290557613
0.12985839 -0.039852437 0.80199999 4290623406
0.13154507 -0.03990224 0.80299997 4290623406
0.13340138 -0.040001739 0.80500001 4290623406
0.13459481 -0.039902456 0.80299997 4290492592
0.13595028 -0.039852872 0.80199999 4290426799
0.13747343 -0.039852977 0.80199999 4290492592
0.13865003 -0.039753702 0.80000001 4290492592
0.1401695 -0.039753798 0.80000001 4290557363
0.14469995 -0.040598664 0.81699997 4290426034
0.14625186 -0.040598758 0.81699997 4290360752
0.14816567 -0.040698245 0.81900001 4290558387
0.15008712 -0.040797722 0.82099998 4290294960
0.15201625 -0.040897191 0.82300001 4289834409
0.15395309 -0.040996671 0.82499999 4289373858
0.15552056 -0.040996756 0.82499999 4290492340
0.15708809 -0.040996835 0.82499999 4291348932
0.15904033 -0.041096307 0.82700002 4294704375
0.16061179 -0.041096378 0.82700002 4294967295
0.057035908 -0.039522842 0.82700002 4291544512
0.058603469 -0.039522897 0.82700002 4292070856
0.060171068 -0.039522961 0.82700002 4292533722
0.061738711 -0.039523032 0.82700002 4292796893
0.063306376 -0.039523091 0.82700002 4292532702
0.064717203 -0.039427578 0.82499999 4292335579
0.06628117 -0.039427646 0.82499999 4292401100
0.067680702 -0.039332133 0.82300001 4292466893
0.069072686 -0.039236624 0.82099998 4292662993
0.070457153 -0.039141122 0.81900001 4292662993
0.072009921 -0.039141197 0.81900001 4292663245
0.073383078 -0.039045695 0.81699997 4292663245
0.074748717 -0.038950194 0.815 4292466382
0.07629402 -0.038950268 0.815 4292466382
0.077648386 -0.03885477 0.81300002 4292202953
0.079190001 -0.03885486 0.81300002 4292269003
0.080731675 -0.038854945 0.81300002 4292334281
0.082071006 -0.038759444 0.81099999 4292334281
0.083608985 -0.038759537 0.81099999 4292136901
0.085147023 -0.038759626 0.81099999 4292202694
0.086471327 -0.038664129 0.80900002 4292202440
0.088005677 -0.038664225 0.80900002 4292070854
0.089540072 -0.038664319 0.80900002 4292071108
0.090849385 -0.038568825 0.80699998 4292005059
0.091922194 -0.038377747 0.80299997 4291807938
0.093445383 -0.038377844 0.80299997 4291742145
0.094968639 -0.038377933 0.80299997 4291742143
0.096491933 -0.038378038 0.80299997 4291676350
0.098015293 -0.038378131 0.80299997 4291479739
0.099538714 -0.038378224 0.80299997 4291413946
0.10106219 -0.038378324 0.80299997 4291347385
0.10258572 -0.038378421 0.80299997 4291281592
0.10410932 -0.038378522 0.80299997 4291347388
0.10563298 -0.038378619 0.80299997 4291281594
0.1071567 -0.038378716 0.80299997 4291084983
0.10854515 -0.038331024 0.80199999 4291084983
0.11006708 -0.038331121 0.80199999 4291150006
0.1115891 -0.038331222 0.80199999 4291083957
0.11311118 -0.038331319 0.80199999 4290887084
0.1146333 -0.038331412 0.80199999 4291018414
0.11615549 -0.038331505 0.80199999 4290886832
0.11767777 -0.038331602 0.80199999 4290821039
0.11934873 -0.038379494 0.80299997 4290754994
0.12117409 -0.038475182 0.80500001 4290689201
0.12270225 -0.038475275 0.80500001 4290426797
0.12423046 -0.038475364 0.80500001 4290426797
0.12607121 -0.038571049 0.80699998 4290623658
0.12760335 -0.038571138 0.80699998 4290557865
0.12881556 -0.038475633 0.80500001 4290557867
0.13034405 -0.038475718 0.80500001 4290623660
0.13187262 -0.038475811 0.80500001 4290623406
0.13340127 -0.038475897 0.80500001 4290557613
0.13459472 -0.038380377 0.80299997 4290426799
0.13595019 -0.038332667 0.80199999 4290361006
0.13747334 -0.038332745 0.80199999 4290230451
0.13864993 -0.038237225 0.80000001 4290230451
0.14016943 -0.0382373 0.80000001 4290360754
0.14434564 -0.038954325 0.815 4290360754
0.14589375 -0.038954392 0.815 4290164140
0.14816558 -0.039145648 0.81900001 4290032554
0.15045267 -0.039336905 0.82300001 4289899937
0.15238562 -0.039432555 0.82499999 4289505436
0.15395302 -0.039432619 0.82499999 4289110948
0.15552048 -0.039432675 0.82499999 4291084994
0.15746884 -0.039528321 0.82700002 4293189349
0.057035863 -0.03795632 0.82700002 4294967295
0.058603406 -0.037956361 0.82700002 4294967295
0.060171012 -0.037956417 0.82700002 4294967295
0.061738648 -0.037956469 0.82700002 4294967295
0.063306324 -0.037956521 0.82700002 4294967295
0.064874038 -0.037956577 0.82700002 4292467161
0.066281103 -0.037864834 0.82499999 4291481795
0.067680642 -0.037773103 0.82300001 4291481795
0.069072619 -0.037681364 0.82099998 4292203726
0.070629135 -0.037681427 0.82099998 4292401104
0.072009847 -0.037589695 0.81900001 4292466382
0.073562644 -0.037589759 0.81900001 4292466382
0.074932069 -0.037498031 0.81699997 4292400587
0.076481178 -0.03749809 0.81699997 4292400587
0.077839322 -0.037406366 0.815 4292269003
0.079384729 -0.037406437 0.815 4292269003
0.080930203 -0.037406504 0.815 4292202953
0.082475714 -0.037406575 0.815 4292137160
0.084021278 -0.037406646 0.815 4292005831
0.085356921 -0.037314922 0.81300002 4292005831
0.086898804 -0.037315 0.81300002 4291940038
0.088440724 -0.037315071 0.81300002 4291940038
0.089761347 -0.037223347 0.81099999 4291874245
0.091074452 -0.03713163 0.80900002 4291808452
0.092608951 -0.037131704 0.80900002 4291545282
0.093910776 -0.03703998 0.80699998 4291545282
0.09544161 -0.037040055 0.80699998 4291479487
0.09697251 -0.037040137 0.80699998 4291413694
0.098503448 -0.037040211 0.80699998 4291413946
0.10003446 -0.037040289 0.80699998 4291347897
0.10156551 -0.037040364 0.80699998 4291084983
0.10309663 -0.037040442 0.80699998 4291084983
0.10436854 -0.036948722 0.80500001 4291019447
0.10589599 -0.036948796 0.80500001 4290953654
0.1074235 -0.036948878 0.80500001 4290887861
0.1086804 -0.036857154 0.80299997 4290756532
0.11020423 -0.036857229 0.80299997 4290821303
0.11172813 -0.0368573 0.80299997 4290755509
0.11311109 -0.036811482 0.80199999 4290624430
0.1146332 -0.036811549 0.80199999 4290755759
0.11630026 -0.036857519 0.80299997 4290755759
0.11782443 -0.036857598 0.80299997 4290492844
0.11964591 -0.036949471 0.80500001 4290623408
0.12117401 -0.036949541 0.80500001 4290623408
0.12270217 -0.036949612 0.80500001 4290492592
0.12423038 -0.036949676 0.80500001 4290426799
0.12607113 -0.037041541 0.80699998 4290492842
0.12760329 -0.037041608 0.80699998 4290361255
0.1291355 -0.037041672 0.80699998 4290426535
0.13066781 -0.037041735 0.80699998 4290557865
0.13220018 -0.037041795 0.80699998 4290426286
0.13373262 -0.037041854 0.80699998 4290426286
0.13526511 -0.03704191 0.80699998 4290361004
0.1367977 -0.037041966 0.80699998 4290361004
0.14159618 -0.037501078 0.81699997 4290426547
0.14314795 -0.037501119 0.81699997 4290360754
0.14434558 -0.037409369 0.815 4290360754
0.14589369 -0.037409417 0.815 4290032041
0.14888914 -0.03777666 0.82300001 4289571490
0.15045263 -0.037776697 0.82300001 4289177245
0.15238556 -0.03786853 0.82499999 4291677380
0.15395297 -0.037868571 0.82499999 4293783523
0.060170963 -0.036389872 0.82700002 4294967295
0.061738592 -0.036389906 0.82700002 4294967295
0.063459359 -0.036477949 0.829 4294967295
0.065030873 -0.03647799 0.829 4293849584
0.066441737 -0.036390033 0.82700002 4292205536
0.067845069 -0.036302071 0.82499999 4291416020
0.06940911 -0.036302116 0.82499999 4292136647
0.070801146 -0.036214158 0.82300001 4292531405
0.072185628 -0.036126196 0.82099998 4292400587
0.073742233 -0.036126249 0.82099998 4292400587
0.075298883 -0.036126301 0.82099998 4292334794
0.07685557 -0.036126345 0.82099998 4292400587
0.078412309 -0.036126398 0.82099998 4292203980
0.079969093 -0.03612645 0.82099998 4292203980
0.081525944 -0.036126502 0.82099998 4292202953
0.08267805 -0.035950545 0.81699997 4292202953
0.084021218 -0.035862591 0.815 4292137160
0.085566841 -0.035862647 0.815 4292005831
0.087112516 -0.035862707 0.815 4291743429
0.088440672 -0.035774752 0.81300002 4291743429
0.089982651 -0.035774808 0.81300002 4291874245
0.09152469 -0.035774861 0.81300002 4291742402
0.09283784 -0.03568691 0.81099999 4291413694
0.094376199 -0.035686966 0.81099999 4291479487
0.09591461 -0.035687022 0.81099999 4291347901
0.097212762 -0.035599072 0.80900002 4291413694
0.098747507 -0.035599131 0.80900002 4291413946
0.1002823 -0.035599187 0.80900002 4291347897
0.10181715 -0.035599243 0.80900002 4291216310
0.10309657 -0.035511293 0.80699998 4291216310
0.10462776 -0.035511348 0.80699998 4290888631
0.10615903 -0.035511401 0.80699998 4290625459
0.10742344 -0.035423446 0.80500001 4290690739
0.10895101 -0.035423499 0.80500001 4290690739
0.11047866 -0.035423554 0.80500001 4290755507
0.11172809 -0.035335597 0.80299997 4290755507
0.11325205 -0.035335645 0.80299997 4290492590
0.11477609 -0.035335697 0.80299997 4290624432
0.1163002 -0.035335749 0.80299997 4290559150
0.11811781 -0.035423808 0.80500001 4290427308
0.11964585 -0.035423856 0.80500001 4290492590
0.12147499 -0.035511907 0.80699998 4290492590
0.12300695 -0.035511956 0.80699998 4290492592
0.12453897 -0.035511997 0.80699998 4290492592
0.12607108 -0.035512041 0.80699998 4290426799
0.12791948 -0.035600092 0.80900002 4290426799
0.12913546 -0.035512116 0.80699998 4290426284
0.13066776 -0.035512153 0.80699998 4290426284
0.13220015 -0.035512194 0.80699998 4290426286
0.13373257 -0.035512228 0.80699998 4290426286
0.14314792 -0.035952408 0.81699997 4290294949
0.14434555 -0.035864413 0.815 4290163107
0.14589366 -0.035864431 0.815 4289769637
0.14744186 -0.035864446 0.815 4289769637
0.14899014 -0.035864457 0.815 4290033074
0.061887875 -0.034907579 0.829 4294967295
0.063459337 -0.034907605 0.829 4294967295
0.065030836 -0.034907635 0.829 4294967295
0.066602387 -0.034907661 0.829 4294967295
0.068009496 -0.034823477 0.82700002 4293980400
0.069577336 -0.034823507 0.82700002 4292402136
0.070801102 -0.034655102 0.82300001 4291612620
0.072185598 -0.034570917 0.82099998 4291678147
0.073742189 -0.034570951 0.82099998 4292072905
0.075482272 -0.034655206 0.82300001 4292072905
0.077042751 -0.034655232 0.82300001 4292138698
0.078603283 -0.034655269 0.82300001 4292072137
0.080163866 -0.034655303 0.82300001 4292137931
0.08172451 -0.034655344 0.82300001 4292137162
0.083082788 -0.034571156 0.82099998 4292137162
0.084227368 -0.034402765 0.81699997 4292137160
0.085566796 -0.034318577 0.815 4292005831
0.087112464 -0.034318618 0.815 4291873991
0.088658184 -0.034318656 0.815 4291873991
0.090203956 -0.034318689 0.815 4291874245
0.091524661 -0.034234513 0.81300002 4291808452
0.093066737 -0.034234546 0.81300002 4291611586
0.094608888 -0.034234587 0.81300002 4291677380
0.09591458 -0.034150403 0.81099999 4291414207
0.097453058 -0.03415044 0.81099999 4291414207
0.09899158 -0.034150474 0.81099999 4291347899
0.10053018 -0.034150511 0.81099999 4291282105
0.10206883 -0.034150545 0.81099999 4291216310
0.10335204 -0.034066364 0.80900002 4291282103
0.10488703 -0.034066398 0.80900002 4291019699
0.10615897 -0.03398221 0.80699998 4290690990
0.10769027 -0.03398224 0.80699998 4290690485
0.10922165 -0.033982281 0.80699998 4290624691
0.1107531 -0.03398231 0.80699998 4290624180
0.11228459 -0.033982337 0.80699998 4290624180
0.11353409 -0.033898149 0.80500001 4290558385
0.11506192 -0.033898178 0.80500001 4290558385
0.11658984 -0.033898201 0.80500001 4290558383
0.11841126 -0.033982448 0.80699998 4290492590
0.11994308 -0.033982467 0.80699998 4290361004
0.12177602 -0.034066711 0.80900002 4290426797
0.12331177 -0.034066729 0.80900002 4290426545
0.12484761 -0.034066748 0.80900002 4290558387
0.12638348 -0.034066763 0.80900002 4290492338
0.12823568 -0.034151003 0.81099999 4290426545
0.12977552 -0.034151014 0.81099999 4290426032
0.13131541 -0.034151025 0.81099999 4290557361
0.133183 -0.034235254 0.81300002 4290557361
0.13472687 -0.034235265 0.81300002 4290557361
0.14124952 -0.034319483 0.815 4290360752
0.14434554 -0.034319468 0.815 4290624941
0.14589366 -0.034319453 0.815 4291875010
0.14744186 -0.034319442 0.815 4294638060
0.0651877 -0.033417705 0.83099997 4294967295
0.066763036 -0.033417717 0.83099997 4294967295
0.068173945 -0.03333731 0.829 4294967295
0.06974557 -0.033337325 0.829 4293652719
0.071317248 -0.03333734 0.829 4292139479
0.072361417 -0.033096068 0.82300001 4291611850
0.073921815 -0.033096086 0.82300001 4291743436
0.075482249 -0.033096105 0.82300001 4291809735
0.077042736 -0.03309612 0.82300001 4291875528
0.07860326 -0.033096142 0.82300001 4292006346
0.080163836 -0.033096157 0.82300001 4292072139
0.08172448 -0.033096183 0.82300001 4291940040
0.083082765 -0.033015769 0.82099998 4292137162
0.084433511 -0.032935355 0.81900001 4292137160
0.085776731 -0.032854944 0.81699997 4292137160
0.087326199 -0.032854967 0.81699997 4291742402
0.088875711 -0.032854982 0.81699997 4291874245
0.090203941 -0.032774571 0.815 4291874243
0.091749772 -0.032774594 0.815 4291874243
0.093066715 -0.032694183 0.81300002 4291546306
0.094608881 -0.032694206 0.81300002 4291546306
0.096151076 -0.032694213 0.81300002 4291217344
0.097693354 -0.032694232 0.81300002 4291151551
0.099235684 -0.032694247 0.81300002 4291216829
0.10053015 -0.032613829 0.81099999 4291151036
0.10206879 -0.032613844 0.81099999 4290821555
0.10360753 -0.032613859 0.81099999 4290953141
0.1051463 -0.032613873 0.81099999 4290953395
0.10668514 -0.032613888 0.81099999 4290887346
0.10822403 -0.032613892 0.81099999 4290887348
0.109763 -0.032613903 0.81099999 4290821555
0.11130203 -0.032613907 0.81099999 4290558898
0.1131194 -0.032694343 0.81300002 4290558898
0.11466236 -0.032694351 0.81300002 4290558898
0.11591951 -0.032613926 0.81099999 4290558898
0.11716914 -0.0325335 0.80900002 4290493103
0.11870468 -0.0325335 0.80900002 4290427310
0.12024032 -0.0325335 0.80900002 4290164394
0.12207706 -0.032613926 0.81099999 4290295981
0.12361661 -0.032613922 0.81099999 4290492592
0.12515624 -0.032613918 0.81099999 4290492592
0.12669593 -0.032613907 0.81099999 4290558387
0.12855193 -0.032694329 0.81300002 4290360752
0.13041559 -0.032774743 0.815 4290491047
0.13196309 -0.032774728 0.815 4290688170
0.13351065 -0.032774717 0.815 4290688942
0.07236141 -0.031537008 0.82300001 4294375928
0.073921807 -0.031537011 0.82300001 4292336089
0.075482234 -0.031537015 0.82300001 4291152332
0.077042721 -0.031537015 0.82300001 4291152332
0.078412227 -0.031460371 0.82099998 4291677897
0.079969011 -0.031460375 0.82099998 4292006606
0.081724472 -0.031537019 0.82300001 4291940299
0.083285153 -0.031537019 0.82300001 4292006092
0.084639691 -0.031460382 0.82099998 4292269003
0.085986719 -0.031383742 0.81900001 4292334796
0.087539978 -0.031383742 0.81900001 4292005831
0.088875711 -0.031307101 0.81699997 4292005831
0.090425283 -0.031307098 0.81699997 4292006085
0.091749758 -0.031230457 0.815 4291874243
0.093295656 -0.031230455 0.815 4291611586
0.094841599 -0.031230455 0.815 4291480000
0.096387595 -0.031230446 0.815 4291282624
0.097933672 -0.031230442 0.815 4291216831
0.099479802 -0.031230437 0.815 4291282108
0.10077807 -0.031153796 0.81300002 4291216058
0.10232051 -0.031153789 0.81300002 4291018938
0.10386302 -0.031153778 0.81300002 4291018938
0.10540561 -0.031153768 0.81300002 4291018936
0.10694824 -0.031153763 0.81300002 4291018936
0.10875783 -0.031230384 0.815 4290887859
0.11030439 -0.03123037 0.815 4290756530
0.11185101 -0.031230355 0.815 4290624691
0.11339769 -0.031230342 0.815 4290558898
0.11494444 -0.031230321 0.815 4290624178
0.11649125 -0.031230303 0.815 4290624178
0.11774848 -0.031153644 0.81300002 4290558385
0.1192916 -0.031153619 0.81300002 4290558385
0.12053759 -0.031076953 0.81099999 4290558385
0.12207709 -0.031076929 0.81099999 4290558385
0.12392148 -0.031153537 0.81300002 4290558387
0.1254649 -0.031153504 0.81300002 4290558387
0.12700841 -0.031153478 0.81300002 4290754996
0.12855197 -0.03115344 0.81300002 4290689203
0.13041562 -0.031230038 0.815 4290623660
0.13196312 -0.031229993 0.815 4290623660
0.13383831 -0.031306595 0.81699997 4290557867
0.13605262 -0.03145982 0.82099998 4290426538
0.075482242 -0.029977925 0.82300001 4292796644
0.077042736 -0.029977908 0.82300001 4291546577
0.078412235 -0.02990504 0.82099998 4291742673
0.079969026 -0.029905023 0.82099998 4291874002
0.081724472 -0.02997786 0.82300001 4291743177
0.083285168 -0.029977845 0.82300001 4292006092
0.084639706 -0.029904975 0.82099998 4292269003
0.086196698 -0.029904954 0.82099998 4292269003
0.087539978 -0.029832089 0.81900001 4291940551
0.089093298 -0.029832067 0.81900001 4292006344
0.09042529 -0.029759195 0.81699997 4292005831
0.091974922 -0.029759176 0.81699997 4291874245
0.093295671 -0.029686308 0.815 4291677380
0.094841599 -0.029686276 0.815 4291545793
0.096387617 -0.029686255 0.815 4291479487
0.097933687 -0.029686233 0.815 4291479487
0.099479824 -0.029686209 0.815 4291347647
0.10102599 -0.029686179 0.815 4291281854
0.10257224 -0.029686149 0.815 4291215545
0.10411856 -0.029686118 0.815 4291281594
0.10592421 -0.029758936 0.81699997 4291084983
0.10747443 -0.029758902 0.81699997 4291084983
0.10902474 -0.029758867 0.81699997 4291019447
0.11057509 -0.029758833 0.81699997 4291019447
0.11212551 -0.029758794 0.81699997 4290625207
0.11367598 -0.029758753 0.81699997 4290427828
0.11522653 -0.02975871 0.81699997 4290426286
0.11649128 -0.029685818 0.815 4290623408
0.11803818 -0.029685775 0.815 4290623406
0.11929166 -0.02961288 0.81300002 4290755248
0.12083489 -0.029612828 0.81300002 4290755761
0.12237818 -0.02961278 0.81300002 4290624432
0.12392152 -0.029612726 0.81300002 4290624432
0.12546495 -0.029612664 0.81300002 4290624432
0.1273209 -0.029685453 0.815 4290821041
0.12886824 -0.029685393 0.815 4290689455
0.13073568 -0.029758172 0.81699997 4290623399
0.13228703 -0.029758113 0.81699997 4290623399
0.13449363 -0.029903732 0.82099998 4290426535
0.13605268 -0.02990366 0.82099998 4290426535
0.076855525 -0.028349735 0.82099998 4294967295
0.078412257 -0.028349703 0.82099998 4294244090
0.079969063 -0.028349673 0.82099998 4292796644
0.081724502 -0.028418699 0.82300001 4292271820
0.08328519 -0.028418664 0.82300001 4291745475
0.084845915 -0.028418628 0.82300001 4292072905
0.086406708 -0.028418595 0.82300001 4292072905
0.08775378 -0.028349493 0.82099998 4292268999
0.089310884 -0.028349455 0.82099998 4292137412
0.090646692 -0.028280357 0.81900001 4292006085
0.0922001 -0.028280314 0.81900001 4291874243
0.093753591 -0.028280273 0.81900001 4291677382
0.095307127 -0.028280228 0.81900001 4291611589
0.096624196 -0.028211124 0.81699997 4291480000
0.098174058 -0.028211076 0.81699997 4291545793
0.099723965 -0.028211026 0.81699997 4291347395
0.10127395 -0.028210977 0.81699997 4291347395
0.102824 -0.028210932 0.81699997 4291215547
0.10437412 -0.02821088 0.81699997 4291215547
0.10618358 -0.028279884 0.81900001 4291084983
0.10773759 -0.028279828 0.81900001 4291084983
0.10929167 -0.02827977 0.81900001 4291019188
0.11084583 -0.028279709 0.81900001 4291019188
0.11240004 -0.028279649 0.81900001 4290887098
0.11395431 -0.028279584 0.81900001 4290821305
0.11550867 -0.028279521 0.81900001 4290821557
0.11706308 -0.028279454 0.81900001 4290821557
0.1183279 -0.028210323 0.81699997 4290755511
0.11987864 -0.028210253 0.81699997 4290952891
0.12113219 -0.028141117 0.815 4290887348
0.12267929 -0.02814104 0.815 4290887348
0.12422644 -0.028140958 0.815 4290755759
0.12577367 -0.02814088 0.815 4290558637
0.12732096 -0.028140793 0.815 4290426797
0.12918456 -0.028209766 0.81699997 4290361004
0.13105583 -0.028278733 0.81900001 4290228904
0.13293475 -0.028347693 0.82099998 4291018164
0.13449374 -0.028347598 0.82099998 4291743427
0.13638422 -0.028416555 0.82300001 4293454044
0.078412302 -0.02679437 0.82099998 4294967295
0.079969093 -0.026794318 0.82099998 4294836223
0.081525944 -0.02679427 0.82099998 4293062137
0.083285227 -0.026859492 0.82300001 4292338671
0.084845968 -0.026859432 0.82300001 4291154631
0.08640676 -0.02685938 0.82300001 4291483595
0.087753825 -0.02679405 0.82099998 4292334796
0.089310937 -0.026793998 0.82099998 4292269003
0.090868093 -0.026793934 0.82099998 4292202440
0.092425302 -0.026793873 0.82099998 4292136647
0.093753643 -0.026728537 0.81900001 4291874504
0.095307171 -0.026728477 0.81900001 4291743175
0.096860789 -0.026728412 0.81900001 4291545793
0.098414443 -0.026728345 0.81900001 4291480000
0.099968158 -0.026728272 0.81900001 4291347397
0.10152195 -0.026728209 0.81900001 4291347397
0.10307576 -0.026728133 0.81900001 4291281592
0.10462967 -0.026728062 0.81900001 4291281592
0.10618363 -0.026727986 0.81900001 4291215797
0.10800076 -0.026793169 0.82099998 4291150004
0.10955864 -0.026793096 0.82099998 4291018416
0.11111659 -0.026793011 0.82099998 4291084209
0.11267459 -0.026792927 0.82099998 4291083957
0.11423268 -0.026792839 0.82099998 4291018164
0.11579081 -0.026792746 0.82099998 4290821552
0.11734901 -0.026792655 0.82099998 4290821552
0.11861764 -0.026727293 0.81900001 4290755759
0.11987872 -0.026661927 0.81699997 4290887346
0.12113229 -0.026596563 0.815 4290887348
0.12267938 -0.026596462 0.815 4290821555
0.12422654 -0.026596352 0.815 4290558385
0.12608241 -0.026661515 0.81699997 4290624178
0.1276335 -0.026661403 0.81699997 4290427310
0.12918466 -0.02666129 0.81699997 4290295981
0.13105594 -0.026726436 0.81900001 4290624439
0.13293485 -0.026791582 0.82099998 4292006092
0.13449383 -0.026791455 0.82099998 4293059298
0.13638431 -0.026856599 0.82300001 4294046193
0.079969145 -0.025238965 0.82099998 4294967295
0.081526004 -0.025238901 0.82099998 4294967295
0.083082907 -0.025238831 0.82099998 4293519849
0.084846035 -0.02530024 0.82300001 4291546306
0.08640682 -0.025300164 0.82300001 4291612100
0.087967679 -0.025300095 0.82300001 4292202953
0.089528568 -0.025300015 0.82300001 4292269003
0.091089532 -0.025299937 0.82300001 4292334281
0.092650533 -0.025299853 0.82300001 4292465610
0.093982667 -0.02523829 0.82099998 4292006859
0.095540009 -0.025238208 0.82099998 4291875530
0.097097389 -0.025238117 0.82099998 4292006081
0.098654844 -0.025238032 0.82099998 4291874495
0.10021237 -0.025237942 0.82099998 4291873741
0.10176992 -0.025237847 0.82099998 4291873741
0.10332755 -0.025237756 0.82099998 4291872957
0.10514078 -0.025299139 0.82300001 4291872957
0.10670234 -0.025299041 0.82300001 4291676087
0.10826396 -0.02529894 0.82300001 4291544501
0.10982563 -0.025298834 0.82300001 4291675835
0.11111668 -0.025237249 0.82099998 4291939006
0.11267469 -0.025237137 0.82099998 4291742143
0.11423276 -0.025237029 0.82099998 4291676350
0.11579091 -0.025236912 0.82099998 4291479737
0.11734913 -0.025236795 0.82099998 4291545530
0.11890741 -0.025236681 0.82099998 4291545530
0.12046576 -0.025236556 0.82099998 4291676859
0.12202417 -0.025236432 0.82099998 4291545280
0.12298054 -0.02511335 0.81699997 4291413694
0.12453149 -0.025113221 0.81699997 4291151551
0.12608254 -0.025113087 0.81699997 4293125341
0.12763363 -0.025112949 0.81699997 4294637799
0.12918478 -0.025112811 0.81699997 4294967282
0.13105609 -0.025174147 0.81900001 4294967295
0.132935 -0.02523547 0.82099998 4294967295
0.13482161 -0.025296798 0.82300001 4294967295
0.13638444 -0.02529664 0.82300001 4294967295
0.13794738 -0.025296485 0.82300001 4294967295
0.081526071 -0.023683526 0.82099998 4294967295
0.083082974 -0.02368344 0.82099998 4293651435
0.084846109 -0.023741042 0.82300001 4291742402
0.086616889 -0.023798645 0.82499999 4291018936
0.088181511 -0.023798548 0.82499999 4291478451
0.089746229 -0.023798455 0.82499999 4291939002
0.091753691 -0.023913741 0.829 4291874497
0.093100935 -0.023855947 0.82700002 4291874497
0.094440661 -0.023798153 0.82499999 4291743938
0.095772825 -0.023740353 0.82300001 4291875780
0.097334027 -0.023740247 0.82300001 4292202953
0.098895282 -0.023740139 0.82300001 4291940038
0.10045659 -0.023740027 0.82300001 4291873991
0.10201795 -0.02373991 0.82300001 4291808198
0.10357938 -0.023739794 0.82300001 4292070593
0.10539639 -0.023797365 0.82499999 4292070593
0.10696173 -0.023797244 0.82499999 4291939266
0.10852716 -0.023797121 0.82499999 4291676350
0.11009263 -0.023796992 0.82499999 4291938752
0.1113875 -0.023739172 0.82300001 4292070595
0.1129493 -0.02373904 0.82300001 4292071108
0.11451118 -0.023738906 0.82300001 4291807936
0.11607312 -0.023738768 0.82300001 4291676863
0.11763512 -0.023738625 0.82300001 4291545534
0.11919723 -0.023738483 0.82300001 4291676863
0.12075936 -0.023738334 0.82300001 4291479485
0.12232158 -0.023738185 0.82300001 4291084979
0.12388386 -0.023738032 0.82300001 4290821806
0.1248365 -0.0236225 0.81900001 4291348682
0.12639132 -0.023622341 0.81900001 4294704125
0.12794623 -0.023622181 0.81900001 4294901759
0.12950121 -0.023622014 0.81900001 4294967295
0.13137625 -0.023679527 0.82099998 4294967295
0.13293515 -0.023679355 0.82099998 4294967295
0.13482179 -0.023736864 0.82300001 4294967295
0.13671605 -0.023794362 0.82499999 4294967295
0.13828279 -0.02379418 0.82499999 4294967295
0.081724778 -0.022182057 0.82300001 4294967295
0.083285466 -0.022181947 0.82300001 4293454056
0.085258588 -0.022289651 0.82700002 4291545541
0.08682698 -0.022289541 0.82700002 4290624439
0.088395402 -0.022289423 0.82700002 4290493346
0.089963891 -0.022289308 0.82700002 4290361503
0.091753811 -0.022343095 0.829 4290754735
0.093326211 -0.022342974 0.829 4291215286
0.094898649 -0.022342848 0.829 4291478442
0.096471168 -0.022342721 0.829 4291873200
0.09757068 -0.022234788 0.82499999 4291742395
0.099135719 -0.022234656 0.82499999 4291347637
0.10070083 -0.022234524 0.82499999 4291282105
0.10226599 -0.022234386 0.82499999 4291347899
0.10383122 -0.02223425 0.82499999 4291610553
0.10539651 -0.022234108 0.82499999 4291478967
0.10722118 -0.022287862 0.82700002 4291149752
0.10879038 -0.022287713 0.82700002 4290623408
0.11009277 -0.022233667 0.82499999 4290821291
0.11138763 -0.022179609 0.82300001 4291084463
0.11294945 -0.022179458 0.82300001 4290953395
0.11478961 -0.022233196 0.82499999 4290492844
0.11635535 -0.022233034 0.82499999 4289374892
0.11792114 -0.022232864 0.82499999 4289111720
0.11948704 -0.022232698 0.82499999 4289110941
0.12105299 -0.022232527 0.82499999 4288716183
0.122619 -0.02223235 0.82499999 4288650399
0.12483668 -0.0220703 0.81900001 4291481045
0.1263915 -0.022070115 0.81900001 4294967295
0.12794641 -0.022069925 0.81900001 4294967295
0.12950136 -0.022069732 0.81900001 4294967295
0.13137645 -0.02212343 0.82099998 4294967295
0.13293535 -0.022123232 0.82099998 4294967295
0.083690383 -0.020722995 0.82700002 4293519849
0.085258707 -0.020722866 0.82700002 4292136910
0.087037072 -0.020772852 0.829 4290952893
0.088609315 -0.020772722 0.829 4290821289
0.090181597 -0.020772584 0.829 4290426787
0.091975302 -0.020822557 0.83099997 4290687393
0.093551487 -0.020822417 0.83099997 4290950565
0.095127746 -0.020822274 0.83099997 4291540905
0.097807355 -0.020721748 0.82700002 4291412408
0.099376194 -0.020721596 0.82700002 4291017651
0.10094512 -0.020721445 0.82700002 4290624430
0.10251407 -0.020721285 0.82700002 4290492844
0.1040831 -0.020721124 0.82700002 4290492842
0.1059077 -0.020771064 0.829 4289966498
0.10748062 -0.020770898 0.829 4289899167
0.10905364 -0.020770729 0.829 4289175701
0.11009293 -0.020670334 0.82499999 4289109903
0.1113878 -0.020620046 0.82300001 4289438868
0.11294962 -0.020619867 0.82300001 4289637285
0.1145115 -0.020619685 0.82300001 4288913305
0.11607345 -0.020619499 0.82300001 4288715913
0.11763545 -0.020619309 0.82300001 4288386948
0.11919756 -0.020619115 0.82300001 4287927431
0.12985702 -0.022172224 0.88499999 4288453775
