# .PCD v0.7 - Point Cloud Data file format
VERSION 0.7
FIELDS x y z rgba
SIZE 4 4 4 4
TYPE F F F U
COUNT 1 1 1 1
WIDTH 1050
HEIGHT 1
VIEWPOINT 0 0 0 1 0 0 0
POINTS 1050
DATA ascii
-0.020142127 -0.17926463 0.77999997 4294967295
-0.018662445 -0.17926408 0.77999997 4294967295
-0.01720481 -0.1794934 0.78100002 4294967295
-0.015763525 -0.17995255 0.78299999 4294967295
-0.014278198 -0.17995209 0.78299999 4294967295
-0.012792883 -0.17995165 0.78299999 4294967295
-0.011307578 -0.17995121 0.78299999 4294967295
-0.0098473756 -0.18041046 0.78500003 4294967295
-0.0083795944 -0.18086973 0.787 4294967295
-0.0068867351 -0.18086939 0.787 4294967295
-0.0053938855 -0.18086904 0.787 4294967295
-0.0039109578 -0.1813284 0.78899997 4294967295
-0.0024235093 -0.18201761 0.792 4294967295
-0.00092352333 -0.18247701 0.79400003 4294967295
0.00058404426 -0.18293642 0.796 4294967295
0.0020991936 -0.18339585 0.79799998 4294967295
0.003612872 -0.18339567 0.79799998 4294967295
0.0051522441 -0.18431482 0.80199999 4294967295
0.0066735027 -0.18431468 0.80199999 4294967295
0.008204978 -0.18454443 0.80299997 4294967295
0.0097523602 -0.18500401 0.80500001 4294967295
0.01130733 -0.18546359 0.80699998 4294967295
0.012901706 -0.18638287 0.81099999 4292667903
0.014440035 -0.18638287 0.81099999 4281680748
0.015978364 -0.18638292 0.81099999 4278190121
-0.10138467 -0.18285985 0.80199999 4294963711
-0.099861495 -0.18285821 0.80199999 4294767865
-0.098338336 -0.18285656 0.80199999 4294175985
-0.0965738 -0.18239895 0.80000001 4293847785
-0.095054545 -0.18239732 0.80000001 4294110701
-0.093067661 -0.18148376 0.796 4294110955
-0.091326036 -0.18102622 0.79400003 4294637299
-0.089592069 -0.18056867 0.792 4294440688
-0.087865748 -0.18011117 0.79000002 4294506481
-0.0863657 -0.18010965 0.79000002 4294440690
-0.084758267 -0.17988017 0.78899997 4294769398
-0.083260193 -0.17987864 0.78899997 4294769652
-0.080933169 -0.17805335 0.78100002 4294901239
-0.079450384 -0.17805192 0.78100002 4294637560
-0.077967651 -0.17805052 0.78100002 4294506231
-0.076484941 -0.17804909 0.78100002 4294703353
-0.074906245 -0.17781974 0.77999997 4294967295
-0.073425531 -0.17781837 0.77999997 4294703353
-0.071944863 -0.17781705 0.77999997 4294637560
-0.07028354 -0.17735977 0.778 4294637562
-0.068806723 -0.17735846 0.778 4294966783
-0.067329966 -0.17735721 0.778 4294967295
-0.065683931 -0.17689998 0.77600002 4294967295
-0.064211041 -0.17689876 0.77600002 4294967039
-0.06257648 -0.17644158 0.77399999 4294967295
-0.061107453 -0.1764404 0.77399999 4294967295
-0.05963847 -0.17643923 0.77399999 4294967295
-0.058169506 -0.17643808 0.77399999 4294967295
-0.056700576 -0.17643693 0.77399999 4294967295
-0.055231694 -0.1764358 0.77399999 4294967295
-0.053762827 -0.17643471 0.77399999 4294967295
-0.052226447 -0.17620569 0.773 4294967295
-0.050759546 -0.17620464 0.773 4294967295
-0.04929268 -0.17620359 0.773 4294967295
-0.047825847 -0.17620261 0.773 4294967295
-0.04635904 -0.17620161 0.773 4294967295
-0.044892266 -0.17620066 0.773 4294967295
-0.043425512 -0.17619969 0.773 4294967295
-0.041958794 -0.1761988 0.773 4294967295
-0.040492103 -0.17619789 0.773 4294967295
-0.039075918 -0.17642494 0.77399999 4294967295
-0.037607383 -0.17642412 0.77399999 4294967295
-0.036138859 -0.17642327 0.77399999 4294967295
-0.034670368 -0.17642245 0.77399999 4294967295
-0.033201903 -0.17642167 0.77399999 4294967295
-0.031733464 -0.17642094 0.77399999 4294967295
-0.030343246 -0.17687607 0.77600002 4294967295
-0.028945461 -0.17733121 0.778 4294967295
-0.027469484 -0.17733051 0.778 4294967295
-0.025926717 -0.176874 0.77600002 4294967295
-0.024454584 -0.17687337 0.77600002 4294967295
-0.022982463 -0.17687275 0.77600002 4294967295
-0.021510364 -0.17687215 0.77600002 4294967295
-0.020038279 -0.1768716 0.77600002 4294967295
-0.018566214 -0.17687106 0.77600002 4294967295
-0.017138217 -0.17732638 0.778 4294967295
-0.015702648 -0.17778175 0.77999997 4294967295
-0.014223034 -0.17778127 0.77999997 4294967295
-0.012759773 -0.17800876 0.78100002 4294967295
-0.011278289 -0.17800835 0.78100002 4294967295
-0.0098219039 -0.17846379 0.78299999 4294967295
-0.008357943 -0.17891926 0.78500003 4294967295
-0.0068689021 -0.17891893 0.78500003 4294967295
-0.0053798724 -0.17891861 0.78500003 4294967295
-0.0039007624 -0.17937416 0.787 4294967295
-0.0024171327 -0.18005767 0.79000002 4294967295
-0.00092096534 -0.18051325 0.792 4294967295
0.00058278319 -0.18096888 0.79400003 4294967295
0.002094114 -0.18142453 0.796 4294967295
0.003613027 -0.18188018 0.79799998 4294967295
0.0051395255 -0.18233591 0.80000001 4294967295
0.0066569643 -0.18233578 0.80000001 4294967295
0.0081948387 -0.18279153 0.80199999 4294967295
0.009728184 -0.18301938 0.80299997 4294967295
0.011279333 -0.1834752 0.80500001 4294967295
0.012901705 -0.18484269 0.81099999 4294967295
0.014440008 -0.18484271 0.81099999 4290823370
0.015978314 -0.18484274 0.81099999 4280705948
0.017516624 -0.18484282 0.81099999 4278190394
-0.10290627 -0.18133834 0.80199999 4291805638
-0.10138304 -0.18133667 0.80199999 4294963959
-0.099859834 -0.181335 0.80199999 4294373361
-0.098091483 -0.18088119 0.80000001 4293978603
-0.096330754 -0.18042736 0.79799998 4293650150
-0.094577663 -0.17997354 0.796 4294110701
-0.092832237 -0.17951979 0.79400003 4294045678
-0.091094449 -0.17906602 0.792 4294374642
-0.08936429 -0.17861231 0.79000002 4294242802
-0.087752983 -0.17838465 0.78899997 4294242802
-0.086254865 -0.17838316 0.78899997 4294110953
-0.084541939 -0.17792951 0.787 4294571504
-0.083047681 -0.17792803 0.787 4294637812
-0.080931731 -0.17657007 0.78100002 4294769398
-0.079448968 -0.17656864 0.78100002 4294440951
-0.077966243 -0.17656723 0.78100002 4294440951
-0.076385617 -0.17633973 0.77999997 4294769146
-0.074904881 -0.17633837 0.77999997 4294703353
-0.073424175 -0.17633699 0.77999997 4294374131
-0.071759053 -0.17588352 0.778 4294702840
-0.070282213 -0.17588219 0.778 4294637560
-0.068628557 -0.17542876 0.77600002 4294967039
-0.067155607 -0.17542751 0.77600002 4294967295
-0.065513395 -0.17497408 0.77399999 4294967295
-0.064044312 -0.17497285 0.77399999 4294835195
-0.062575273 -0.17497163 0.77399999 4294967295
-0.061027322 -0.1747444 0.773 4294967295
-0.059560239 -0.17474319 0.773 4294967295
-0.058093213 -0.17474207 0.773 4294967295
-0.056626197 -0.17474091 0.773 4294967295
-0.055159222 -0.17473979 0.773 4294967295
-0.053692285 -0.17473871 0.773 4294967295
-0.052090261 -0.17428555 0.77100003 4294967295
-0.050627176 -0.17428449 0.77100003 4294967295
-0.049291663 -0.17473556 0.773 4294967295
-0.047824852 -0.17473456 0.773 4294967295
-0.046358068 -0.17473356 0.773 4294967295
-0.044891309 -0.17473261 0.773 4294967295
-0.04342458 -0.17473167 0.773 4294967295
-0.041957889 -0.17473076 0.773 4294967295
-0.040491216 -0.17472985 0.773 4294967295
-0.039024577 -0.17472899 0.773 4294967295
-0.037557956 -0.17472814 0.773 4294967295
-0.036091354 -0.17472731 0.773 4294967295
-0.034624789 -0.17472653 0.773 4294967295
-0.033158243 -0.17472574 0.773 4294967295
-0.031691723 -0.17472498 0.773 4294967295
-0.030264322 -0.17495029 0.77399999 4294967295
-0.028870352 -0.17540164 0.77600002 4294967295
-0.027398199 -0.17540097 0.77600002 4294967295
-0.02592607 -0.1754003 0.77600002 4294967295
-0.024453957 -0.17539966 0.77600002 4294967295
-0.022981865 -0.17539907 0.77600002 4294967295
-0.021509787 -0.17539845 0.77600002 4294967295
-0.020037729 -0.1753979 0.77600002 4294967295
-0.018565686 -0.17539737 0.77600002 4294967295
-0.017093658 -0.17539684 0.77600002 4294967295
-0.015702169 -0.17630047 0.77999997 4294967295
-0.01422258 -0.17629999 0.77999997 4294967295
-0.012759343 -0.17652559 0.78100002 4294967295
-0.011277886 -0.17652518 0.78100002 4294967295
-0.0098215239 -0.1769768 0.78299999 4294967295
-0.0083362926 -0.17697646 0.78299999 4294967295
-0.006868572 -0.17742817 0.78500003 4294967295
-0.0053795683 -0.17742786 0.78500003 4294967295
-0.0038905705 -0.17742757 0.78500003 4294967295
-0.0024138177 -0.17833138 0.78899997 4294967295
-0.00091841037 -0.17855717 0.79000002 4294967295
0.00058005098 -0.17855695 0.79000002 4294967295
0.0020890313 -0.17946085 0.79400003 4294967295
0.0036041257 -0.17991273 0.796 4294967295
0.0051268036 -0.18036461 0.79799998 4294967295
0.0066570663 -0.18081652 0.80000001 4294967295
0.008174479 -0.18081644 0.80000001 4294967295
0.0097161178 -0.18126842 0.80199999 4294967295
0.011251335 -0.18149441 0.80299997 4294967295
0.012806253 -0.18194646 0.80500001 4294967295
0.01443998 -0.1833026 0.81099999 4294704123
0.015978258 -0.18330263 0.81099999 4288002023
0.017516542 -0.1833027 0.81099999 4278190642
-0.10442787 -0.17981686 0.80199999 4293584608
-0.10264798 -0.17936675 0.80000001 4294636784
-0.10112854 -0.17936511 0.80000001 4294636784
-0.099609174 -0.17936346 0.80000001 4294307564
-0.097844623 -0.1789134 0.79799998 4294307564
-0.096087717 -0.1784634 0.796 4293979114
-0.094338462 -0.17801341 0.79400003 4294176750
-0.092596836 -0.17756341 0.792 4293979887
-0.090747841 -0.17688929 0.78899997 4294374644
-0.089023396 -0.17643936 0.787 4294571254
-0.087529033 -0.17643784 0.787 4294505460
-0.086034723 -0.17643632 0.787 4294110701
-0.084110759 -0.17553811 0.78299999 4294505458
-0.082413077 -0.17508826 0.78100002 4294637299
-0.080930293 -0.17508683 0.78100002 4294966263
-0.079345807 -0.17486121 0.77999997 4294637814
-0.077865005 -0.17485979 0.77999997 4294769400
-0.076384239 -0.17485841 0.77999997 4294703607
-0.074903503 -0.17485701 0.77999997 4294637814
-0.073422827 -0.17485565 0.77999997 4294637047
-0.071757719 -0.17440599 0.778 4294966269
-0.069919571 -0.17350797 0.77399999 4294835195
-0.068450391 -0.17350669 0.77399999 4294967295
-0.066894718 -0.17328125 0.773 4294967294
-0.065258235 -0.17283167 0.77100003 4294967294
-0.063794866 -0.17283046 0.77100003 4294967039
-0.062331535 -0.17282923 0.77100003 4294967295
-0.060868241 -0.17282805 0.77100003 4294967295
-0.059404977 -0.17282687 0.77100003 4294967295
-0.057941765 -0.17282574 0.77100003 4294967295
-0.056332059 -0.17237629 0.76899999 4294967039
-0.054872707 -0.17237517 0.76899999 4294967295
-0.05341338 -0.17237411 0.76899999 4294967295
-0.052089199 -0.17282133 0.77100003 4294967295
-0.050626148 -0.1728203 0.77100003 4294967295
-0.049163114 -0.17281927 0.77100003 4294967295
-0.047700122 -0.17281827 0.77100003 4294967295
-0.046237152 -0.17281727 0.77100003 4294967295
-0.044890359 -0.17326461 0.773 4294967295
-0.04342366 -0.17326368 0.773 4294967295
-0.04195698 -0.17326277 0.773 4294967295
-0.040490337 -0.17326187 0.773 4294967295
-0.039023716 -0.173261 0.773 4294967295
-0.037557118 -0.17326015 0.773 4294967295
-0.036090542 -0.17325933 0.773 4294967295
-0.034623999 -0.17325853 0.773 4294967295
-0.033157483 -0.17325778 0.773 4294967295
-0.031690981 -0.17325702 0.773 4294967295
-0.030263603 -0.17348042 0.77399999 4294967295
-0.028869655 -0.17392799 0.77600002 4294967295
-0.027397528 -0.17392732 0.77600002 4294967295
-0.025925424 -0.17392667 0.77600002 4294967295
-0.024453336 -0.173926 0.77600002 4294967295
-0.022981264 -0.1739254 0.77600002 4294967295
-0.021453777 -0.17347655 0.77399999 4294967295
-0.019985536 -0.17347598 0.77399999 4294967295
-0.018517314 -0.17347547 0.77399999 4294967295
-0.017093161 -0.17392324 0.77600002 4294967295
-0.01562117 -0.17392272 0.77600002 4294967295
-0.014185661 -0.1743705 0.778 4294967295
-0.012742579 -0.17481831 0.77999997 4294967295
-0.011277484 -0.17504206 0.78100002 4294967295
-0.0098211458 -0.17548989 0.78299999 4294967295
-0.0083359405 -0.17548953 0.78299999 4294967295
-0.0068682441 -0.17593744 0.78500003 4294967295
-0.0053792647 -0.17593713 0.78500003 4294967295
-0.0038902932 -0.17593685 0.78500003 4294967295
-0.0024135653 -0.17683309 0.78899997 4294967295
-0.00091818272 -0.17705695 0.79000002 4294967295
0.00058025279 -0.17705674 0.79000002 4294967295
0.0020839458 -0.17750481 0.792 4294967295
0.0036042773 -0.1784011 0.796 4294967295
0.0051269298 -0.17884922 0.79799998 4294967295
0.0066571678 -0.17929737 0.80000001 4294967295
0.0081745535 -0.17929728 0.80000001 4294967295
0.0097161671 -0.17974545 0.80199999 4294967295
0.011251357 -0.17996953 0.80299997 4294967295
0.01280625 -0.18041778 0.80500001 4294967295
0.014404343 -0.18131427 0.80900002 4294967295
0.015938802 -0.18131433 0.80900002 4294179327
0.017473264 -0.18131439 0.80900002 4283586667
0.019101713 -0.18221098 0.81300002 4278190142
-0.10442618 -0.17829372 0.80199999 4293914605
-0.10264631 -0.17784746 0.80000001 4294505460
-0.10112691 -0.17784581 0.80000001 4294242289
-0.099358514 -0.17739952 0.79799998 4293847785
-0.097597785 -0.1769533 0.796 4294044907
-0.095844693 -0.17650707 0.79400003 4293847785
-0.094336867 -0.17650549 0.79400003 4294044907
-0.092244521 -0.17539243 0.78899997 4293979114
-0.090516262 -0.17494628 0.787 4294505458
-0.088795647 -0.17450018 0.78500003 4294571252
-0.087305099 -0.17449866 0.78500003 4294505458
-0.08559595 -0.17405258 0.78299999 4294045678
-0.084109284 -0.17405109 0.78299999 4294374642
-0.082411639 -0.17360508 0.78100002 4294571506
-0.080928862 -0.17360364 0.78100002 4294834678
-0.079344392 -0.17337991 0.77999997 4294571252
-0.077863604 -0.1733785 0.77999997 4294637301
-0.076382846 -0.1733771 0.77999997 4294637047
-0.074902155 -0.17337576 0.77999997 4294702840
-0.073233217 -0.17292984 0.778 4294702840
-0.07138747 -0.1720394 0.77399999 4294966269
-0.069918275 -0.17203812 0.77399999 4294769146
-0.06844911 -0.17203681 0.77399999 4294900989
-0.066893458 -0.17181329 0.773 4294900989
-0.065257005 -0.17136748 0.77100003 4294900989
-0.063793652 -0.17136627 0.77100003 4294967039
-0.062330335 -0.17136507 0.77100003 4294967039
-0.060867071 -0.17136388 0.77100003 4294704377
-0.059249736 -0.1709182 0.76899999 4294967295
-0.057790324 -0.17091705 0.76899999 4294967295
-0.056330949 -0.17091592 0.76899999 4294967295
-0.054871615 -0.17091483 0.76899999 4294967295
-0.053412303 -0.17091373 0.76899999 4294967295
-0.052088149 -0.1713572 0.77100003 4294967295
-0.050625108 -0.17135614 0.77100003 4294967295
-0.049162108 -0.17135514 0.77100003 4294967039
-0.047699135 -0.17135413 0.77100003 4294967295
-0.046236187 -0.17135316 0.77100003 4294967295
-0.044773277 -0.17135221 0.77100003 4294967295
-0.043310385 -0.17135127 0.77100003 4294967295
-0.041956082 -0.17179485 0.773 4294967295
-0.040489461 -0.17179397 0.773 4294967295
-0.039022863 -0.1717931 0.773 4294967295
-0.037556291 -0.17179224 0.773 4294967295
-0.036089741 -0.17179143 0.773 4294967295
-0.034623217 -0.17179064 0.773 4294967295
-0.033156715 -0.17178985 0.773 4294967295
-0.031690244 -0.17178911 0.773 4294967295
-0.030262887 -0.17201062 0.77399999 4294967295
-0.028794555 -0.17200992 0.77399999 4294967295
-0.027326249 -0.17200924 0.77399999 4294967295
-0.025857959 -0.17200857 0.77399999 4294967295
-0.02438969 -0.17200795 0.77399999 4294967295
-0.022921443 -0.17200735 0.77399999 4294967295
-0.021453209 -0.17200677 0.77399999 4294967295
-0.01998499 -0.17200622 0.77399999 4294967295
-0.01851679 -0.17200567 0.77399999 4294967295
-0.017048607 -0.17200516 0.77399999 4294967295
-0.015620697 -0.17244916 0.77600002 4294967295
-0.014148748 -0.17244868 0.77600002 4294967295
-0.012709483 -0.17289269 0.778 4294967295
-0.011277082 -0.17355897 0.78100002 4294967295
-0.0097956862 -0.17355859 0.78100002 4294967295
-0.0083355904 -0.17400269 0.78299999 4294967295
-0.0068504196 -0.17400233 0.78299999 4294967295
-0.0053789644 -0.17444649 0.78500003 4294967295
-0.0038999289 -0.17489065 0.787 4294967295
-0.0024071967 -0.17489038 0.787 4294967295
-0.00091679499 -0.1753346 0.78899997 4294967295
0.00058045291 -0.17555661 0.79000002 4294967295
0.0020788575 -0.17555639 0.79000002 4294967295
0.0035953713 -0.17644516 0.79400003 4294967295
0.0051142052 -0.17688946 0.796 4294967295
0.0066406233 -0.17733379 0.79799998 4294967295
0.0081541901 -0.17733371 0.79799998 4294967295
0.0096919844 -0.1777781 0.80000001 4294967295
0.011237366 -0.17822248 0.80199999 4294967295
0.012774428 -0.1784447 0.80299997 4294967295
0.014368702 -0.17933364 0.80699998 4294967295
0.015938744 -0.17977811 0.80900002 4294967295
0.017516378 -0.18022262 0.81099999 4290822851
0.019101605 -0.18066719 0.81300002 4278208131
-0.10290126 -0.17676897 0.80199999 4294044907
-0.10087243 -0.17588568 0.79799998 4294176750
-0.099107869 -0.17544323 0.796 4293979112
-0.097105742 -0.17456 0.792 4294045161
-0.095601685 -0.17455842 0.792 4294044907
-0.094097666 -0.17455681 0.792 4294176750
-0.092242971 -0.17389406 0.78899997 4294110703
-0.090514727 -0.17345174 0.787 4294374131
-0.08879412 -0.1730094 0.78500003 4294505458
-0.087081157 -0.1725671 0.78299999 4294571252
-0.085594468 -0.17256561 0.78299999 4294308338
-0.083892986 -0.17212337 0.78100002 4294374131
-0.082410179 -0.17212188 0.78100002 4294571252
-0.080823787 -0.17190005 0.77999997 4294768887
-0.079342984 -0.17189865 0.77999997 4294571254
-0.077862218 -0.17189726 0.77999997 4294505460
-0.076381482 -0.17189585 0.77999997 4294637047
-0.074900784 -0.17189449 0.77999997 4294966526
-0.072855368 -0.17057088 0.77399999 4294966521
-0.071386151 -0.17056955 0.77399999 4294967035
-0.069916978 -0.17056827 0.77399999 4294966011
-0.068359397 -0.17034659 0.773 4294966269
-0.066892192 -0.17034532 0.773 4294900989
-0.065255761 -0.16990337 0.77100003 4294835195
-0.063792437 -0.16990213 0.77100003 4294966780
-0.062329147 -0.16990092 0.77100003 4294967293
-0.060865894 -0.16989973 0.77100003 4294900989
-0.059248578 -0.16945785 0.76899999 4294967295
-0.057789184 -0.16945671 0.76899999 4294967295
-0.056329831 -0.16945559 0.76899999 4294967295
-0.054870516 -0.1694545 0.76899999 4294967295
-0.053411227 -0.16945341 0.76899999 4294967294
-0.052087098 -0.16989309 0.77100003 4294967294
-0.050624087 -0.16989204 0.77100003 4294967295
-0.049161103 -0.16989103 0.77100003 4294966782
-0.047698155 -0.16989003 0.77100003 4294967295
-0.046235226 -0.16988905 0.77100003 4294967295
-0.044772334 -0.16988809 0.77100003 4294967295
-0.043309465 -0.16988716 0.77100003 4294967295
-0.041955188 -0.17032698 0.773 4294967295
-0.040488586 -0.17032607 0.773 4294967295
-0.039022002 -0.17032519 0.773 4294967295
-0.037555456 -0.17032437 0.773 4294967295
-0.036088932 -0.17032355 0.773 4294967295
-0.034622435 -0.17032275 0.773 4294967295
-0.033155959 -0.17032199 0.773 4294967295
-0.03168951 -0.17032126 0.773 4294967295
-0.030223075 -0.17032051 0.773 4294967295
-0.028756669 -0.17031984 0.773 4294967295
-0.027290279 -0.17031914 0.773 4294967295
-0.02585732 -0.17053881 0.77399999 4294967295
-0.024389077 -0.1705382 0.77399999 4294967295
-0.022920847 -0.17053759 0.77399999 4294967295
-0.021452641 -0.17053702 0.77399999 4294967295
-0.019958626 -0.17031613 0.773 4294967295
-0.01849235 -0.17031559 0.773 4294967295
-0.017048115 -0.17053543 0.77399999 4294967295
-0.015620226 -0.17097561 0.77600002 4294967295
-0.014148303 -0.17097516 0.77600002 4294967295
-0.012676389 -0.17097472 0.77600002 4294967295
-0.011233367 -0.17141496 0.778 4294967295
-0.0097953128 -0.17207557 0.78100002 4294967295
-0.008335242 -0.17251585 0.78299999 4294967295
-0.0068500969 -0.17251551 0.78299999 4294967295
-0.0053786649 -0.17295586 0.78500003 4294967295
-0.0038996548 -0.17339623 0.787 4294967295
-0.002406948 -0.17339598 0.787 4294967295
-0.00091657136 -0.1738364 0.78899997 4294967295
0.00058065116 -0.17405649 0.79000002 4294967295
0.0020790305 -0.17405631 0.79000002 4294967295
0.0035864618 -0.1744968 0.792 4294967295
0.0050886273 -0.17449668 0.792 4294967295
0.0066407197 -0.17581849 0.79799998 4294967295
0.00815426 -0.17581841 0.79799998 4294967295
0.009692031 -0.17625903 0.80000001 4294967295
0.011209364 -0.176259 0.80000001 4294967295
0.012774421 -0.17691994 0.80299997 4294967295
0.014368668 -0.17780124 0.80699998 4294967295
0.01597809 -0.17868261 0.81099999 4294967295
0.017516296 -0.17868267 0.81099999 4294967295
0.019101495 -0.17912343 0.81300002 4289839077
0.023727534 -0.17912386 0.81300002 4278190082
-0.10036518 -0.17349622 0.79400003 4293978601
-0.098608233 -0.17305754 0.792 4293715945
-0.097104132 -0.17305596 0.792 4294110703
-0.09535867 -0.17261735 0.79000002 4294044907
-0.093739666 -0.17239727 0.78899997 4294176750
-0.092241414 -0.17239571 0.78899997 4294110701
-0.090513192 -0.17195718 0.787 4294308336
-0.088566378 -0.17108166 0.78299999 4294242543
-0.087079659 -0.17108016 0.78299999 4294571252
-0.085374363 -0.17064169 0.78100002 4294308336
-0.083891526 -0.17064023 0.78100002 4294374129
-0.082303219 -0.17042027 0.77999997 4294374129
-0.080822363 -0.17041884 0.77999997 4294571252
-0.079138137 -0.16998045 0.778 4294242543
-0.077661172 -0.16997907 0.778 4294571252
-0.076184258 -0.16997768 0.778 4294637047
-0.074515335 -0.16953938 0.77600002 4294768633
-0.072854035 -0.16910104 0.77399999 4294769400
-0.07138484 -0.16909973 0.77399999 4294900987
-0.069825359 -0.16887997 0.773 4294834682
-0.068358131 -0.1688787 0.773 4294966526
-0.066890933 -0.16887741 0.773 4294966782
-0.065254524 -0.16843924 0.77100003 4294900989
-0.06379123 -0.16843803 0.77100003 4294900987
-0.062327959 -0.16843684 0.77100003 4294966780
-0.06070682 -0.16799872 0.76899999 4294835193
-0.059247434 -0.16799758 0.76899999 4294966780
-0.057788055 -0.16799642 0.76899999 4294966780
-0.056328729 -0.1679953 0.76899999 4294967295
-0.054726731 -0.16755731 0.76700002 4294967295
-0.053271253 -0.16755623 0.76700002 4294967293
-0.052086052 -0.168429 0.77100003 4294572537
-0.050623059 -0.16842796 0.77100003 4294901502
-0.049160097 -0.16842696 0.77100003 4294835193
-0.047697164 -0.16842595 0.77100003 4294967295
-0.046234272 -0.16842502 0.77100003 4294967295
-0.044771396 -0.16842405 0.77100003 4294967295
-0.043308556 -0.16842313 0.77100003 4294967295
-0.04195429 -0.16885911 0.773 4294967295
-0.040487703 -0.16885822 0.773 4294967295
-0.039021157 -0.16885735 0.773 4294967295
-0.037554629 -0.16885653 0.773 4294967039
-0.035994761 -0.16841884 0.77100003 4294967295
-0.034532074 -0.16841805 0.77100003 4294967295
-0.033069421 -0.16841729 0.77100003 4294967295
-0.031606786 -0.16841654 0.77100003 4294967295
-0.030144176 -0.16841584 0.77100003 4294967295
-0.028755978 -0.168852 0.773 4294967295
-0.027289616 -0.1688513 0.773 4294967295
-0.025823278 -0.16885069 0.773 4294967295
-0.024356956 -0.16885008 0.773 4294967295
-0.022890644 -0.16884945 0.773 4294967295
-0.021424357 -0.16884886 0.773 4294967295
-0.01995809 -0.16884834 0.773 4294967295
-0.018491834 -0.1688478 0.773 4294967295
-0.017025599 -0.16884732 0.773 4294967295
-0.015579503 -0.16906527 0.77399999 4294967295
-0.014111397 -0.1690648 0.77399999 4294967295
-0.012675972 -0.16950123 0.77600002 4294967295
-0.011204096 -0.16950081 0.77600002 4294967295
-0.009794943 -0.17059259 0.78100002 4294967295
-0.0083136056 -0.17059223 0.78100002 4294967295
-0.0068497756 -0.17102876 0.78299999 4294967295
-0.0053783678 -0.17146529 0.78500003 4294967295
-0.0038993824 -0.17190187 0.787 4294967295
-0.0024067014 -0.17190163 0.787 4294967295
-0.00091634953 -0.17233822 0.78899997 4294967295
0.00058011245 -0.17233801 0.78899997 4294967295
0.0020792014 -0.17255628 0.79000002 4294967295
0.0035866082 -0.17299296 0.792 4294967295
0.0050887475 -0.17299284 0.792 4294967295
0.0066075283 -0.17342956 0.79400003 4294967295
0.0081543298 -0.17430319 0.79799998 4294967295
0.0096678445 -0.17430314 0.79799998 4294967295
0.011209382 -0.17473996 0.80000001 4294967295
0.012758508 -0.1751768 0.80199999 4294967295
0.014368634 -0.17626894 0.80699998 4294967295
0.015938627 -0.17670585 0.80900002 4294967295
0.017473014 -0.17670593 0.80900002 4294967295
0.019054392 -0.17714287 0.81099999 4293325311
-0.10187154 -0.17199004 0.79400003 4293979366
-0.10011073 -0.17155516 0.792 4293848037
-0.09835761 -0.17112035 0.79000002 4294044907
-0.096734717 -0.17090212 0.78899997 4294374129
-0.095236398 -0.17090055 0.78899997 4294044907
-0.093738101 -0.17089896 0.78899997 4294110701
-0.09200605 -0.17046422 0.787 4294176750
-0.090511665 -0.1704627 0.787 4294308336
-0.08856488 -0.16959476 0.78299999 4294308336
-0.086855739 -0.16916008 0.78100002 4294571252
-0.085372895 -0.16915861 0.78100002 4294374127
-0.083782643 -0.16894054 0.77999997 4294374127
-0.082301766 -0.16893908 0.77999997 4294374129
-0.08061371 -0.16850448 0.778 4294703094
-0.079136729 -0.16850306 0.778 4294571252
-0.077659793 -0.16850169 0.778 4294966009
-0.076182887 -0.1685003 0.778 4294637814
-0.074321941 -0.16763264 0.77399999 4294506229
-0.072758593 -0.16741472 0.773 4294702840
-0.071291305 -0.16741341 0.773 4294834682
-0.06982407 -0.16741212 0.773 4294834682
-0.068356849 -0.16741082 0.773 4294966011
-0.066716634 -0.16697645 0.77100003 4294966526
-0.065253295 -0.1669752 0.77100003 4294966526
-0.063790016 -0.16697399 0.77100003 4294900987
-0.062165082 -0.16653965 0.76899999 4294966780
-0.060705658 -0.16653848 0.76899999 4294966267
-0.059246283 -0.16653733 0.76899999 4294967037
-0.057786938 -0.16653618 0.76899999 4294966780
-0.056327626 -0.16653506 0.76899999 4294967295
-0.054725651 -0.16610087 0.76700002 4294967294
-0.053270202 -0.16609979 0.76700002 4294967293
-0.051949896 -0.16653186 0.76899999 4294967295
-0.050490722 -0.16653083 0.76899999 4294967295
-0.049159098 -0.16696294 0.77100003 4294967295
-0.047819912 -0.16739507 0.773 4294967295
-0.046353243 -0.1673941 0.773 4294967295
-0.0448866 -0.16739313 0.773 4294967295
-0.043419976 -0.16739219 0.773 4294967295
-0.041953396 -0.16739132 0.773 4294967295
-0.040486842 -0.16739044 0.773 4294967295
-0.039020304 -0.16738956 0.773 4294967295
-0.03755381 -0.16738875 0.773 4294967295
-0.03599396 -0.16695486 0.77100003 4294967295
-0.034531295 -0.16695406 0.77100003 4294967295
-0.033068668 -0.16695331 0.77100003 4294967295
-0.03160606 -0.16695257 0.77100003 4294967295
-0.03014347 -0.16695186 0.77100003 4294967295
-0.028755298 -0.16738422 0.773 4294967295
-0.027288957 -0.16738355 0.773 4294967295
-0.025822639 -0.16738291 0.773 4294967295
-0.024356343 -0.1673823 0.773 4294967295
-0.022890061 -0.1673817 0.773 4294967295
-0.021423796 -0.16738114 0.773 4294967295
-0.019957554 -0.16738059 0.773 4294967295
-0.018491322 -0.16738003 0.773 4294967295
-0.017025109 -0.16737954 0.773 4294967295
-0.015579039 -0.16759562 0.77399999 4294967295
-0.014110955 -0.16759515 0.77399999 4294967295
-0.012675556 -0.1680278 0.77600002 4294967295
-0.011203706 -0.1680274 0.77600002 4294967295
-0.0097820321 -0.16889313 0.77999997 4294967295
-0.0083132628 -0.1691093 0.78100002 4294967295
-0.0068494566 -0.16954203 0.78299999 4294967295
-0.0053780731 -0.16997477 0.78500003 4294967295
-0.0038991128 -0.17040756 0.787 4294967295
-0.0024064565 -0.1704073 0.787 4294967295
-0.00091612956 -0.17084013 0.78899997 4294967295
0.00058030698 -0.17083991 0.78899997 4294967295
0.0020793707 -0.17105627 0.79000002 4294967295
0.0035776943 -0.17105611 0.79000002 4294967295
0.0050760154 -0.17105599 0.79000002 4294967295
0.0066076214 -0.17192198 0.79400003 4294967295
0.0081543988 -0.17278799 0.79799998 4294967295
0.0096678874 -0.17278796 0.79799998 4294967295
0.011181375 -0.17278793 0.79799998 4294967295
0.012726681 -0.17322098 0.80000001 4294967295
0.014332991 -0.17430361 0.80500001 4294967295
0.015938565 -0.17516978 0.80900002 4294967295
0.01747293 -0.17516987 0.80900002 4294967295
0.019054281 -0.17560302 0.81099999 4294967295
-0.1018699 -0.17048225 0.79400003 4293453540
-0.10010914 -0.1700512 0.792 4293519334
-0.098356001 -0.16962016 0.79000002 4293978601
-0.096733138 -0.16940385 0.78899997 4294110187
-0.095234811 -0.16940227 0.78899997 4293649890
-0.093736529 -0.16940068 0.78899997 4294176235
-0.0920045 -0.16896974 0.787 4294176750
-0.090510122 -0.1689682 0.787 4294308336
-0.088563375 -0.16810791 0.78299999 4294242541
-0.086854264 -0.16767703 0.78100002 4294374127
-0.085371412 -0.16767554 0.78100002 4294110955
-0.083781198 -0.16745938 0.77999997 4294242541
-0.082300343 -0.16745792 0.77999997 4294308336
-0.080612309 -0.16702715 0.778 4294571252
-0.079135329 -0.16702573 0.778 4294374129
-0.077458777 -0.166595 0.77600002 4294637301
-0.075985685 -0.16659361 0.77600002 4294637047
-0.074320599 -0.16616289 0.77399999 4294702840
-0.072757266 -0.16594689 0.773 4294506229
-0.071290009 -0.16594557 0.773 4294835193
-0.069642134 -0.16551496 0.77100003 4294835193
-0.068178743 -0.16551369 0.77100003 4294769400
-0.066715397 -0.16551246 0.77100003 4294834682
-0.065082826 -0.16508186 0.76899999 4294966269
-0.063623339 -0.16508064 0.76899999 4294703353
-0.062163901 -0.16507943 0.76899999 4294835195
-0.060704507 -0.1650783 0.76899999 4294966009
-0.059245143 -0.16507713 0.76899999 4294966009
-0.057785816 -0.165076 0.76899999 4294768887
-0.056326523 -0.16507488 0.76899999 4294966780
-0.05472457 -0.16464446 0.76700002 4294966780
-0.053269152 -0.16464344 0.76700002 4294966780
-0.051813744 -0.16464238 0.76700002 4294966780
-0.050489698 -0.16507065 0.76899999 4294967294
-0.049030572 -0.16506964 0.76899999 4294967035
-0.047571491 -0.16506869 0.76899999 4294967293
-0.046232354 -0.16549703 0.77100003 4294966780
-0.044769529 -0.16549608 0.77100003 4294967295
-0.043306734 -0.16549517 0.77100003 4294967294
-0.041843966 -0.16549428 0.77100003 4294967295
-0.040381223 -0.1654934 0.77100003 4294967295
-0.03891851 -0.16549253 0.77100003 4294967295
-0.037455831 -0.16549173 0.77100003 4294967295
-0.035899792 -0.16506161 0.76899999 4294967295
-0.034440953 -0.16506085 0.76899999 4294967295
-0.032982137 -0.16506007 0.76899999 4294967295
-0.031523347 -0.16505934 0.76899999 4294967039
-0.030064574 -0.16505863 0.76899999 4294967295
-0.028680222 -0.16548721 0.77100003 4294967295
-0.027217701 -0.16548659 0.77100003 4294967295
-0.02582201 -0.16591519 0.773 4294967295
-0.024355736 -0.1659146 0.773 4294967295
-0.022889476 -0.165914 0.773 4294967295
-0.021423237 -0.1659134 0.773 4294967295
-0.019957015 -0.16591288 0.773 4294967295
-0.018490814 -0.16591237 0.773 4294967295
-0.017024623 -0.16591184 0.773 4294967295
-0.015578574 -0.16612603 0.77399999 4294967295
-0.014110519 -0.16612557 0.77399999 4294967295
-0.012675142 -0.16655441 0.77600002 4294967295
-0.011203317 -0.166554 0.77600002 4294967295
-0.0097816652 -0.16741215 0.77999997 4294967295
-0.008302277 -0.16741179 0.77999997 4294967295
-0.006831645 -0.16762611 0.78100002 4294967295
-0.005364079 -0.16805506 0.78299999 4294967295
-0.0038988441 -0.1689133 0.787 4294967295
-0.0024062137 -0.16891307 0.787 4294967295
-0.00091358973 -0.16891281 0.787 4294967295
0.00058049988 -0.16934186 0.78899997 4294967295
0.0020795385 -0.16955635 0.79000002 4294967295
0.0035778375 -0.16955619 0.79000002 4294967295
0.0050761322 -0.16955605 0.79000002 4294967295
0.0065910695 -0.1699852 0.792 4294967295
0.0081340289 -0.17084363 0.796 4294967295
0.0096679283 -0.17127281 0.79799998 4294967295
0.01118139 -0.17127278 0.79799998 4294967295
0.012726669 -0.17170204 0.80000001 4294967295
0.014297347 -0.17234595 0.80299997 4294967295
0.015899101 -0.1732045 0.80699998 4294967295
0.017472841 -0.17363386 0.80900002 4294967295
0.019054165 -0.17406319 0.81099999 4294967295
0.020643087 -0.1744926 0.81300002 4292796640
0.022185022 -0.17449273 0.81300002 4284120494
-0.10161165 -0.16854887 0.792 4293716197
-0.10010748 -0.16854724 0.792 4293979112
-0.0982299 -0.16790721 0.78899997 4293978599
-0.096486345 -0.16748001 0.787 4293978599
-0.094991833 -0.16747844 0.787 4293978601
-0.093497381 -0.16747688 0.787 4294373359
-0.092002966 -0.16747534 0.787 4294176748
-0.090278588 -0.16704822 0.78500003 4294242541
-0.08856187 -0.16662109 0.78299999 4294242795
-0.086852789 -0.16619404 0.78100002 4294308588
-0.085369952 -0.16619255 0.78100002 4294110701
-0.083779745 -0.16597828 0.77999997 4294176750
-0.082087882 -0.16555128 0.778 4294373361
-0.080403671 -0.1651243 0.77600002 4294570740
-0.078930512 -0.16512288 0.77600002 4294374131
-0.077457398 -0.16512151 0.77600002 4294374131
-0.075788483 -0.16469456 0.77399999 4294505460
-0.074223243 -0.16448043 0.773 4294768633
-0.072755955 -0.16447912 0.773 4294703094
-0.071104266 -0.16405226 0.77100003 4294966009
-0.069460206 -0.1636254 0.76899999 4294834680
-0.068000622 -0.16362417 0.76899999 4294768887
-0.066541091 -0.16362292 0.76899999 4294769146
-0.065081596 -0.16362169 0.76899999 4294900989
-0.063622147 -0.1636205 0.76899999 4294768633
-0.062162727 -0.16361931 0.76899999 4294768633
-0.060703348 -0.16361813 0.76899999 4294768633
-0.059244007 -0.163617 0.76899999 4294834682
-0.057784699 -0.16361584 0.76899999 4294834680
-0.056325424 -0.16361475 0.76899999 4294966780
-0.054723509 -0.16318814 0.76700002 4294966267
-0.053268094 -0.16318709 0.76700002 4294966009
-0.051812712 -0.16318604 0.76700002 4294966780
-0.050357386 -0.16318505 0.76700002 4294967037
-0.048902072 -0.16318405 0.76700002 4294966521
-0.047446795 -0.16318303 0.76700002 4294967292
-0.046111476 -0.1636076 0.76899999 4294967294
-0.044652469 -0.16360667 0.76899999 4294967295
-0.043305825 -0.16403127 0.77100003 4294967295
-0.041734539 -0.16360487 0.76899999 4294967295
-0.040275611 -0.16360401 0.76899999 4294967295
-0.038917672 -0.16402864 0.77100003 4294967295
-0.037455011 -0.16402782 0.77100003 4294967295
-0.03589901 -0.16360155 0.76899999 4294967295
-0.034440186 -0.16360076 0.76899999 4294967295
-0.032981396 -0.16360003 0.76899999 4294967295
-0.031522628 -0.16359928 0.76899999 4294967295
-0.030063879 -0.16359858 0.76899999 4294967295
-0.028679546 -0.16402338 0.77100003 4294967295
-0.027217051 -0.16402271 0.77100003 4294967295
-0.025754575 -0.16402207 0.77100003 4294967295
-0.024292113 -0.16402146 0.77100003 4294967295
-0.022888895 -0.16444634 0.773 4294967295
-0.02142268 -0.16444577 0.773 4294967295
-0.019956484 -0.16444525 0.773 4294967295
-0.018490303 -0.16444471 0.773 4294967295
-0.017024141 -0.16444424 0.773 4294967295
-0.015578115 -0.16465648 0.77399999 4294967295
-0.014110084 -0.16465604 0.77399999 4294967295
-0.012674731 -0.1650811 0.77600002 4294967295
-0.011202931 -0.1650807 0.77600002 4294967295
-0.0097562214 -0.16550577 0.778 4294967295
-0.008301937 -0.16593087 0.77999997 4294967295
-0.0068225828 -0.16593055 0.77999997 4294967295
-0.0053500887 -0.166143 0.78100002 4294967295
-0.0038886708 -0.16699366 0.78500003 4294967295
-0.0023998583 -0.16699339 0.78500003 4294967295
-0.00091337389 -0.16741863 0.787 4294967295
0.00058069092 -0.16784389 0.78899997 4294967295
0.0020770715 -0.1678437 0.78899997 4294967295
0.0035734484 -0.16784355 0.78899997 4294967295
0.0050762482 -0.16805616 0.79000002 4294967295
0.0065745153 -0.16805606 0.79000002 4294967295
0.0081136562 -0.1689069 0.79400003 4294967295
0.0096679684 -0.16975777 0.79799998 4294967295
0.011181406 -0.16975774 0.79799998 4294967295
0.01272666 -0.1701832 0.80000001 4294967295
0.014297307 -0.1708214 0.80299997 4294967295
0.01589904 -0.17167236 0.80699998 4294967295
0.017472751 -0.17209791 0.80900002 4294967295
0.019054053 -0.17252345 0.81099999 4294967295
0.020642946 -0.17294905 0.81300002 4294967295
-0.10161002 -0.16704497 0.792 4293781990
-0.099853098 -0.16662157 0.79000002 4293847783
-0.098228306 -0.16640903 0.78899997 4293979112
-0.096484765 -0.16598563 0.787 4293979112
-0.094990276 -0.16598405 0.787 4294044648
-0.093495831 -0.1659825 0.787 4294307564
-0.092001431 -0.16598095 0.787 4294044907
-0.090277076 -0.16555764 0.78500003 4294176750
-0.088560373 -0.16513433 0.78299999 4294110953
-0.086851299 -0.16471104 0.78100002 4294110953
-0.085259184 -0.16449869 0.77999997 4293979114
-0.083778299 -0.16449723 0.77999997 4294110701
-0.082086459 -0.16407402 0.778 4294176237
-0.080402263 -0.16365086 0.77600002 4294439152
-0.078725696 -0.16322765 0.77399999 4294176750
-0.077256389 -0.16322628 0.77399999 4294374129
-0.075689234 -0.16301404 0.773 4294374129
-0.074221909 -0.1630127 0.773 4294505458
-0.072566412 -0.16258962 0.77100003 4294505458
-0.071102977 -0.16258833 0.77100003 4294637301
-0.069458932 -0.16216527 0.76899999 4294505458
-0.06799937 -0.16216402 0.76899999 4294768887
-0.066539861 -0.1621628 0.76899999 4294769400
-0.065080389 -0.16216157 0.76899999 4294835193
-0.063620955 -0.16216037 0.76899999 4294703353
-0.062161557 -0.1621592 0.76899999 4294703353
-0.060702194 -0.16215801 0.76899999 4294637301
-0.059242874 -0.16215688 0.76899999 4294966009
-0.057783589 -0.16215576 0.76899999 4294966521
-0.056324337 -0.16215467 0.76899999 4294966521
-0.054722439 -0.16173187 0.76700002 4294703607
-0.053267043 -0.16173081 0.76700002 4294900987
-0.051811695 -0.16172977 0.76700002 4294966782
-0.050356377 -0.16172875 0.76700002 4294966782
-0.048901092 -0.16172776 0.76700002 4294966263
-0.047445834 -0.16172677 0.76700002 4294967035
-0.045990609 -0.16172583 0.76700002 4294966780
-0.044535421 -0.16172493 0.76700002 4294967295
-0.043192588 -0.16214572 0.76899999 4294967294
-0.04173366 -0.16214482 0.76899999 4294967294
-0.040274762 -0.16214396 0.76899999 4294966269
-0.03881589 -0.16214313 0.76899999 4294967039
-0.03735704 -0.16214229 0.76899999 4294967294
-0.035898216 -0.16214149 0.76899999 4294967295
-0.034439426 -0.16214073 0.76899999 4294967295
-0.032980654 -0.16213997 0.76899999 4294967295
-0.031521909 -0.16213925 0.76899999 4294967295
-0.03006318 -0.16213854 0.76899999 4294967295
-0.02860448 -0.16213785 0.76899999 4294967295
-0.027145805 -0.16213723 0.76899999 4294967295
-0.025753947 -0.16255826 0.77100003 4294967295
-0.024291515 -0.16255765 0.77100003 4294967295
-0.02288832 -0.16297874 0.773 4294967295
-0.021422131 -0.16297819 0.773 4294967295
-0.019955955 -0.16297764 0.773 4294967295
-0.0184898 -0.16297711 0.773 4294967295
-0.017023658 -0.16297661 0.773 4294967295
-0.015577658 -0.163187 0.77399999 4294967295
-0.014109652 -0.16318655 0.77399999 4294967295
-0.01267432 -0.16360781 0.77600002 4294967295
-0.011202548 -0.16360742 0.77600002 4294967295
-0.0097558619 -0.1640287 0.778 4294967295
-0.0082803145 -0.16402836 0.778 4294967295
-0.0068222713 -0.16444969 0.77999997 4294967295
-0.0053498023 -0.16466026 0.78100002 4294967295
-0.0038784998 -0.16508162 0.78299999 4294967295
-0.0023996194 -0.16550303 0.78500003 4294967295
-0.00091083936 -0.16550282 0.78500003 4294967295
0.00057940767 -0.16592427 0.787 4294967295
0.0020772358 -0.16634578 0.78899997 4294967295
0.0035735872 -0.16634563 0.78899997 4294967295
0.0050699352 -0.16634548 0.78899997 4294967295
0.0065662814 -0.1663454 0.78899997 4294967295
0.0081137195 -0.16739947 0.79400003 4294967295
0.0096437745 -0.16782106 0.796 4294967295
0.011181419 -0.16824271 0.79799998 4294967295
0.01269483 -0.16824271 0.79799998 4294967295
0.014297271 -0.16929689 0.80299997 4294967295
0.015898976 -0.17014025 0.80699998 4294967295
0.017472664 -0.17056201 0.80900002 4294967295
0.019006949 -0.17056212 0.80900002 4294967295
0.020642804 -0.17140555 0.81300002 4294967295
0.02218469 -0.17140569 0.81300002 4293850879
-0.10461681 -0.16554439 0.792 4293978601
-0.10311258 -0.16554275 0.792 4293847015
-0.10135182 -0.16512311 0.79000002 4293847015
-0.099851489 -0.16512148 0.79000002 4293912808
-0.098226719 -0.16491088 0.78899997 4293847785
-0.096483193 -0.16449127 0.787 4294242543
-0.094988711 -0.16448972 0.787 4294176233
-0.093494281 -0.16448814 0.787 4294373611
-0.091766104 -0.16406861 0.78500003 4294439150
-0.090275571 -0.16406712 0.78500003 4294636786
-0.088332675 -0.1632296 0.78100002 4294505195
-0.086738624 -0.16301912 0.77999997 4294505195
-0.085039109 -0.16259967 0.778 4294110701
-0.083562054 -0.16259821 0.778 4294176750
-0.081874028 -0.16217881 0.77600002 4294242543
-0.080400869 -0.16217741 0.77600002 4294571252
-0.078724325 -0.16175805 0.77399999 4294505712
-0.077255033 -0.16175666 0.77399999 4294637299
-0.075687878 -0.16154632 0.773 4294374129
-0.074220583 -0.16154499 0.773 4294374129
-0.072565109 -0.16112572 0.77100003 4294374129
-0.071101688 -0.16112444 0.77100003 4294571252
-0.069457673 -0.16070521 0.76899999 4294571252
-0.067998119 -0.16070394 0.76899999 4294834680
-0.066711694 -0.16112068 0.77100003 4294834678
-0.06524843 -0.16111943 0.77100003 4294834678
-0.063785218 -0.16111824 0.77100003 4294834678
-0.06232205 -0.16111706 0.77100003 4294966778
-0.060701046 -0.16069797 0.76899999 4294834678
-0.059241749 -0.16069683 0.76899999 4294966263
-0.057782475 -0.16069572 0.76899999 4294835191
-0.056323249 -0.16069461 0.76899999 4294769398
-0.054721367 -0.16027561 0.76700002 4294769146
-0.053266 -0.16027458 0.76700002 4294966782
-0.051810671 -0.16027354 0.76700002 4294966782
-0.050355375 -0.16027251 0.76700002 4294966782
-0.048900101 -0.16027153 0.76700002 4294966267
-0.04744488 -0.16027057 0.76700002 4294967295
-0.045989677 -0.16026962 0.76700002 4294966780
-0.044534501 -0.16026869 0.76700002 4294967295
-0.043191694 -0.1606857 0.76899999 4294967294
-0.041624252 -0.16026691 0.76700002 4294966780
-0.040169168 -0.16026607 0.76700002 4294966526
-0.038815062 -0.16068313 0.76899999 4294967295
-0.037356239 -0.16068232 0.76899999 4294967295
-0.035804074 -0.16026361 0.76700002 4294967295
-0.034349103 -0.16026285 0.76700002 4294967295
-0.032894142 -0.16026209 0.76700002 4294967295
-0.031521197 -0.16067927 0.76899999 4294967291
-0.030062497 -0.16067858 0.76899999 4294967292
-0.028603813 -0.16067788 0.76899999 4294967295
-0.027145157 -0.16067724 0.76899999 4294967295
-0.025686525 -0.16067661 0.76899999 4294967295
-0.02422791 -0.16067602 0.76899999 4294967295
-0.022828527 -0.16109332 0.77100003 4294967295
-0.021366155 -0.16109276 0.77100003 4294967295
-0.019955428 -0.1615101 0.773 4294967295
-0.018489297 -0.16150959 0.773 4294967295
-0.01702318 -0.16150908 0.773 4294967295
-0.015577204 -0.16171755 0.77399999 4294967295
-0.01410922 -0.16171712 0.77399999 4294967295
-0.012673914 -0.16213457 0.77600002 4294967295
-0.011202164 -0.16213417 0.77600002 4294967295
-0.0097555034 -0.16255167 0.778 4294967295
-0.0082799811 -0.16255134 0.778 4294967295
-0.0068219621 -0.16296887 0.77999997 4294967295
-0.0053426665 -0.16296858 0.77999997 4294967295
-0.0038683333 -0.16317725 0.78100002 4294967295
-0.0023932699 -0.16359486 0.78299999 4294967295
-0.00090830761 -0.16359465 0.78299999 4294967295
0.00057959481 -0.16443019 0.787 4294967295
0.0020721324 -0.16443004 0.787 4294967295
0.0035646656 -0.16442986 0.787 4294967295
0.0050571957 -0.16442974 0.787 4294967295
0.0065663685 -0.16484749 0.78899997 4294967295
0.008093344 -0.16547422 0.792 4294967295
0.0096195834 -0.16589206 0.79400003 4294967295
0.011181431 -0.16672774 0.79799998 4294967295
0.012694818 -0.16672774 0.79799998 4294967295
0.014297231 -0.16777244 0.80299997 4294967295
0.015898911 -0.16860822 0.80699998 4294967295
0.017472573 -0.16902615 0.80900002 4294967295
0.019006835 -0.16902629 0.80900002 4294967295
0.020642664 -0.16986212 0.81300002 4294967295
0.022184525 -0.16986227 0.81300002 4294967295
0.023784759 -0.17028034 0.815 4286875522
-0.10461517 -0.16404057 0.792 4293649636
-0.10285059 -0.16362469 0.79000002 4293912808
-0.10135021 -0.16362308 0.79000002 4293978342
-0.099849902 -0.16362147 0.79000002 4293978342
-0.097976148 -0.16299853 0.787 4293978603
-0.096236452 -0.16258276 0.78500003 4294110189
-0.09474577 -0.16258118 0.78500003 4293978853
-0.093255155 -0.16257966 0.78500003 4294176233
-0.091530778 -0.1621639 0.78299999 4294176748
-0.090044066 -0.16216241 0.78299999 4294242541
-0.088331193 -0.16174671 0.78100002 4294307818
-0.086514749 -0.16112392 0.778 4294439404
-0.084819064 -0.16070829 0.77600002 4294176748
-0.083345823 -0.16070686 0.77600002 4294308334
-0.081661604 -0.16029125 0.77399999 4294374129
-0.080192253 -0.16028985 0.77399999 4294505458
-0.078722939 -0.16028847 0.77399999 4294570992
-0.077153869 -0.16008002 0.773 4294505199
-0.075686544 -0.16007866 0.773 4294176750
-0.074027248 -0.15966319 0.77100003 4294242543
-0.072563805 -0.15966189 0.77100003 4294373357
-0.070915975 -0.15924643 0.76899999 4294636786
-0.069456406 -0.15924515 0.76899999 4294571506
-0.067996882 -0.15924388 0.76899999 4294637299
-0.066537417 -0.15924267 0.76899999 4294637299
-0.06507799 -0.15924148 0.76899999 4294637299
-0.063618578 -0.15924028 0.76899999 4294637301
-0.062320884 -0.15965323 0.77100003 4294768887
-0.060699906 -0.15923795 0.76899999 4294637299
-0.059240621 -0.15923682 0.76899999 4294703092
-0.057781376 -0.1592357 0.76899999 4294966263
-0.05617569 -0.15882048 0.76700002 4294966263
-0.054648962 -0.15861233 0.76599997 4294835193
-0.053195514 -0.15861131 0.76599997 4294900987
-0.051742103 -0.15861027 0.76599997 4294966780
-0.050288722 -0.15860926 0.76599997 4294900987
-0.048835374 -0.15860829 0.76599997 4294703094
-0.047443923 -0.15881439 0.76700002 4294966267
-0.045988746 -0.15881345 0.76700002 4294966009
-0.044533595 -0.15881252 0.76700002 4294967295
-0.043078471 -0.15881163 0.76700002 4294967295
-0.04162338 -0.15881075 0.76700002 4294967037
-0.040168326 -0.15880992 0.76700002 4294966526
-0.038713291 -0.15880908 0.76700002 4294966783
-0.037258282 -0.15880825 0.76700002 4294966780
-0.035803299 -0.15880747 0.76700002 4294967295
-0.034348346 -0.15880673 0.76700002 4294967295
-0.032893416 -0.15880597 0.76700002 4294967295
-0.031438511 -0.15880525 0.76700002 4294967294
-0.029983625 -0.15880457 0.76700002 4294967294
-0.028603148 -0.15921795 0.76899999 4294967295
-0.027144518 -0.15921731 0.76899999 4294967295
-0.025685903 -0.15921667 0.76899999 4294967295
-0.024227314 -0.15921608 0.76899999 4294967295
-0.022768738 -0.15921551 0.76899999 4294967295
-0.021365609 -0.15962906 0.77100003 4294967295
-0.019954905 -0.1600426 0.773 4294967295
-0.018488798 -0.16004209 0.773 4294967295
-0.017022705 -0.1600416 0.773 4294967295
-0.015617005 -0.16066225 0.77600002 4294967295
-0.014145252 -0.16066182 0.77600002 4294967295
-0.012673513 -0.16066141 0.77600002 4294967295
-0.011201784 -0.16066098 0.77600002 4294967295
-0.009730069 -0.16066062 0.77600002 4294967295
-0.0082796514 -0.16107439 0.778 4294967295
-0.0068041636 -0.16107404 0.778 4294967295
-0.0053423843 -0.16148785 0.77999997 4294967295
-0.0038631214 -0.16148755 0.77999997 4294967295
-0.0023869234 -0.16169436 0.78100002 4294967295
-0.00090577878 -0.16169414 0.78100002 4294967295
0.00057830673 -0.16252208 0.78500003 4294967295
0.0020670264 -0.16252193 0.78500003 4294967295
0.0035648011 -0.16293584 0.787 4294967295
0.005057306 -0.16293569 0.787 4294967295
0.0065498087 -0.16293558 0.787 4294967295
0.0080729667 -0.16355664 0.79000002 4294967295
0.0095953876 -0.16397065 0.792 4294967295
0.011153417 -0.16479875 0.796 4294967295
0.012694804 -0.16521284 0.79799998 4294967295
0.014332801 -0.16666211 0.80500001 4294967295
0.015898844 -0.1670762 0.80699998 4294967295
0.017472481 -0.16749036 0.80900002 4294967295
0.019006718 -0.16749048 0.80900002 4294967295
0.02059174 -0.16790465 0.81099999 4294967295
0.022184357 -0.16831887 0.81300002 4294967295
0.023726199 -0.16831908 0.81300002 4290822851
-0.10461355 -0.16253677 0.792 4293847267
-0.10284896 -0.16212471 0.79000002 4293978853
-0.10134862 -0.1621231 0.79000002 4293912806
-0.099848308 -0.1621215 0.79000002 4293847013
-0.097974576 -0.16150425 0.787 4293978349
-0.096234888 -0.16109228 0.78500003 4294110191
-0.09474422 -0.16109072 0.78500003 4293913060
-0.093016043 -0.16067876 0.78299999 4294110439
-0.091295481 -0.16026683 0.78100002 4294045159
-0.089812577 -0.16026534 0.78100002 4294110953
-0.088216603 -0.16005865 0.77999997 4294176235
-0.086513288 -0.15964676 0.778 4294373357
-0.084817633 -0.15923496 0.77600002 4294307564
-0.083344392 -0.15923351 0.77600002 4294505199
-0.081660204 -0.1588217 0.77399999 4294308336
-0.080190867 -0.15882033 0.77399999 4294374129
-0.078721575 -0.15881895 0.77399999 4294374129
-0.07715252 -0.15861239 0.773 4294374129
-0.075685218 -0.15861106 0.773 4294242289
-0.074025929 -0.15819936 0.77100003 4294308338
-0.072562508 -0.15819807 0.77100003 4294242543
-0.070914701 -0.15778641 0.76899999 4294637301
-0.069455154 -0.15778515 0.76899999 4294571504
-0.067995653 -0.15778391 0.76899999 4294571504
-0.066536196 -0.15778269 0.76899999 4294571506
-0.065076783 -0.1577815 0.76899999 4294571506
-0.063617408 -0.1577803 0.76899999 4294571252
-0.062158071 -0.15777914 0.76899999 4294637301
-0.060698763 -0.15777798 0.76899999 4294505712
-0.059239499 -0.15777686 0.76899999 4294505712
-0.057780277 -0.15777576 0.76899999 4294637301
-0.056101374 -0.15715916 0.76599997 4294966009
-0.054647911 -0.15715811 0.76599997 4294835191
-0.053194478 -0.15715705 0.76599997 4294901241
-0.051741086 -0.15715604 0.76599997 4294966521
-0.050287735 -0.15715504 0.76599997 4294966778
-0.04883441 -0.15715405 0.76599997 4294768633
-0.047381114 -0.15715308 0.76599997 4294966011
-0.045927856 -0.15715215 0.76599997 4294966009
