# .PCD v0.7 - Point Cloud Data file format
VERSION 0.7
FIELDS x y z rgba
SIZE 4 4 4 4
TYPE F F F U
COUNT 1 1 1 1
WIDTH 1048
HEIGHT 1
VIEWPOINT 0 0 0 1 0 0 0
POINTS 1048
DATA ascii
-0.10573129 0.015081051 0.62199998 4294967295
-0.10454913 0.015080279 0.62199998 4294967295
-0.10320085 0.015055273 0.62099999 4294967295
-0.1020207 0.015054516 0.62099999 4294967295
-0.10067824 0.015029528 0.62 4294967295
-0.099339649 0.015004546 0.61900002 4294505712
-0.098163486 0.015003814 0.61900002 4292927712
-0.096987396 0.01500309 0.61900002 4291611852
-0.095347025 0.014929664 0.616 4289051821
-0.094176762 0.014928957 0.616 4286749066
-0.093006529 0.014928259 0.616 4278213980
-0.091687307 0.014903337 0.61500001 4278212952
-0.090371937 0.014878421 0.61400002 4278203944
-0.089205697 0.014877745 0.61400002 4278208057
-0.088039525 0.014877078 0.61400002 4283252327
-0.087014899 0.014900652 0.61500001 4286673306
-0.085846938 0.014899997 0.61500001 4290090659
-0.084679052 0.014899353 0.61500001 4290814125
-0.08323963 0.014850266 0.61299998 4288192165
-0.082075641 0.014849638 0.61299998 4279704868
-0.080911696 0.014849018 0.61299998 4279436833
-0.07935755 0.014775739 0.61000001 4283121241
-0.077943027 0.014726696 0.60799998 4284700534
-0.076788768 0.014726104 0.60799998 4284239983
-0.075510167 0.014701303 0.60699999 4283252573
-0.074357897 0.014700728 0.60699999 4281278783
-0.073205695 0.014700162 0.60699999 4282257441
-0.071697414 0.014626952 0.60399997 4281730841
-0.070551001 0.014626403 0.60399997 4289102196
-0.069404639 0.014625862 0.60399997 4294967025
-0.028145073 0.014031546 0.57999998 4294967295
-0.027045628 0.014031317 0.57999998 4294967295
-0.025946211 0.014031099 0.57999998 4294967295
-0.024846813 0.014030885 0.57999998 4294967295
-0.023747439 0.014030681 0.57999998 4294967295
-0.02264809 0.014030485 0.57999998 4294967295
-0.021548757 0.0140303 0.57999998 4294967295
-0.02044945 0.01403012 0.57999998 4294967295
-0.019383522 0.014054139 0.58099997 4294967295
-0.018282358 0.014053978 0.58099997 4294967295
-0.017181206 0.014053825 0.58099997 4294967295
-0.016080076 0.014053678 0.58099997 4287006342
-0.01495318 0.014029355 0.57999998 4281871658
-0.013853977 0.014029227 0.57999998 4278190080
-0.012754786 0.014029107 0.57999998 4278190081
-0.011635515 0.014004808 0.579 4278781967
-0.010538246 0.014004705 0.579 4279043840
-0.0094409902 0.01400461 0.579 4284504659
-0.0083437469 0.014004527 0.579 4285490300
-0.0017483071 0.013907445 0.57499999 4278190080
-0.00065869768 0.013907419 0.57499999 4278190080
0.00043015808 0.013883216 0.574 4278190089
0.0015178646 0.013883207 0.574 4283587180
0.0026010296 0.01385902 0.57300001 4288380302
0.0036868365 0.013859025 0.57300001 4290946229
0.0047726431 0.013859044 0.57300001 4289505949
0.0058482252 0.01383488 0.57200003 4286150249
0.0069321357 0.013834914 0.57200003 4283194166
0.0080020335 0.013810764 0.57099998 4284378440
0.0090681454 0.013786628 0.56999999 4291467935
0.010148274 0.013786687 0.56999999 4294956506
0.011208707 0.013762565 0.56900001 4294498524
0.012286951 0.01376264 0.56900001 4294498524
0.013365199 0.013762723 0.56900001 4293579748
0.01441807 0.013738628 0.56800002 4288184465
0.015494436 0.013738724 0.56800002 4282732114
0.016541636 0.013714643 0.56699997 4279968808
0.017616125 0.013714759 0.56699997 4280557345
0.02183689 0.013666925 0.565 4292396464
0.023935972 0.013643056 0.56400001 4294768115
0.024916187 0.013594847 0.56199998 4294307564
0.025981301 0.013595026 0.56199998 4294044909
0.027046429 0.013595212 0.56199998 4294374131
0.028061556 0.013571219 0.56099999 4294045941
0.029124821 0.013571421 0.56099999 4290164154
0.030134298 0.013547442 0.56 4284904841
0.031140001 0.013523469 0.55900002 4278192413
0.032199532 0.013523696 0.55900002 4278716424
0.033259094 0.013523933 0.55900002 4279966491
0.034257274 0.013499981 0.55800003 4280355843
0.035314973 0.013500231 0.55800003 4285882455
0.036307517 0.013476294 0.55699998 4286151033
0.037296288 0.013452365 0.55599999 4285295724
0.038350262 0.013452638 0.55599999 4283325014
0.039404269 0.013452917 0.55599999 4280561708
-0.11028381 0.016237853 0.62099999 4294967295
-0.10910329 0.016237034 0.62099999 4294967295
-0.10792282 0.01623622 0.62099999 4294967295
-0.10674243 0.016235409 0.62099999 4294834428
-0.10539211 0.016208466 0.62 4293649137
-0.10404566 0.016181534 0.61900002 4292070104
-0.10237068 0.016102329 0.616 4288845523
-0.10120004 0.016101556 0.616 4288384972
-0.10035422 0.016153064 0.61799997 4285492095
-0.099179901 0.016152302 0.61799997 4281610565
-0.098005645 0.016151549 0.61799997 4279509050
-0.096361384 0.016072404 0.61500001 4278190102
-0.095038168 0.016045535 0.61400002 4279051799
-0.09387169 0.016044809 0.61400002 4284183653
-0.092705272 0.016044091 0.61400002 4288192874
-0.091389813 0.016017251 0.61299998 4289837699
-0.090225436 0.016016548 0.61299998 4294045116
-0.08891581 0.015989726 0.61199999 4294966218
-0.087753423 0.015989041 0.61199999 4294966527
-0.086591102 0.015988365 0.61199999 4294967295
-0.085428841 0.015987694 0.61199999 4294832383
-0.084128939 0.015960909 0.611 4294240254
-0.082968675 0.015960258 0.611 4290620889
-0.081272908 0.01585513 0.60699999 4289633994
-0.079988368 0.015828377 0.60600001 4291414196
-0.078837782 0.015827753 0.60600001 4292006333
-0.077687249 0.015827136 0.60600001 4292793307
-0.076536767 0.015826529 0.60600001 4291543497
-0.075137548 0.015773699 0.60399997 4288054403
-0.073990963 0.015773106 0.60399997 4282330412
-0.073085658 0.015824752 0.60600001 4281474853
-0.07157927 0.015745837 0.60299999 4279566856
-0.070434757 0.015745273 0.60299999 4287066461
-0.069290288 0.015744716 0.60299999 4294967278
-0.068145871 0.015744168 0.60299999 4294967295
-0.067001507 0.015743626 0.60299999 4292795610
-0.065747961 0.015716987 0.602 4291674313
-0.064605601 0.015716465 0.602 4293845739
-0.039276324 0.015185591 0.58200002 4294242543
-0.038172796 0.015185267 0.58200002 4294703094
-0.037005603 0.015158861 0.58099997 4294967295
-0.035904031 0.015158555 0.58099997 4294967295
-0.034802489 0.015158257 0.58099997 4294967295
-0.033700973 0.015157966 0.58099997 4294967295
-0.03259949 0.015157686 0.58099997 4294967295
-0.031498037 0.015157414 0.58099997 4294967295
-0.030396612 0.015157151 0.58099997 4294967295
-0.02924479 0.01513081 0.57999998 4294967295
-0.028145313 0.015130564 0.57999998 4293649137
-0.027045859 0.015130326 0.57999998 4291806933
-0.025946431 0.015130099 0.57999998 4289372855
-0.024804186 0.01510379 0.579 4288649132
-0.023706701 0.015103579 0.579 4289764295
-0.022648284 0.015129463 0.57999998 4294965503
-0.021511791 0.015103183 0.579 4294967295
-0.020414371 0.015103 0.579 4294967295
-0.019383689 0.01515499 0.58099997 4294966271
-0.018282516 0.015154823 0.58099997 4294967295
-0.017181359 0.015154663 0.58099997 4294967295
-0.016052544 0.015128429 0.57999998 4290295992
-0.014953313 0.015128287 0.57999998 4283258760
-0.013854102 0.015128157 0.57999998 4278190124
-0.012732913 0.015101948 0.579 4279308312
-0.011635624 0.015101832 0.579 4279505690
-0.0039207609 0.014970865 0.574 4293651700
-0.002833026 0.014970819 0.574 4286677642
-0.0017452977 0.014970782 0.574 4286747770
0.00042939492 0.014944656 0.57300001 4292464317
0.0025964933 0.014918564 0.57200003 4291415477
0.0069079339 0.014866479 0.56999999 4282797312
0.0079740519 0.014840439 0.56900001 4284441862
0.0090522906 0.014840489 0.56900001 4288514927
0.01011273 0.014814467 0.56800002 4288778099
0.01116938 0.014788451 0.56699997 4283967363
0.012243843 0.014788528 0.56699997 4282717296
0.013318309 0.014788614 0.56699997 4280942878
0.017554108 0.014736869 0.565 4280162074
0.024872035 0.014633594 0.56099999 4294439404
0.025935257 0.014633778 0.56099999 4294175983
0.028011741 0.014608086 0.56 4294045680
0.029021204 0.014582209 0.55900002 4292664027
0.030080708 0.014582426 0.55900002 4289376185
0.031084523 0.014556565 0.55800003 4278322961
0.03214217 0.014556798 0.55800003 4278190080
0.033199839 0.01455704 0.55800003 4278980879
0.034196127 0.014531199 0.55699998 4279107586
0.035188653 0.014505368 0.55599999 4278190080
0.036177412 0.014479544 0.55500001 4279304192
0.037229482 0.014479818 0.55500001 4279042048
0.038212594 0.014454007 0.55400002 4282007296
0.039262813 0.014454296 0.55400002 4282402048
0.041363336 0.014454897 0.55400002 4287599733
-0.10992946 0.017359691 0.61900002 4294967295
-0.10875275 0.017358851 0.61900002 4294967295
-0.1070547 0.017273886 0.616 4294834682
-0.10588379 0.017273059 0.616 4291873741
-0.10454297 0.017244203 0.61500001 4291018945
-0.10303792 0.017187314 0.61299998 4289374377
-0.10187291 0.017186515 0.61299998 4284252303
-0.10054367 0.017157691 0.61199999 4280502102
-0.099380679 0.017156906 0.61199999 4281017923
-0.098378234 0.017184161 0.61299998 4279109926
-0.097054884 0.01715536 0.61199999 4279898145
-0.095892072 0.017154599 0.61199999 4278977043
-0.094729334 0.017153846 0.61199999 4281871365
-0.093566641 0.017153101 0.61199999 4290753420
-0.092404015 0.017152362 0.61199999 4291018432
-0.09109237 0.017123608 0.611 4293387236
-0.089931764 0.017122885 0.611 4294966525
-0.088771217 0.017122172 0.611 4294967295
-0.087610729 0.017121466 0.611 4294967295
-0.086450286 0.017120769 0.611 4294703353
-0.085289918 0.01712008 0.611 4294110451
-0.083441153 0.016979305 0.60600001 4292465882
-0.082018778 0.016922602 0.60399997 4289637292
-0.080871873 0.016921943 0.60399997 4292203476
-0.079989024 0.016977325 0.60600001 4294176498
-0.078578219 0.01692065 0.60399997 4293715947
-0.07743147 0.016920017 0.60399997 4294176246
-0.076158486 0.016891381 0.60299999 4291281354
-0.075013749 0.016890764 0.60299999 4287398549
-0.073869064 0.016890157 0.60299999 4281937730
-0.072603822 0.016861547 0.602 4281215275
-0.071461141 0.016860958 0.602 4278386688
-0.070201702 0.016832368 0.60100001 4285749835
-0.069061033 0.016831797 0.60100001 4294965996
-0.067920394 0.016831232 0.60100001 4294967295
-0.066224247 0.016690653 0.59600002 4292861151
-0.065748498 0.016858131 0.602 4291936956
-0.042733837 0.016345555 0.58399999 4293912810
-0.041626398 0.01634519 0.58399999 4293846502
-0.040449619 0.016316852 0.583 4294833397
-0.039276659 0.016288519 0.58200002 4294966270
-0.03817312 0.016288184 0.58200002 4294967295
-0.037005913 0.01625987 0.58099997 4294967295
-0.035904333 0.016259555 0.58099997 4294967295
-0.034802783 0.016259247 0.58099997 4294967295
-0.033701267 0.016258948 0.58099997 4294967295
-0.03259977 0.016258659 0.58099997 4294967295
-0.031498309 0.016258378 0.58099997 4294967295
-0.030396873 0.016258104 0.58099997 4294900735
-0.029245045 0.016229857 0.57999998 4293979633
-0.028145557 0.016229602 0.57999998 4289184968
-0.027046092 0.016229356 0.57999998 4286948006
-0.025901923 0.01620114 0.579 4282739300
-0.024804406 0.016200913 0.579 4281883992
-0.023706911 0.016200695 0.579 4287794016
-0.022609435 0.016200483 0.579 4294966738
-0.021511983 0.016200284 0.579 4294967295
-0.020414552 0.016200094 0.579 4294966267
-0.019350505 0.01622789 0.57999998 4294834682
-0.018219749 0.016199736 0.579 4294967295
-0.017122373 0.016199574 0.579 4294967295
-0.016025016 0.016199417 0.579 4291809231
-0.014901889 0.01617129 0.57800001 4287336868
-0.01380646 0.016171154 0.57800001 4278190096
-0.012689053 0.01614305 0.57700002 4278779923
-0.011595545 0.016142931 0.57700002 4279503389
-0.0093922587 0.01611474 0.57599998 4289231747
-0.0082718618 0.016058695 0.574 4292395721
-0.0071840859 0.016058611 0.574 4294966527
-0.0050085611 0.016058473 0.574 4294966522
-0.00391398 0.01603044 0.57300001 4293915386
-0.0028281319 0.016030394 0.57300001 4290559943
0.0068837334 0.015890492 0.56800002 4285752913
0.011149754 0.015834762 0.56599998 4278193933
0.012222328 0.01583484 0.56599998 4278192904
0.024827877 0.015668577 0.56 4294177263
0.026902448 0.015640981 0.55900002 4294175983
0.028969498 0.015613421 0.55800003 4294308338
0.03716268 0.015503502 0.55400002 4281869596
-0.10939755 0.018444026 0.616 4294967295
-0.10805082 0.018413225 0.61500001 4294967295
-0.10670795 0.018382428 0.61400002 4293848037
-0.10536895 0.018351642 0.61299998 4281215781
-0.10420381 0.018350806 0.61299998 4278195968
-0.10303874 0.018349977 0.61299998 4278526720
-0.10170752 0.018319219 0.61199999 4278198825
-0.10054448 0.018318405 0.61199999 4278265390
-0.099381462 0.018317599 0.61199999 4280628019
-0.098058045 0.018286871 0.611 4281154363
-0.096897073 0.018286081 0.611 4281808443
-0.095579468 0.018255372 0.61000001 4280887341
-0.09442053 0.018254602 0.61000001 4284237405
-0.093108751 0.018223912 0.60900003 4294963455
-0.091951802 0.018223153 0.60900003 4294967295
-0.090794936 0.018222407 0.60900003 4294967295
-0.089638121 0.018221665 0.60900003 4294967295
-0.088481359 0.018220933 0.60900003 4292466647
-0.087181263 0.018190291 0.60799998 4286805688
-0.085885026 0.018159658 0.60699999 4281871213
-0.084592648 0.018129036 0.60600001 4280489784
-0.083166435 0.018068511 0.60399997 4278190097
-0.082019456 0.018067826 0.60399997 4284427078
-0.080872536 0.018067148 0.60399997 4294493406
-0.079593673 0.018036565 0.60299999 4292727514
-0.078448765 0.018035905 0.60299999 4290161844
-0.077175707 0.018005345 0.602 4286348969
-0.075906523 0.017974796 0.60100001 4283717505
-0.07476557 0.017974164 0.60100001 4282593107
-0.073502161 0.017943632 0.60000002 4282001227
-0.07224261 0.017913109 0.59899998 4281741623
-0.070868216 0.017852699 0.597 4278321155
-0.069735058 0.017852103 0.597 4284171069
-0.068487048 0.017821616 0.59600002 4294964205
-0.067355908 0.017821038 0.59600002 4294967295
-0.066224806 0.017820468 0.59600002 4293847783
-0.06542141 0.017909609 0.59899998 4292464849
-0.064284705 0.01790905 0.59899998 4293517537
-0.063148059 0.017908506 0.59899998 4294044394
-0.04384169 0.017452717 0.58399999 4294967295
-0.042734213 0.017452335 0.58399999 4294967295
-0.04155549 0.017422078 0.583 4294967295
-0.040449973 0.017421713 0.583 4294967295
-0.039277002 0.017391475 0.58200002 4294967295
-0.038107868 0.017361248 0.58099997 4294967295
-0.037006244 0.017360909 0.58099997 4294967295
-0.035904653 0.017360583 0.58099997 4294967295
-0.034803092 0.017360264 0.58099997 4293517046
-0.033701561 0.017359955 0.58099997 4291609049
-0.03254395 0.017329777 0.57999998 4285753277
-0.031444378 0.017329486 0.57999998 4284371624
-0.030344825 0.017329207 0.57999998 4281742425
-0.029245304 0.017328933 0.57999998 4278190115
-0.028097285 0.017298795 0.579 4278190080
-0.02699971 0.017298542 0.579 4278190080
-0.025902156 0.017298296 0.579 4278190080
-0.024761792 0.017268186 0.57800001 4278190080
-0.023666183 0.017267961 0.57800001 4282529872
-0.022570597 0.017267745 0.57800001 4294635775
-0.021475028 0.017267538 0.57800001 4294967295
-0.020379486 0.017267339 0.57800001 4294967033
-0.019250596 0.017237276 0.57700002 4294966263
-0.018156987 0.017237099 0.57700002 4294967292
-0.01706339 0.017236928 0.57700002 4294967295
-0.015914459 0.017177021 0.57499999 4293453542
-0.014824688 0.017176868 0.57499999 4290822849
-0.013734934 0.017176727 0.57499999 4278190080
-0.012645193 0.017176593 0.57499999 4278190089
-0.011535371 0.017146599 0.574 4279178535
-0.010447553 0.017146487 0.574 4279828487
-0.0093597453 0.017146382 0.574 4284762707
-0.0082575399 0.017116418 0.57300001 4288250261
-0.0071716495 0.017116329 0.57300001 4294963711
-0.10922083 0.019580681 0.61500001 4294967295
-0.107876 0.019547956 0.61400002 4294967295
-0.106535 0.019515241 0.61299998 4293321441
-0.10536981 0.019514378 0.61299998 4281478445
-0.10420466 0.019513514 0.61299998 4278190080
-0.10287149 0.01948083 0.61199999 4280693028
-0.10170834 0.019479983 0.61199999 4281084470
-0.10038099 0.019447315 0.611 4281610814
-0.099219896 0.019446492 0.611 4282662725
-0.097898372 0.019413846 0.61000001 4282794054
-0.096580692 0.019381212 0.60900003 4282202426
-0.095423579 0.019380409 0.60900003 4280491551
-0.094111726 0.019347792 0.60799998 4284696913
-0.092956625 0.019347006 0.60799998 4294963706
-0.091801576 0.01934623 0.60799998 4294967295
-0.090497486 0.019313643 0.60699999 4294967295
-0.0891973 0.019281071 0.60600001 4294967295
-0.087755635 0.019216686 0.60399997 4290493887
-0.086608432 0.019215947 0.60399997 4283983991
-0.085461266 0.019215215 0.60399997 4278190866
-0.084174588 0.01918268 0.60299999 4278190094
-0.083029464 0.019181971 0.60299999 4278717730
-0.081884347 0.019181263 0.60299999 4285413376
-0.080739327 0.01918057 0.60299999 4290347580
-0.079462357 0.019148072 0.602 4289831316
-0.078319348 0.019147394 0.602 4287396975
-0.077048168 0.019114921 0.60100001 4278207336
-0.075780854 0.019082457 0.60000002 4278208621
-0.074641801 0.019081805 0.60000002 4278199117
-0.073380284 0.019049361 0.59899998 4279778663
-0.072002023 0.018985128 0.597 4282792510
-0.07075011 0.018952703 0.59600002 4279371274
-0.069502041 0.018920293 0.59500003 4282850329
-0.068372741 0.018919695 0.59500003 4294959581
-0.067243479 0.018919103 0.59500003 4294967295
-0.066114269 0.018918514 0.59500003 4294835195
-0.065094315 0.018949734 0.59600002 4292137944
-0.063963309 0.018949168 0.59600002 4292664288
-0.062937759 0.018980399 0.597 4293846754
-0.043767005 0.018527754 0.583 4294967295
-0.042661421 0.018527362 0.583 4294967295
-0.041484587 0.0184952 0.58200002 4294967295
-0.040311571 0.018463043 0.58099997 4294967295
-0.039209872 0.018462677 0.58099997 4294967295
-0.038108215 0.018462323 0.58099997 4294967295
-0.037006579 0.018461976 0.58099997 4294966783
-0.035843182 0.018429864 0.57999998 4294242289
-0.03474351 0.018429535 0.57999998 4288987852
-0.033643868 0.018429216 0.57999998 4286553511
-0.032544252 0.018428903 0.57999998 4282279020
-0.031444665 0.018428605 0.57999998 4278192658
-0.03029279 0.018396543 0.579 4278911014
-0.029195156 0.018396264 0.579 4279173675
-0.028097548 0.018395996 0.579 4279240722
-0.026999962 0.018395733 0.579 4279635480
-0.025857667 0.018363707 0.57800001 4278979090
-0.024762027 0.018363466 0.57800001 4278190080
-0.02366641 0.018363236 0.57800001 4283448576
-0.022531761 0.018331241 0.57700002 4294963630
-0.021400925 0.018299259 0.57599998 4294637814
-0.020309161 0.018299051 0.57599998 4294900987
-0.019184057 0.01826709 0.57499999 4294966263
-0.018094225 0.018266905 0.57499999 4294966263
-0.016974842 0.018234963 0.574 4294966011
-0.015859263 0.018203031 0.57300001 4294834682
-0.014773273 0.018202871 0.57300001 4291022293
-0.013711187 0.018234495 0.574 4279113760
-0.012601343 0.01820259 0.57300001 4278190090
-0.011515395 0.018202463 0.57300001 4279178285
-0.0028084777 0.018074725 0.56900001 4294899703
0.003641841 0.01797932 0.56599998 4294176496
-0.10886655 0.020679837 0.61299998 4294967295
-0.10752551 0.020645197 0.61199999 4294967295
-0.10636211 0.020644296 0.61199999 4293847787
-0.10519881 0.020643407 0.61199999 4283320651
-0.10403554 0.020642523 0.61199999 4279968035
-0.10270425 0.02060792 0.611 4282534219
-0.10154302 0.020607054 0.611 4282466377
-0.10038185 0.020606196 0.611 4282466377
-0.099058345 0.020571621 0.61000001 4282794306
-0.09773872 0.020537058 0.60900003 4282596928
-0.096422926 0.020502506 0.60799998 4282071871
-0.095267698 0.020501681 0.60799998 4280360997
-0.093957737 0.020467149 0.60699999 4283778106
-0.092651628 0.020432625 0.60600001 4294897123
-0.091500372 0.02043183 0.60600001 4294967295
-0.090051003 0.020363612 0.60399997 4294967295
-0.088756472 0.020329123 0.60299999 4294967295
-0.087611102 0.02032836 0.60299999 4290888129
-0.086465769 0.020327596 0.60299999 4283528330
-0.085320503 0.020326849 0.60299999 4278190874
-0.084175296 0.020326104 0.60299999 4278191366
-0.082892463 0.020291666 0.602 4278196506
-0.08174926 0.020290943 0.602 4282779392
-0.080606125 0.020290226 0.602 4283700481
-0.07933104 0.020255819 0.60100001 4286738432
-0.07805983 0.020221423 0.60000002 4287593739
-0.076920643 0.02022073 0.60000002 4287202720
-0.075655207 0.020186352 0.59899998 4288781495
-0.074393652 0.020151988 0.59799999 4288518284
-0.073013417 0.020083932 0.59600002 4282531378
-0.071761444 0.020049591 0.59500003 4282265910
-0.070513308 0.020015255 0.59399998 4280094997
-0.069385834 0.020014627 0.59399998 4281863172
-0.06825842 0.020014009 0.59399998 4294824393
-0.06713105 0.020013401 0.59399998 4294967294
-0.066003725 0.020012798 0.59399998 4294967289
-0.064985685 0.020045901 0.59500003 4292990954
-0.06385655 0.020045312 0.59500003 4291609301
-0.045820992 0.019566195 0.58099997 4294967295
-0.044719111 0.019565772 0.58099997 4294967295
-0.043617271 0.019565359 0.58099997 4294967295
-0.042515464 0.019564953 0.58099997 4294572789
-0.041413687 0.019564558 0.58099997 4292003823
-0.040311936 0.019564172 0.58099997 4290753756
-0.03914275 0.019530125 0.57999998 4285685935
-0.038042974 0.019529756 0.57999998 4285028262
-0.036943227 0.019529399 0.57999998 4283648348
-0.035843518 0.019529054 0.57999998 4282003524
-0.034683935 0.019495048 0.579 4281087566
-0.033586178 0.01949472 0.579 4281021773
-0.032488454 0.019494401 0.579 4280958513
-0.031390749 0.019494088 0.579 4280037411
-0.030293081 0.019493794 0.579 4280956727
-0.029145012 0.019459838 0.57800001 4281417278
-0.028049288 0.019459557 0.57800001 4281281597
-0.026953587 0.019459285 0.57800001 4281347390
-0.025857916 0.019459028 0.57800001 4279967032
-0.024719426 0.019425115 0.57700002 4278190087
-0.023625694 0.019424872 0.57700002 4282458112
-0.02249293 0.019390978 0.57599998 4293379732
-0.021363985 0.019357091 0.57499999 4294964968
-0.020274106 0.019356882 0.57499999 4294965225
-0.019150885 0.019323017 0.574 4294899701
-0.01806294 0.019322827 0.574 4294833908
-0.016945438 0.019288985 0.57300001 4294768887
-0.015859425 0.019288817 0.57300001 4294966780
-0.0060328133 0.019119415 0.56800002 4294964717
-0.0049476712 0.019085681 0.56699997 4294438373
-0.0038663277 0.019051958 0.56599998 4294504947
-0.002793717 0.019051904 0.56599998 4294570740
-0.0017211122 0.019051863 0.56599998 4294307566
-0.00064851239 0.019051829 0.56599998 4294307566
-0.10851227 0.021771431 0.611 4294967295
-0.10735072 0.021770503 0.611 4294967295
-0.10618922 0.021769585 0.611 4294176496
-0.10502781 0.021768672 0.611 4282991686
-0.10386644 0.021767769 0.611 4280097825
-0.10253703 0.021731243 0.61000001 4282466373
-0.1013777 0.021730358 0.61000001 4282925643
-0.10021841 0.021729479 0.61000001 4282662471
-0.097579055 0.021656502 0.60799998 4282203201
-0.096265152 0.021620031 0.60699999 4281810239
-0.095111817 0.021619188 0.60699999 4279770913
-0.093803748 0.021582738 0.60600001 4283188521
-0.092346653 0.021510685 0.60399997 4294241746
-0.091199182 0.021509869 0.60399997 4294967295
-0.089902706 0.021473454 0.60299999 4294967295
-0.088610061 0.021437049 0.602 4294967295
-0.087466583 0.021436263 0.602 4291217094
-0.086179748 0.021399876 0.60100001 4285629579
-0.085038282 0.021399109 0.60100001 4278190082
-0.084036462 0.021433951 0.602 4278190080
-0.082755521 0.021397602 0.60100001 4279964179
-0.081478402 0.021361256 0.60000002 4281669403
-0.080339059 0.021360524 0.60000002 4285682775
-0.079199769 0.021359799 0.60000002 4288577374
-0.077930406 0.021323482 0.59899998 4290485372
-0.076793127 0.021322779 0.59899998 4294167274
-0.075529605 0.021286489 0.59799999 4293311965
-0.074145518 0.021214616 0.59600002 4290752448
-0.072891586 0.021178348 0.59500003 4282396737
-0.071641475 0.021142088 0.59399998 4282198320
-0.070395246 0.021105843 0.59299999 4281080095
-0.069152847 0.021069607 0.59200001 4281335808
-0.06802921 0.021068973 0.59200001 4293967551
-0.066905625 0.021068348 0.59200001 4294965749
-0.066004328 0.021138908 0.59399998 4294967295
-0.053535737 0.020670732 0.58099997 4293715432
-0.052343331 0.020634655 0.57999998 4294966013
-0.051243097 0.020634159 0.57999998 4294967295
-0.05014291 0.020633675 0.57999998 4294967295
-0.049042761 0.020633202 0.57999998 4294967295
-0.047942664 0.020632742 0.57999998 4294967295
-0.046842597 0.020632289 0.57999998 4294967295
-0.045742564 0.020631842 0.57999998 4294967295
-0.044719536 0.020666977 0.58099997 4294967295
-0.043617681 0.020666549 0.58099997 4294177779
-0.042515866 0.020666135 0.58099997 4293256677
-0.041414086 0.020665728 0.58099997 4288003776
-0.040242951 0.02062976 0.57999998 4284977042
-0.039143134 0.020629376 0.57999998 4282210660
-0.038043343 0.020628994 0.57999998 4280171077
-0.036879897 0.020593064 0.579 4282331205
-0.035782069 0.020592704 0.579 4282068033
-0.034624372 0.020556794 0.57800001 4282792006
-0.033528499 0.020556459 0.57800001 4283252557
-0.03243266 0.020556131 0.57800001 4283320385
-0.031282626 0.020520249 0.57700002 4282662455
-0.030188741 0.020519942 0.57700002 4282333503
-0.029094877 0.020519646 0.57700002 4281609781
-0.028001038 0.020519357 0.57700002 4281018677
-0.025768697 0.02048325 0.57599998 4280689712
-0.021327047 0.020411167 0.574 4293254101
-0.019117717 0.020375187 0.57300001 4294570738
-0.0081569459 0.020124784 0.56599998 4282653440
-0.0070717758 0.020089131 0.565 4294693547
-0.0060010278 0.020089047 0.565 4293979364
-0.0049302876 0.020088974 0.565 4294308586
-0.0038595553 0.020088905 0.565 4294372848
-0.0027888301 0.020088855 0.565 4294306799
-0.0017181102 0.020088809 0.565 4294176235
-0.0006439584 0.019982109 0.56199998 4294176235
0.00042106651 0.019982083 0.56199998 4294110701
0.0014834437 0.019946514 0.56099999 4294110701
0.0025465672 0.01994651 0.56099999 4294176496
0.0046811393 0.019982079 0.56199998 4294569970
0.0057359301 0.019946549 0.56099999 4294767350
0.0067990515 0.019946584 0.56099999 4294767863
0.01101216 0.019875711 0.55900002 4293584877
0.012049912 0.019840237 0.55800003 4292203224
0.013107369 0.01984033 0.55800003 4290690246
0.019312827 0.019698858 0.55400002 4278255623
0.020362768 0.019699022 0.55400002 4278190080
0.021412713 0.019699188 0.55400002 4278190080
-0.10833561 0.022892995 0.61000001 4294967295
-0.10717596 0.022892049 0.61000001 4294967295
-0.10619015 0.022928629 0.611 4294110703
-0.097419433 0.022772186 0.60699999 4282465340
-0.096107431 0.022733796 0.60600001 4282268994
-0.093495004 0.022657052 0.60399997 4283249688
-0.092194587 0.0226187 0.60299999 4294961613
-0.091049016 0.022617862 0.60299999 4294967295
-0.089754418 0.022579534 0.602 4294967295
-0.088463664 0.022541206 0.60100001 4294967295
-0.087176785 0.022502899 0.60000002 4292335575
-0.086037152 0.022502102 0.60000002 4287207096
-0.08489757 0.022501318 0.60000002 4287207096
-0.083758034 0.022500537 0.60000002 4292662950
-0.082618564 0.022499766 0.60000002 4293847224
-0.081343345 0.022461507 0.59899998 4294966002
-0.080205895 0.022460757 0.59899998 4294967295
-0.077801034 0.022421788 0.59799999 4294967295
-0.075403996 0.022382861 0.597 4291936495
-0.073897392 0.022269685 0.59399998 4289702558
-0.072769746 0.022268994 0.59399998 4280162830
-0.071400933 0.022193337 0.59200001 4278849820
-0.070158489 0.022155181 0.59100002 4278190082
-0.068919867 0.022117032 0.58999997 4278190080
-0.067800023 0.022116384 0.58999997 4290295477
-0.066793248 0.022153229 0.59100002 4294636788
-0.065671593 0.022152593 0.59100002 4294967295
-0.064550005 0.022151979 0.59100002 4294307832
-0.062247872 0.021739069 0.57999998 4291018182
-0.061041825 0.021700995 0.579 4291479246
-0.059943143 0.021700416 0.579 4293584879
-0.058844507 0.021699846 0.579 4294768369
-0.057845637 0.021736758 0.57999998 4294966263
-0.05674519 0.021736203 0.57999998 4294967295
-0.055740725 0.021773133 0.58099997 4294967295
-0.054638471 0.021772597 0.58099997 4294967295
-0.053536251 0.02177207 0.58099997 4294967295
-0.05234383 0.021734083 0.57999998 4294967295
-0.051243588 0.021733575 0.57999998 4294967295
-0.050143395 0.021733077 0.57999998 4294967295
-0.049043242 0.021732591 0.57999998 4294704377
-0.047943123 0.021732114 0.57999998 4291278831
-0.046843056 0.02173165 0.57999998 4290094556
-0.045743011 0.021731192 0.57999998 4284305318
-0.044643003 0.021730741 0.57999998 4283647387
-0.043543044 0.021730306 0.57999998 4282141017
-0.042443104 0.021729877 0.57999998 4281614673
-0.041343208 0.021729458 0.57999998 4280566841
-0.040243343 0.02172905 0.57999998 4280172083
-0.03907603 0.02169119 0.579 4281550404
-0.037978128 0.021690803 0.579 4282010955
-0.036880262 0.021690425 0.579 4282992719
-0.035720628 0.0216526 0.57800001 4282861133
-0.034564812 0.021614781 0.57700002 4282860100
-0.033470832 0.021614436 0.57700002 4282596928
-0.032264646 0.021539178 0.57499999 4282203178
-0.031174511 0.021538854 0.57499999 4280623890
-0.030084403 0.021538539 0.57499999 4280095779
-0.028994322 0.021538233 0.57499999 4279240470
-0.027855737 0.021500481 0.574 4279504934
-0.026767602 0.0215002 0.574 4280097327
-0.025679491 0.02149993 0.574 4279967534
-0.02125296 0.021424025 0.57200003 4292462520
-0.01352053 0.021197973 0.56599998 4288059032
-0.012425816 0.021160372 0.565 4278192747
-0.011355002 0.021160234 0.565 4278190175
-0.010284201 0.021160105 0.565 4279372805
-0.0092134122 0.021159984 0.565 4278190080
-0.0081426362 0.021159882 0.565 4281205760
-0.0070718671 0.021159781 0.565 4291601290
-0.0060011093 0.021159694 0.565 4294502856
-0.0017090279 0.021047093 0.56199998 4294307564
-0.00064284296 0.021009607 0.56099999 4294505199
0.0004202968 0.021009581 0.56099999 4294571506
0.0014781445 0.020934666 0.55900002 4294703092
0.0025374882 0.02093466 0.55900002 4294834680
0.014114168 0.020822905 0.55599999 4278190080
0.015140578 0.020785566 0.55500001 4278653952
0.016192382 0.020785693 0.55500001 4279509248
0.017213123 0.020748375 0.55400002 4283452480
0.018263049 0.020748517 0.55400002 4286873459
0.01927812 0.020711217 0.55299997 4291016074
0.020289417 0.020673927 0.55199999 4291608467
0.021335587 0.020674102 0.55199999 4292464065
-0.10762618 0.023892518 0.60600001 4294967295
-0.10612271 0.0238127 0.60399997 4294967295
-0.10497449 0.023811745 0.60399997 4294110703
-0.10382637 0.023810796 0.60399997 4282991686
-0.10267831 0.023809856 0.60399997 4280622886
-0.10153028 0.023808924 0.60399997 4282333503
-0.10021614 0.023768581 0.60299999 4282531135
-0.099070139 0.023767669 0.60299999 4282596928
-0.096938841 0.023805276 0.60399997 4283055682
-0.095632531 0.023764977 0.60299999 4282860100
-0.094486766 0.023764089 0.60299999 4280096794
-0.093186267 0.023723811 0.602 4283376908
-0.092042558 0.02372295 0.602 4294958789
-0.090898871 0.023722092 0.602 4294967295
-0.089606166 0.023681847 0.60100001 4294967295
-0.088170096 0.023602201 0.59899998 4294967295
-0.087032288 0.023601377 0.59899998 4293717228
-0.085751146 0.023561167 0.59799999 4292071386
-0.084473863 0.023520961 0.597 4292531937
-0.083340034 0.02352017 0.597 4294632429
-0.082206249 0.023519382 0.597 4294963450
-0.081072517 0.023518607 0.597 4294967295
-0.079938851 0.023517838 0.597 4294967295
-0.07754156 0.023476942 0.59600002 4294110955
-0.073649272 0.023317203 0.59200001 4283269728
-0.072525419 0.023316495 0.59200001 4278201354
-0.071281008 0.023276417 0.59100002 4279894784
-0.070159152 0.023275729 0.59100002 4278779904
-0.068803713 0.023196287 0.58899999 4278190080
-0.067685761 0.023195622 0.58899999 4289839286
-0.066680863 0.023234343 0.58999997 4294767090
-0.065561108 0.023233697 0.58999997 4294967295
-0.063458398 0.022878658 0.58099997 4294901247
-0.062248483 0.022838665 0.57999998 4291216842
-0.061042421 0.02279868 0.579 4291872205
-0.059943724 0.022798084 0.579 4294306803
-0.058845077 0.022797495 0.579 4294966270
-0.057846203 0.022836287 0.57999998 4294967295
-0.056745753 0.02283572 0.57999998 4294967295
-0.055741277 0.022874532 0.58099997 4294967295
-0.054639008 0.022873979 0.58099997 4294967295
-0.053536784 0.022873443 0.58099997 4294967295
-0.052344345 0.022833543 0.57999998 4294967295
-0.051244102 0.022833021 0.57999998 4294967295
-0.050143901 0.022832513 0.57999998 4294375158
-0.049043726 0.022832012 0.57999998 4292796126
-0.047943603 0.022831526 0.57999998 4285769641
-0.046843521 0.022831045 0.57999998 4282085234
-0.045743469 0.022830572 0.57999998 4282796119
-0.044643451 0.022830112 0.57999998 4281217087
-0.043543477 0.022829663 0.57999998 4282073164
-0.042370357 0.022789864 0.579 4282007371
-0.04127235 0.022789434 0.579 4282795327
-0.040174372 0.022789015 0.579 4283124291
-0.037912924 0.02274885 0.57800001 4283124555
-0.034445357 0.022629648 0.57499999 4282202926
-0.033297144 0.022589941 0.574 4281939497
-0.032152753 0.022550244 0.57300001 4281610789
-0.031066399 0.022549912 0.57300001 4281150238
-0.029980076 0.022549588 0.57300001 4281280068
-0.028893776 0.022549275 0.57300001 4282858844
-0.027807498 0.022548974 0.57300001 4283255417
-0.014619215 0.02231008 0.56699997 4294440438
-0.013520686 0.02227057 0.56599998 4289308584
-0.012425961 0.022231065 0.565 4285096574
-0.011355137 0.022230927 0.565 4278190101
-0.010284328 0.022230797 0.565 4279372805
-0.0017060293 0.022072732 0.56099999 4294373361
0.00041952598 0.022033323 0.56 4294966267
0.0014781333 0.021993961 0.55900002 4294636788
0.0025374871 0.021993956 0.55900002 4294110703
0.014063509 0.021797832 0.55400002 4278190080
0.020252831 0.02168064 0.551 4294364635
-0.10727195 0.02495954 0.60399997 4294967295
-0.10594799 0.02491723 0.60299999 4294967295
-0.10462787 0.024874931 0.602 4294045680
-0.10348354 0.024873963 0.602 4283189835
-0.10216924 0.024831686 0.60100001 4280358950
-0.10085883 0.024789421 0.60000002 4282530120
-0.099552274 0.024747165 0.59899998 4282793010
-0.09841387 0.024746234 0.59899998 4283056438
-0.096297756 0.02478571 0.60000002 4283385410
-0.095157631 0.024784802 0.60000002 4282860870
-0.094017588 0.024783906 0.60000002 4280360735
-0.093032353 0.024824318 0.60100001 4283506698
-0.091737621 0.024782132 0.60000002 4294956478
-0.090597734 0.024781261 0.60000002 4294967295
-0.089010619 0.024656497 0.597 4294967295
-0.08772935 0.024614347 0.59600002 4294967295
-0.086597241 0.024613507 0.59600002 4294967295
-0.085465178 0.024612674 0.59600002 4294967295
-0.084333174 0.024611851 0.59600002 4294966783
-0.083201222 0.024611039 0.59600002 4293384182
-0.08206933 0.024610231 0.59600002 4292331493
-0.080801688 0.024568148 0.59500003 4287986882
-0.079671815 0.024567368 0.59500003 4286473643
-0.077282116 0.024524536 0.59399998 4278190088
-0.074773908 0.024440467 0.59200001 4279305216
-0.073401168 0.024357162 0.58999997 4285819904
-0.072281107 0.024356445 0.58999997 4287662096
-0.071040474 0.024314448 0.58899999 4290623356
-0.06992241 0.02431375 0.58899999 4291610251
-0.068570763 0.024230504 0.58700001 4293584345
-0.067341678 0.024188546 0.58600003 4294967285
-0.066116422 0.024146596 0.58499998 4294967295
-0.064783916 0.024063392 0.583 4294967295
-0.063459016 0.023980193 0.58099997 4294967295
-0.062249109 0.023938289 0.57999998 4294967295
-0.061148457 0.023937667 0.57999998 4294967295
-0.059944328 0.023895781 0.579 4294967295
-0.058845665 0.023895176 0.579 4294967295
-0.057846792 0.023935853 0.57999998 4294967295
-0.056746323 0.02393527 0.57999998 4294967039
-0.055741839 0.023975963 0.58099997 4294043894
-0.054639552 0.023975395 0.58099997 4289301477
-0.053537328 0.02397484 0.58099997 4288248789
-0.052344885 0.023933036 0.57999998 4285424505
-0.051244628 0.0239325 0.57999998 4282200648
-0.050057948 0.023890713 0.579 4279639584
-0.04895968 0.023890203 0.579 4278981911
-0.047861438 0.023889702 0.579 4282861605
-0.046763234 0.023889206 0.579 4282927398
-0.04566507 0.023888728 0.579 4282798668
-0.044566944 0.023888255 0.579 4280430120
-0.042297617 0.023846084 0.57800001 4281286725
-0.035535961 0.023719849 0.57499999 4283975262
-0.034385815 0.023678225 0.574 4286013803
-0.033239491 0.023636613 0.57300001 4289369246
-0.0321531 0.023636257 0.57300001 4292266909
-0.03101252 0.02359467 0.57200003 4292793509
-0.029928075 0.023594335 0.57200003 4293254362
-0.028843658 0.023594018 0.57200003 4294109671
-0.026628271 0.023552159 0.57099998 4280690185
-0.02002815 0.023426859 0.56800002 4294962928
-0.015666375 0.023343546 0.56599998 4294307566
-0.10709534 0.026062224 0.60299999 4294967295
-0.10577328 0.026018001 0.602 4294967295
-0.10445505 0.025973782 0.60100001 4294046193
-0.1031407 0.025929578 0.60000002 4283321934
-0.1018302 0.025885383 0.59899998 4280095529
-0.10069169 0.02588441 0.59899998 4282398283
-0.099387027 0.025840241 0.59799999 4283055162
-0.097921923 0.025752874 0.59600002 4283252797
-0.096789286 0.025751933 0.59600002 4283056196
-0.095656693 0.025751 0.59600002 4283188038
-0.09452416 0.025750078 0.59600002 4282795590
-0.093391687 0.025749166 0.59600002 4280690214
-0.092259273 0.02574826 0.59600002 4283966236
-0.091126934 0.025747368 0.59600002 4294955209
-0.089994624 0.025746476 0.59600002 4294967295
-0.088713296 0.025702402 0.59500003 4294967295
-0.087583013 0.02570153 0.59500003 4294967295
-0.086452775 0.025700673 0.59500003 4294967295
-0.08517921 0.025656631 0.59399998 4294308595
-0.084051013 0.025655793 0.59399998 4293782251
-0.082922846 0.02565496 0.59399998 4289511366
-0.081794754 0.025654139 0.59399998 4286682267
-0.079404794 0.025609341 0.59299999 4279059519
-0.078146756 0.025565363 0.59200001 4278190083
-0.077022672 0.025564583 0.59200001 4278190082
-0.074522041 0.025476689 0.58999997 4286796107
-0.073153101 0.025389584 0.588 4289234550
-0.0719143 0.025345666 0.58700001 4290418824
-0.070679359 0.025301764 0.58600003 4293511365
-0.069448248 0.025257869 0.58499998 4294960611
-0.06833782 0.025257163 0.58499998 4294967295
-0.067112513 0.025213297 0.58399999 4294967295
-0.066004075 0.025212616 0.58399999 4294967295
-0.064673454 0.025125599 0.58200002 4294967295
-0.063459672 0.025081765 0.58099997 4294967295
-0.062249735 0.025037946 0.57999998 4294967295
-0.061149087 0.025037307 0.57999998 4294967295
-0.059944943 0.024993513 0.579 4294967295
-0.058846276 0.024992896 0.579 4294967295
-0.057847388 0.025035452 0.57999998 4294177779
-0.056746904 0.02503485 0.57999998 4293319642
-0.055646475 0.025034262 0.57999998 4289898406
-0.054546084 0.025033683 0.57999998 4284775052
-0.053353589 0.024989957 0.579 4280432713
-0.05225518 0.0249894 0.579 4281083187
-0.051068451 0.024945693 0.57800001 4281148980
-0.04997202 0.02494516 0.57800001 4280422942
-0.048875634 0.024944635 0.57800001 4283778642
-0.04777927 0.024944119 0.57800001 4286277168
-0.046682954 0.024943616 0.57800001 4287987786
-0.035412744 0.024723427 0.57300001 4287661957
-0.034266379 0.024679894 0.57200003 4290093218
-0.033181842 0.024679521 0.57200003 4291014320
-0.019957859 0.024417067 0.56599998 4294959047
-0.018851643 0.024373699 0.565 4294701810
-0.017780708 0.024373483 0.565 4294372846
-0.10691877 0.027161146 0.602 4294967295
-0.10542288 0.027069885 0.60000002 4294967295
-0.10428225 0.027068863 0.60000002 4294243056
-0.1029698 0.027022742 0.59899998 4283518797
-0.10166121 0.026976632 0.59799999 4280489535
-0.10052455 0.026975639 0.59799999 4282397532
-0.099221781 0.02692955 0.597 4282857790
-0.097922869 0.02688347 0.59600002 4283120705
-0.096627824 0.026837409 0.59500003 4282793028
-0.095497124 0.02683646 0.59500003 4282924357
-0.094366491 0.026835516 0.59500003 4282859848
-0.09323591 0.026834583 0.59500003 4281609781
-0.092105381 0.026833657 0.59500003 4283574823
-0.090822019 0.026787642 0.59399998 4291864485
-0.089693516 0.026786737 0.59399998 4290686403
-0.088565066 0.026785841 0.59399998 4289567665
-0.087436676 0.026784953 0.59399998 4285691275
-0.086308338 0.026784075 0.59399998 4281019972
-0.085036665 0.026738118 0.59299999 4280232464
-0.083910339 0.026737258 0.59299999 4279969291
-0.082504869 0.026646242 0.59100002 4281017344
-0.081382468 0.026645401 0.59100002 4281675264
-0.079137795 0.026643757 0.59100002 4288518536
-0.077883542 0.026597869 0.58999997 4292793759
-0.076763235 0.026597073 0.58999997 4293583019
-0.074873738 0.026325814 0.58399999 4294898410
-0.073764935 0.026325043 0.58399999 4294967295
-0.072780602 0.026369357 0.58499998 4294967295
-0.071670003 0.026368609 0.58499998 4294967295
-0.070438854 0.026322799 0.58399999 4294967295
-0.069330253 0.026322065 0.58399999 4294967295
-0.068104893 0.026276279 0.583 4294967295
-0.066998295 0.026275568 0.583 4294967295
-0.06577874 0.026229804 0.58200002 4294967295
-0.064562999 0.026184045 0.58099997 4294967295
-0.06335111 0.0261383 0.57999998 4294967295
-0.062250391 0.026137637 0.57999998 4294967295
-0.061044294 0.026091915 0.579 4294967295
-0.059945568 0.026091272 0.579 4294967295
-0.058846891 0.026090639 0.579 4294967295
-0.057748258 0.026090018 0.579 4289243304
-0.056649663 0.026089402 0.579 4283979617
-0.055551127 0.026088804 0.579 4278781969
-0.054452624 0.026088214 0.579 4279312418
-0.053262014 0.026042577 0.57800001 4279246625
-0.052075237 0.02599695 0.57700002 4284106028
-0.050980646 0.025996391 0.57700002 4291409052
-0.049799647 0.025950789 0.57599998 4294966996
-0.048707031 0.025950251 0.57599998 4294967256
-0.047614466 0.025949728 0.57599998 4294966492
-0.046521921 0.025949212 0.57599998 4294967272
-0.044259999 0.025903169 0.57499999 4280688963
-0.035289533 0.025719445 0.57099998 4294967295
-0.022064827 0.02544526 0.565 4278190080
-0.018785138 0.025354456 0.56300002 4294964470
-0.01771798 0.025354238 0.56300002 4294898420
0.011812821 0.02463207 0.54699999 4293385962
0.012849483 0.024632171 0.54699999 4292924366
0.013886151 0.024632284 0.54699999 4291608506
-0.10674221 0.028256303 0.60100001 4294967295
-0.10524819 0.028161224 0.59899998 4294967295
-0.10393567 0.028113171 0.59799999 4294506231
-0.10279891 0.028112147 0.59799999 4283650385
-0.1014922 0.028064115 0.597 4280489784
-0.10018936 0.0280161 0.59600002 4282397782
-0.099056579 0.028015101 0.59600002 4282727235
-0.097759545 0.027967105 0.59500003 4282924357
-0.096628793 0.027966125 0.59500003 4283054662
-0.09533757 0.027918149 0.59399998 4283186248
-0.094208829 0.027917188 0.59399998 4282860870
-0.093080141 0.027916238 0.59399998 4282202939
-0.091951512 0.027915291 0.59399998 4283312939
-0.090670042 0.027867362 0.59299999 4288247671
-0.08954341 0.027866434 0.59299999 4286484611
-0.08841686 0.027865522 0.59299999 4283129168
-0.086018622 0.027816733 0.59200001 4278198061
-0.084750742 0.027768865 0.59100002 4278197760
-0.083628207 0.027767988 0.59100002 4278793742
-0.082226515 0.027673155 0.58899999 4283512624
-0.0811079 0.0276723 0.58899999 4287591533
-0.079989314 0.027671456 0.58899999 4290615699
-0.07846909 0.027529689 0.58600003 4291734436
-0.077092312 0.027434915 0.58399999 4294958044
-0.075983383 0.027434105 0.58399999 4294966012
-0.074746311 0.027386332 0.583 4294967295
-0.073639415 0.02738555 0.583 4294967295
-0.07253255 0.027384771 0.583 4294967295
-0.071425736 0.027384002 0.583 4294967295
-0.070318982 0.027383251 0.583 4294967295
-0.069212273 0.027382504 0.583 4294967295
-0.068105616 0.02738177 0.583 4294966524
-0.066884086 0.027334075 0.58200002 4294176237
-0.0656664 0.027286395 0.58099997 4294174166
-0.064563684 0.027285693 0.58099997 4294967292
-0.063351788 0.027238041 0.57999998 4294967295
-0.062251061 0.027237361 0.57999998 4294967295
-0.06104495 0.027189728 0.579 4294967295
-0.059946213 0.027189068 0.579 4294967295
-0.058847528 0.02718842 0.579 4294967295
-0.057748888 0.027187787 0.579 4289309097
-0.056650288 0.027187157 0.579 4284964944
-0.055455785 0.027139585 0.57800001 4280688399
-0.054265127 0.027092028 0.57700002 4282986546
-0.053078283 0.027044479 0.57599998 4282657324
-0.051895302 0.02699695 0.57499999 4286264875
-0.050804492 0.026996378 0.57499999 4294817965
-0.049713723 0.026995819 0.57499999 4294967295
-0.048622999 0.026995271 0.57499999 4294967295
-0.04744966 0.026947789 0.574 4294967281
-0.046280146 0.026900316 0.57300001 4294967281
-0.045114454 0.026852854 0.57200003 4291484379
-0.043952603 0.02680541 0.57099998 4285563009
-0.042869646 0.026804917 0.57099998 4287003258
-0.041567191 0.026663611 0.56800002 4288845462
-0.040489998 0.026663143 0.56800002 4293117384
-0.039412834 0.026662692 0.56800002 4294630623
-0.038335703 0.026662245 0.56800002 4294967295
-0.037258614 0.026661815 0.56800002 4294967295
-0.036181554 0.026661394 0.56800002 4294967295
-0.035166323 0.026707919 0.56900001 4294967295
-0.018751998 0.026374593 0.56199998 4294176235
-0.01119493 0.026138607 0.55699998 4280623399
-0.01013924 0.026138458 0.55699998 4278517762
-0.0090835579 0.026138326 0.55699998 4280421663
-0.0080134757 0.026091276 0.55599999 4279899149
-0.0069597112 0.026091164 0.55599999 4279372805
-0.0059059546 0.02609106 0.55599999 4278190080
0.00041268714 0.025856072 0.551 4283445827
0.0014569258 0.025856052 0.551 4285090652
0.0025011615 0.02585604 0.551 4290022294
0.0035453958 0.025856042 0.551 4291009190
0.011812918 0.025668757 0.54699999 4292202194
0.012849588 0.025668856 0.54699999 4289902518
0.013886269 0.025668973 0.54699999 4288784036
-0.10585521 0.029152049 0.59600002 4294967295
-0.10472214 0.029150985 0.59600002 4294967295
-0.1035891 0.029149929 0.59600002 4294834428
-0.10245614 0.029148884 0.59600002 4283912790
-0.10132321 0.029147837 0.59600002 4280163372
-0.10002227 0.029097909 0.59500003 4281544769
-0.09889137 0.029096885 0.59500003 4282332999
-0.097596236 0.029046975 0.59399998 4282332999
-0.096467368 0.029045975 0.59399998 4281741623
-0.095338546 0.029044978 0.59399998 4281543988
-0.094051197 0.028995102 0.59299999 4281017644
-0.092924401 0.028994128 0.59299999 4280162335
-0.091797672 0.028993167 0.59299999 4280942598
-0.090518087 0.028943324 0.59200001 4281928981
-0.089242354 0.028893489 0.59100002 4285623310
-0.088119589 0.028892554 0.59100002 4285689103
-0.084464811 0.028792048 0.58899999 4294175673
-0.083346076 0.028791156 0.58899999 4294636224
-0.082087778 0.028741393 0.588 4294966523
-0.080971047 0.028740527 0.588 4294967295
-0.079446934 0.028593032 0.58499998 4294967295
-0.078202091 0.028543308 0.58399999 4294967295
-0.076961108 0.028493604 0.583 4294967295
-0.075723976 0.028443906 0.58200002 4294967295
-0.074618906 0.028443094 0.58200002 4294967295
-0.07351388 0.028442293 0.58200002 4294636534
-0.072408915 0.0284415 0.58200002 4292399846
-0.071303993 0.028440716 0.58200002 4291083987
-0.070199125 0.028439948 0.58200002 4286740926
-0.069094308 0.028439183 0.58200002 4285885617
-0.067989543 0.028438434 0.58200002 4285421652
-0.06676989 0.028388828 0.58099997 4283513655
-0.065667123 0.028388098 0.58099997 4288710030
-0.064453267 0.02833852 0.57999998 4294967295
-0.063352481 0.02833781 0.57999998 4294967295
-0.062144421 0.02828826 0.579 4294967295
-0.061045624 0.028287575 0.579 4294967295
-0.059843346 0.028238043 0.57800001 4294967295
-0.058746543 0.02823738 0.57800001 4294967295
-0.056455232 0.02818724 0.57700002 4286149791
-0.055264514 0.02813776 0.57599998 4280886607
-0.053983577 0.028039442 0.574 4282857019
-0.052894585 0.028038837 0.574 4282922813
-0.051805634 0.028038248 0.574 4284823593
-0.050628353 0.027988819 0.57300001 4292916133
-0.049541373 0.027988248 0.57300001 4293580752
-0.04836987 0.027938843 0.57200003 4292988615
-0.047202196 0.027889455 0.57099998 4289767097
-0.046038356 0.027840076 0.56999999 4286937998
-0.044957224 0.027839554 0.56999999 4286350213
-0.043799151 0.0277902 0.56900001 4293192429
-0.042719975 0.027789699 0.56900001 4294967295
-0.041567661 0.027740372 0.56800002 4294967295
-0.040490463 0.027739897 0.56800002 4294967295
-0.039413285 0.027739428 0.56800002 4294967295
-0.03833615 0.027738975 0.56800002 4294965503
-0.03725905 0.027738534 0.56800002 4292267734
-0.036118273 0.027689267 0.56699997 4288514505
-0.034981318 0.027640007 0.56599998 4287462073
-0.033848193 0.027590772 0.565 4286676314
-0.032718886 0.027541544 0.56400001 4286544985
-0.031649515 0.027541162 0.56400001 4289829558
-0.030580172 0.02754079 0.56400001 4294967295
-0.029510846 0.027540425 0.56400001 4294967295
-0.028441558 0.027540077 0.56400001 4294966783
-0.027323762 0.027490908 0.56300002 4294506492
-0.026209773 0.027441755 0.56199998 4288190621
-0.025144348 0.02744144 0.56199998 4279512425
-0.024036098 0.027392313 0.56099999 4278191168
-0.022931665 0.027343197 0.56 4279503893
-0.021870093 0.027342917 0.56 4278255619
-0.020808542 0.027342651 0.56 4281730560
-0.019747011 0.027342394 0.56 4292783509
-0.018685503 0.027342152 0.56 4294437848
-0.01323486 0.027048167 0.55400002 4294703094
-0.012184819 0.027047995 0.55400002 4293257195
-0.011134789 0.027047835 0.55400002 4285230192
-0.010102975 0.027096508 0.55500001 4278190150
-0.0090510733 0.027096372 0.55500001 4278190146
-0.0079991817 0.027096244 0.55500001 4278190080
-0.00062930072 0.026802756 0.54900002 4294173363
0.00041116233 0.026802726 0.54900002 4294238957
0.001454266 0.026851526 0.55000001 4294963708
0.0024920788 0.026802694 0.54900002 4294174962
0.0035325345 0.026802698 0.54900002 4293911791
