# .PCD v0.7 - Point Cloud Data file format
VERSION 0.7
FIELDS x y z rgba
SIZE 4 4 4 4
TYPE F F F U
COUNT 1 1 1 1
WIDTH 1068
HEIGHT 1
VIEWPOINT 0 0 0 1 0 0 0
POINTS 1068
DATA ascii
-0.13251328 0.044938687 0.70099998 4291938501
-0.13118011 0.044937167 0.70099998 4290688690
-0.12984695 0.044935647 0.70099998 4289176743
-0.12851387 0.04493415 0.70099998 4279044622
-0.12772517 0.045124955 0.704 4278190080
-0.12638654 0.045123473 0.704 4278190080
-0.12558086 0.045314275 0.70700002 4284954941
-0.12441238 0.045376897 0.708 4294960874
-0.12341398 0.045503605 0.70999998 4294967038
-0.1212246 0.045692965 0.713 4294967295
-0.11986926 0.04569152 0.713 4294967295
-0.11868023 0.045754183 0.71399999 4294967295
-0.11765178 0.045880925 0.71600002 4294967295
-0.11629096 0.045879506 0.71600002 4294112236
-0.11541176 0.046070337 0.71899998 4278650881
-0.114204 0.046133019 0.72000003 4278190080
-0.11314921 0.046259783 0.722 4279375135
-0.1119321 0.046322476 0.72299999 4279637026
-0.10948665 0.046447895 0.72500002 4279505940
-0.10840745 0.046574686 0.727 4278321666
-0.10717351 0.046637423 0.72799999 4278714368
-0.1057905 0.046636093 0.72799999 4278386688
-0.10469441 0.046762917 0.73000002 4278779904
-0.10344926 0.046825677 0.73100001 4278976512
-0.10206077 0.046824388 0.73100001 4283116621
-0.10067236 0.046823118 0.73100001 4294967295
-0.099691436 0.047014024 0.73400003 4294967295
-0.20525745 0.04117028 0.62199998 4286677881
-0.20439981 0.041234892 0.62300003 4285822572
-0.20321211 0.041233316 0.62300003 4286019186
-0.20202442 0.041231733 0.62300003 4286545530
-0.20115909 0.041296326 0.62400001 4286676598
-0.19996947 0.04129472 0.62400001 4287005306
-0.19877987 0.041293122 0.62400001 4287661696
-0.19759029 0.041291527 0.62400001 4288385163
-0.19640064 0.041289914 0.62400001 4288713353
-0.19552387 0.041354477 0.625 4289173904
-0.19433238 0.041352853 0.625 4289306003
-0.19314094 0.041351244 0.625 4289108368
-0.19194943 0.04134962 0.625 4288846484
-0.19136836 0.041480314 0.62699997 4288846484
-0.1901731 0.041478679 0.62699997 4288977813
-0.18897785 0.041477054 0.62699997 4289043862
-0.18778262 0.041475419 0.62699997 4288978065
-0.18658738 0.041473784 0.62699997 4288978065
-0.18598358 0.041604444 0.62900001 4288846997
-0.18449077 0.041536659 0.62800002 4288846997
-0.18329376 0.041535031 0.62800002 4288847258
-0.18209668 0.041533377 0.62800002 4288715929
-0.1766296 0.043103654 0.65200001 4289239447
-0.17538716 0.043101959 0.65200001 4288650397
-0.13327532 0.046072807 0.69800001 4291609538
-0.13194776 0.046071257 0.69800001 4291477952
-0.13062023 0.046069711 0.69800001 4290556850
-0.12929279 0.046068177 0.69800001 4288914341
-0.12796541 0.04606666 0.69800001 4279505686
-0.12700096 0.046197142 0.69999999 4278190080
-0.12638803 0.046459604 0.704 4278190080
-0.1254047 0.04659009 0.70599997 4285868825
-0.12423813 0.046654586 0.70700002 4294954684
-0.12306781 0.046719089 0.708 4294964202
-0.12206567 0.046849579 0.70999998 4294967295
-0.12088601 0.046914089 0.71100003 4294967295
-0.11953448 0.046912637 0.71100003 4294967295
-0.118183 0.046911184 0.71100003 4294967295
-0.11716024 0.047041703 0.713 4294967295
-0.11580511 0.047040273 0.713 4294836223
-0.11461057 0.047104832 0.71399999 4278914078
-0.11357092 0.047235362 0.71600002 4278190080
-0.11268044 0.047431868 0.71899998 4279177490
-0.11146903 0.047496453 0.72000003 4279505184
-0.10918598 0.047691587 0.72299999 4279900698
-0.10781233 0.047690224 0.72299999 4279900698
-0.10673317 0.047820807 0.72500002 4279441165
-0.10535588 0.047819465 0.72500002 4278454272
-0.10426545 0.047950048 0.727 4278190080
-0.10302601 0.048014697 0.72799999 4278190080
-0.10164319 0.048013389 0.72799999 4280630784
-0.10026045 0.048012104 0.72799999 4294967240
-0.20202602 0.042415883 0.62300003 4286742904
-0.20083831 0.042414278 0.62300003 4286872955
-0.19965063 0.042412657 0.62300003 4285886060
-0.19878149 0.042479124 0.62400001 4286344801
-0.1975919 0.0424775 0.62400001 4285752663
-0.19671702 0.042543948 0.625 4286147160
-0.19552553 0.042542323 0.625 4286475869
-0.19433403 0.042540688 0.625 4286410355
-0.19314256 0.042539045 0.625 4287397506
-0.19195104 0.042537399 0.625 4287266684
-0.19136998 0.042671878 0.62699997 4287398269
-0.19017474 0.042670228 0.62699997 4288123531
-0.18897948 0.042668585 0.62699997 4288781204
-0.18778422 0.042666927 0.62699997 4288846470
-0.18658903 0.042665273 0.62699997 4288451712
-0.18598521 0.042799704 0.62900001 4289044110
-0.18449242 0.04273 0.62800002 4289175953
-0.18329541 0.04272835 0.62800002 4289109907
-0.18209834 0.042726684 0.62800002 4288583307
-0.1741465 0.044338897 0.65200001 4286874238
-0.13176024 0.047328271 0.69700003 4291476918
-0.13043462 0.04732671 0.69700003 4290292901
-0.1291091 0.047325157 0.69700003 4288980393
-0.12778361 0.047323618 0.69700003 4279309079
-0.12645818 0.047322076 0.69700003 4278190080
-0.12621003 0.047727898 0.70300001 4278190080
-0.12272163 0.047927011 0.70599997 4290812245
-0.12037741 0.048059799 0.708 4294964932
-0.11903156 0.048058316 0.708 4294967248
-0.11801822 0.048192594 0.70999998 4294967295
-0.11666872 0.048191141 0.70999998 4294967295
-0.11548172 0.048257574 0.71100003 4294967295
-0.11445148 0.048391867 0.713 4281477935
-0.11309648 0.048390444 0.713 4278190080
-0.11189826 0.048456892 0.71399999 4278321666
-0.11100596 0.048659083 0.71700001 4279044385
-0.10964355 0.048657682 0.71700001 4279702315
-0.10873429 0.048859883 0.72000003 4279900698
-0.10766457 0.048994221 0.722 4279966491
-0.10644008 0.049060699 0.72299999 4279704336
-0.10506656 0.049059346 0.72299999 4279704336
-0.10397995 0.049193721 0.72500002 4279111182
-0.10260276 0.04919238 0.72500002 4278190080
-0.10122564 0.049191058 0.72500002 4281479689
-0.10012402 0.049325455 0.727 4294967267
-0.09915068 0.04952769 0.73000002 4294967295
-0.097764269 0.049526408 0.73000002 4294967295
-0.19965224 0.0435968 0.62300003 4286806135
-0.19846454 0.043595172 0.62300003 4286804850
-0.19759351 0.043663502 0.62400001 4286278506
-0.19640391 0.043661866 0.62400001 4286146917
-0.19552717 0.043730181 0.625 4286146917
-0.19433567 0.04372853 0.625 4285227616
-0.19376224 0.043866798 0.62699997 4286411891
-0.19256692 0.043865133 0.62699997 4286673784
-0.19167688 0.043933425 0.62800002 4286805113
-0.19047973 0.04393176 0.62800002 4287266684
-0.18928257 0.043930087 0.62800002 4287661442
-0.18808542 0.043928415 0.62800002 4287465857
-0.18688829 0.043926734 0.62800002 4287597700
-0.18628256 0.044064943 0.63 4288188292
-0.18478788 0.043993317 0.62900001 4288188292
-0.18358894 0.043991633 0.62900001 4288317575
-0.18238997 0.043989949 0.62900001 4288646541
-0.18205525 0.044198066 0.63200003 4288977043
-0.1803218 0.044960439 0.64300001 4287859850
-0.17909633 0.044958722 0.64300001 4287596934
-0.17787091 0.044957001 0.64300001 4287597182
-0.1766455 0.044955276 0.64300001 4287465596
-0.13024907 0.04857995 0.69599998 4290358953
-0.12855496 0.048438787 0.69400001 4288916138
-0.12723513 0.048437223 0.69400001 4279639325
-0.12627828 0.048575249 0.69599998 4278190080
-0.12531389 0.048713289 0.69800001 4278190080
-0.12451961 0.048921105 0.70099998 4278190080
-0.1223755 0.049127396 0.704 4281401344
-0.11886493 0.049332213 0.70700002 4293314736
-0.11768726 0.04940049 0.708 4293778380
-0.11634153 0.049399007 0.708 4294967288
-0.11532073 0.049537081 0.70999998 4294967295
-0.11413188 0.049605392 0.71100003 4281148198
-0.11278067 0.04960395 0.71100003 4278190080
-0.11142952 0.049602516 0.71100003 4278979596
-0.11038808 0.049740609 0.713 4278915614
-0.10903327 0.049739189 0.713 4279178785
-0.10813159 0.049947068 0.71600002 4279769112
-0.10721859 0.050154943 0.71899998 4279900698
-0.10492261 0.050361443 0.722 4279311375
-0.10369445 0.050429828 0.72299999 4279440147
-0.10232105 0.050428472 0.72299999 4278190080
-0.10094771 0.050427135 0.72299999 4281209600
-0.099574447 0.05042582 0.72299999 4294966747
-0.098744519 0.050703473 0.727 4294967295
-0.097363785 0.050702173 0.727 4294967295
-0.2960842 0.03750388 0.52100003 4282465342
-0.26114035 0.040119793 0.55699998 4294967295
-0.26008621 0.040119402 0.55699998 4294967295
-0.25903189 0.040118985 0.55699998 4294244076
-0.19640554 0.044847876 0.62400001 4287136645
-0.19552884 0.044918083 0.625 4287136645
-0.19433731 0.044916414 0.625 4286807932
-0.19376391 0.045058466 0.62699997 4286347381
-0.19256864 0.045056783 0.62699997 4286477949
-0.19167857 0.045126956 0.62800002 4286083191
-0.19048141 0.045125265 0.62800002 4285951344
-0.18928425 0.045123577 0.62800002 4285424744
-0.18808711 0.045121875 0.62800002 4285819501
-0.18688998 0.04512018 0.62800002 4285622379
-0.18628429 0.045262177 0.63 4285754210
-0.18537714 0.045332305 0.63099998 4285557088
-0.18417436 0.045330599 0.63099998 4286015588
-0.18297158 0.045328882 0.63099998 4285752160
-0.18205695 0.04539901 0.63200003 4286212451
-0.18199697 0.045684617 0.63599998 4286409574
-0.18135327 0.045826551 0.63800001 4286278506
-0.18013728 0.045824818 0.63800001 4286212713
-0.17787264 0.046178717 0.64300001 4286871910
-0.17664725 0.04617697 0.64300001 4287332461
-0.17569472 0.046247039 0.64399999 4287004545
-0.12837128 0.049684472 0.69300002 4289113771
-0.12705338 0.049682874 0.69300002 4284639590
-0.12591697 0.049752995 0.69400001 4278190165
-0.12495638 0.049894799 0.69599998 4278190160
-0.12381063 0.049964927 0.69700003 4278190080
-0.11970031 0.050460529 0.704 4279304192
-0.11617871 0.050671019 0.70700002 4286858550
-0.11499737 0.050741192 0.708 4284497011
-0.11365176 0.050739709 0.708 4280483895
-0.11230624 0.050738238 0.708 4278258688
-0.11096079 0.050736792 0.708 4279311375
-0.10992503 0.050878659 0.70999998 4279442464
-0.10857592 0.050877236 0.70999998 4279310621
-0.10783096 0.051162444 0.71399999 4279376920
-0.10692175 0.051375993 0.71700001 4279442714
-0.10463333 0.051588144 0.72000003 4279311127
-0.10218089 0.051728692 0.722 4278190080
-0.10080942 0.051727328 0.722 4279369728
-0.099438041 0.05172598 0.722 4294962661
-0.098202534 0.051796295 0.72299999 4294967295
-0.097365096 0.052081533 0.727 4294967295
-0.25903228 0.041177686 0.55699998 4294967295
-0.25797769 0.041177273 0.55699998 4294967295
-0.25692296 0.041176837 0.55699998 4294901758
-0.19048309 0.046318799 0.62800002 4286807162
-0.18928593 0.046317086 0.62800002 4286346611
-0.18808882 0.046315368 0.62800002 4286606957
-0.18718927 0.046387404 0.62900001 4286475371
-0.18628599 0.046459422 0.63 4285754731
-0.18567266 0.046605185 0.63200003 4285623144
-0.18446799 0.046603449 0.63200003 4285885297
-0.18326332 0.046601716 0.63200003 4285885297
-0.18292287 0.046821184 0.63499999 4286408811
-0.1819987 0.046893168 0.63599998 4286606446
-0.18107076 0.046965148 0.63700002 4286344562
-0.17985666 0.046963397 0.63700002 4286344562
-0.12705497 0.050998367 0.69300002 4286417031
-0.12573713 0.050996769 0.69300002 4285494916
-0.12441936 0.050995182 0.69300002 4278190088
-0.12310167 0.050993603 0.69300002 4278190080
-0.12231123 0.05121278 0.69599998 4278190080
-0.114674 0.051937744 0.70599997 4278190123
-0.1133322 0.05193625 0.70599997 4278584895
-0.11214908 0.052008338 0.70700002 4278260500
-0.11080552 0.052006852 0.70700002 4278721051
-0.10961684 0.052078951 0.708 4279376670
-0.1082715 0.052077495 0.708 4279310621
-0.10737932 0.052296728 0.71100003 4279376920
-0.10189921 0.052951608 0.72000003 4278190080
-0.10053153 0.052950226 0.72000003 4278190080
-0.099163935 0.052948862 0.72000003 4293912806
-0.098068044 0.053094592 0.722 4294967295
-0.096830688 0.053166788 0.72299999 4294967295
-0.25751501 0.042160176 0.55599999 4294967295
-0.25600091 0.042083934 0.55500001 4294967295
-0.25449029 0.04200767 0.55400002 4294967295
-0.25344083 0.042007208 0.55400002 4294967295
-0.2523911 0.042006716 0.55400002 4294967295
-0.18809055 0.047508892 0.62800002 4287595899
-0.18719104 0.047582809 0.62900001 4287595899
-0.18446974 0.047804505 0.63200003 4287399049
-0.18263656 0.047952257 0.634 4287201673
-0.17864439 0.048172075 0.63700002 4287268483
-0.14194392 0.051053818 0.676 4289372841
-0.12442096 0.052310675 0.69300002 4290230469
-0.12310324 0.05230907 0.69300002 4289507480
-0.1217856 0.052307487 0.69300002 4286941553
-0.12098951 0.052532334 0.69599998 4282401407
-0.11435066 0.053126778 0.704 4278190080
-0.11301265 0.053125259 0.704 4278190081
-0.11167469 0.053123754 0.704 4278521362
-0.11033682 0.053122256 0.704 4279047706
-0.10930865 0.053271689 0.70599997 4279310621
-0.10796709 0.053270221 0.70599997 4279310621
-0.10662563 0.053268772 0.70599997 4279376670
-0.10543333 0.053342771 0.70700002 4279376670
-0.10147601 0.054091543 0.71700001 4278190080
-0.10011402 0.054090153 0.71700001 4278190080
-0.098752111 0.054088775 0.71700001 4293581528
-0.097661905 0.054238275 0.71899998 4294967295
-0.09629631 0.054236922 0.71899998 4294967295
-0.094930798 0.054235592 0.71899998 4294967295
-0.25600132 0.043138895 0.55500001 4294966769
-0.25449076 0.043060742 0.55400002 4294967295
-0.2534413 0.043060303 0.55400002 4294967295
-0.25239158 0.04305983 0.55400002 4294967295
-0.25134167 0.043059334 0.55400002 4294967295
-0.12406349 0.05347145 0.69099998 4291741099
-0.12274957 0.053469833 0.69099998 4291677893
-0.12178721 0.05362298 0.69300002 4289704103
-0.12012191 0.053466614 0.69099998 4288060329
-0.11880819 0.053465035 0.69099998 4286744469
-0.11167621 0.054459911 0.704 4278190101
-0.11033832 0.054458402 0.704 4278257181
-0.10900048 0.054456901 0.704 4278784277
-0.10766272 0.054455407 0.704 4279179035
-0.106174 0.054376584 0.70300001 4279442464
-0.10483827 0.054375123 0.70300001 4279442464
-0.099975809 0.055373423 0.71600002 4278779904
-0.098615766 0.055372015 0.71600002 4293249735
-0.097391605 0.055447966 0.71700001 4294967295
-0.096297666 0.055601262 0.71899998 4294967295
-0.25495052 0.04419345 0.55500001 4286213759
-0.25344175 0.044113401 0.55400002 4290490305
-0.25239205 0.044112951 0.55400002 4291871163
-0.25134218 0.044112477 0.55400002 4293779160
-0.25119567 0.04427122 0.55599999 4294967267
-0.13075739 0.053764198 0.67799997 4290360240
-0.12946773 0.05376251 0.67799997 4291741893
-0.1278 0.053602241 0.676 4291347136
-0.12651426 0.053600576 0.676 4290162605
-0.12143733 0.054779958 0.69099998 4293779912
-0.12012352 0.054778337 0.69099998 4293846252
-0.11880978 0.054776724 0.69099998 4294967295
-0.11749611 0.054775126 0.69099998 4294967295
-0.11618251 0.054773539 0.69099998 4294967295
-0.1101831 0.055715326 0.70300001 4278190156
-0.10884716 0.05571381 0.70300001 4278190080
-0.1075113 0.055712294 0.70300001 4278190080
-0.10617545 0.055710796 0.70300001 4278190080
-0.10483973 0.055709321 0.70300001 4278190080
-0.10350405 0.055707853 0.70300001 4278192384
-0.10318577 0.056261089 0.70999998 4278982411
-0.10183691 0.056259628 0.70999998 4279702819
-0.09969794 0.0565737 0.71399999 4278779904
-0.098341696 0.056572292 0.71399999 4292460220
-0.097257175 0.056729358 0.71600002 4294967295
-0.096031174 0.056807186 0.71700001 4294967295
-0.25344217 0.045166507 0.55400002 4285029179
-0.25239247 0.045166075 0.55400002 4289232749
-0.25134265 0.045165617 0.55400002 4291206795
-0.25119618 0.045328189 0.55599999 4292329387
-0.2501421 0.045327678 0.55599999 4294500557
-0.2495359 0.045408666 0.55699998 4294176233
-0.24411005 0.045974091 0.56400001 4294967295
-0.13037339 0.054889139 0.676 4290491056
-0.12908749 0.054887425 0.676 4291543745
-0.12761264 0.054804537 0.67500001 4291347397
-0.1263288 0.054802854 0.67500001 4290557881
-0.12523025 0.054882362 0.676 4289508275
-0.12431134 0.055043057 0.67799997 4281152564
-0.12302198 0.055041403 0.67799997 4278190080
-0.1199513 0.056008939 0.69 4293518041
-0.11863945 0.0560073 0.69 4294967293
-0.11732768 0.056005679 0.69 4294967295
-0.11618409 0.05608524 0.69099998 4294967295
-0.11487056 0.056083646 0.69099998 4294967295
-0.11355708 0.056082059 0.69099998 4294967295
-0.10720692 0.056884296 0.70099998 4278190123
-0.10587489 0.056882776 0.70099998 4278190116
-0.10484122 0.057043571 0.70300001 4278190117
-0.10350553 0.057042085 0.70300001 4278190105
-0.1026059 0.057284024 0.70599997 4278190112
-0.10126463 0.057282548 0.70599997 4278321168
-0.10048957 0.057605628 0.70999998 4278190080
-0.099280484 0.057685331 0.71100003 4279173120
-0.096851058 0.057844728 0.713 4294967293
-0.095630765 0.057924449 0.71399999 4294967295
-0.094274685 0.057923056 0.71399999 4294967295
-0.2965658 0.042244852 0.50700003 4285036402
-0.29527357 0.042332537 0.50800002 4279060859
-0.25134307 0.04621876 0.55400002 4284367678
-0.24196863 0.047044903 0.56400001 4294967295
-0.24089737 0.047044102 0.56400001 4294967295
-0.24025114 0.047126692 0.565 4294967295
-0.23917761 0.047125846 0.565 4294967295
-0.238104 0.047124986 0.565 4294967295
-0.15351646 0.054383602 0.65399998 4289044129
-0.13166106 0.05617445 0.676 4289636783
-0.13018225 0.056089617 0.67500001 4290359986
-0.12889826 0.056087878 0.67500001 4291215295
-0.12761433 0.056086164 0.67500001 4291018684
-0.12633047 0.056084447 0.67500001 4290755511
-0.12504669 0.056082755 0.67500001 4290165689
-0.12394631 0.056164145 0.676 4281217841
-0.12266073 0.056162469 0.676 4278190080
-0.12137524 0.0561608 0.676 4278190080
-0.11960527 0.057152711 0.68800002 4284956978
-0.1182972 0.057151068 0.68800002 4290746506
-0.1169892 0.057149421 0.68800002 4292923810
-0.11568131 0.057147801 0.68800002 4294568634
-0.11437344 0.05714618 0.68800002 4294967288
-0.11306566 0.057144582 0.68800002 4294967295
-0.11224525 0.057392165 0.69099998 4294967295
-0.11125296 0.057556693 0.69300002 4294967295
-0.10940252 0.05796881 0.69800001 4294967295
-0.10807605 0.057967249 0.69800001 4294967285
-0.10674966 0.057965711 0.69800001 4290691252
-0.10542332 0.057964183 0.69800001 4288325813
-0.10439531 0.058128744 0.69999999 4285101957
-0.10365427 0.058459397 0.704 4278190191
-0.1023167 0.058457904 0.704 4278190186
-0.10126609 0.058622476 0.70599997 4278190080
-0.099924892 0.058621008 0.70599997 4278190080
-0.098863021 0.058785614 0.708 4278190080
-0.097793601 0.058950219 0.70999998 4288981668
-0.096580811 0.059031807 0.71100003 4294966505
-0.29656351 0.043205183 0.50700003 4288323998
-0.29527146 0.043294948 0.50800002 4284834405
-0.23810485 0.048199303 0.565 4294967295
-0.2370311 0.048198421 0.565 4294967295
-0.23595722 0.04819753 0.565 4294967295
-0.23488319 0.048196603 0.565 4294967295
-0.23380902 0.048195656 0.565 4294506746
-0.13018399 0.057371341 0.67500001 4290557113
-0.12889999 0.05736959 0.67500001 4291281092
-0.12761606 0.057367846 0.67500001 4290887359
-0.12633221 0.057366122 0.67500001 4290690237
-0.12504838 0.057364389 0.67500001 4290888129
-0.12376465 0.057362687 0.67500001 4282861383
-0.12248097 0.057360984 0.67500001 4278190080
-0.12137693 0.057444267 0.676 4278190080
-0.12080207 0.057782482 0.68000001 4278190080
-0.1195091 0.057780806 0.68000001 4278190080
-0.11856385 0.057949081 0.68199998 4278321152
-0.11761107 0.058117349 0.68400002 4282329897
-0.11665078 0.058285631 0.68599999 4288639839
-0.11534665 0.058283988 0.68599999 4292390041
-0.11404259 0.058282353 0.68599999 4292265659
-0.11290291 0.058365691 0.68699998 4294963944
-0.11175953 0.058449041 0.68800002 4294967289
-0.11045185 0.058447435 0.68800002 4294967295
-0.10946152 0.058615755 0.69 4294967295
-0.10877714 0.058953971 0.69400001 4294967295
-0.10776792 0.05912229 0.69599998 4294967295
-0.10644532 0.059120737 0.69599998 4294967295
-0.10512277 0.059119187 0.69599998 4291225333
-0.10394944 0.059202597 0.69700003 4288462027
-0.1026251 0.059201077 0.69700003 4287340463
-0.10144617 0.059284501 0.69800001 4282142816
-0.10055039 0.059537798 0.70099998 4281937762
-0.099218674 0.059536327 0.70099998 4278190111
-0.098166294 0.059704714 0.70300001 4278192128
-0.096968621 0.059788179 0.704 4287736977
-0.095631368 0.059786741 0.704 4293255131
-0.094294198 0.05978531 0.704 4294967295
-0.092957087 0.059783898 0.704 4294967295
-0.23703201 0.049272764 0.565 4294967291
-0.2359581 0.04927187 0.565 4294967295
-0.23488411 0.049270954 0.565 4294967295
-0.23380995 0.049270011 0.565 4294967295
-0.23273571 0.049269062 0.565 4294967295
-0.12941429 0.058305547 0.671 4290556861
-0.12813789 0.058303777 0.671 4291807185
-0.12705061 0.058388907 0.67199999 4291347388
-0.12577245 0.058387168 0.67199999 4290886837
-0.12486485 0.05855919 0.67400002 4290888129
-0.12358301 0.058557469 0.67400002 4283321934
-0.12230122 0.058555733 0.67400002 4278190083
-0.12119906 0.058640908 0.67500001 4278386960
-0.11991549 0.058639202 0.67500001 4278714394
-0.11880776 0.058724388 0.676 4278779931
-0.11821783 0.059070177 0.68000001 4278386693
-0.11692496 0.059068505 0.68000001 4278386693
-0.11614229 0.059327427 0.68300003 4279894016
-0.115012 0.059412628 0.68400002 4279959552
-0.1140442 0.059584692 0.68599999 4279500800
-0.11290453 0.059669901 0.68699998 4279369728
-0.11159869 0.05966828 0.68699998 4278386693
-0.1102929 0.059666656 0.68699998 4288316571
-0.10914583 0.059751906 0.68800002 4290618783
-0.108622 0.06018455 0.69300002 4294105813
-0.10730498 0.060182955 0.69300002 4294967283
-0.10644687 0.060441907 0.69599998 4294967287
-0.10512432 0.060440335 0.69599998 4294967295
-0.10395097 0.060525622 0.69700003 4294967295
-0.10262662 0.060524084 0.69700003 4294967295
-0.10144769 0.060609382 0.69800001 4294967295
-0.1005519 0.06086836 0.70099998 4294967295
-0.099220149 0.060866848 0.70099998 4292270034
-0.097888477 0.060865361 0.70099998 4291614398
-0.096832335 0.061037533 0.70300001 4291943620
-0.095496967 0.061036084 0.70300001 4292796138
-0.094295621 0.061121453 0.704 4294967295
-0.092958502 0.061120026 0.704 4294967295
-0.091621436 0.061118603 0.704 4294638330
-0.23488504 0.05034532 0.565 4294967292
-0.23381089 0.050344385 0.565 4294967295
-0.23273668 0.050343439 0.565 4294967295
-0.23207231 0.050431561 0.56599998 4294967295
-0.23099594 0.05043057 0.56599998 4294967295
-0.23032562 0.050518651 0.56699997 4294967295
-0.22612204 0.050780516 0.56999999 4292401884
-0.12922321 0.059490982 0.67000002 4289703087
-0.1279487 0.059489198 0.67000002 4291413705
-0.12686332 0.059576206 0.671 4291281856
-0.12558703 0.059574436 0.671 4290887098
-0.12449608 0.059661452 0.67199999 4291018949
-0.12321802 0.059659708 0.67199999 4283584340
-0.12194002 0.059657972 0.67199999 4278190087
-0.12102124 0.059833802 0.67400002 4278190089
-0.11991721 0.059920855 0.67500001 4278714386
-0.11880946 0.0600079 0.676 4279108631
-0.11787181 0.060183726 0.67799997 4278781967
-0.11692665 0.060359567 0.68000001 4278190086
-0.11563382 0.060357884 0.68000001 4278190080
-0.11467737 0.060533725 0.68199998 4278190080
-0.11354712 0.060620811 0.68300003 4278190080
-0.11274185 0.060885422 0.68599999 4278190080
-0.11143786 0.060883764 0.68599999 4278190080
-0.11029452 0.060970876 0.68699998 4278190080
-0.10898878 0.060969256 0.68699998 4284032768
-0.10815337 0.061233878 0.69 4290348893
-0.10699689 0.061321016 0.69099998 4292789171
-0.10598963 0.061496902 0.69300002 4294963938
-0.10467275 0.061495323 0.69300002 4294967292
-0.10350508 0.061582487 0.69400001 4294967295
-0.10248093 0.061758392 0.69599998 4294967295
-0.10130388 0.061845586 0.69700003 4294967295
-0.09908013 0.062108714 0.69999999 4294967295
-0.09788996 0.062195934 0.70099998 4294967295
-0.096833833 0.06237188 0.70300001 4294506742
-0.095498443 0.062370393 0.70300001 4294506746
-0.094163127 0.062368929 0.70300001 4294967295
-0.092959933 0.062456191 0.704 4294967295
-0.23273763 0.051417828 0.565 4294967295
-0.2316633 0.051416866 0.565 4294967295
-0.23099694 0.051506869 0.56599998 4294967295
-0.23032668 0.051596869 0.56699997 4294967295
-0.22924815 0.051595829 0.56699997 4294967295
-0.22816955 0.051594779 0.56699997 4294967295
-0.22749136 0.051684696 0.56800002 4294967295
-0.2268092 0.051774591 0.56900001 4294967295
-0.22612318 0.051864456 0.56999999 4294967295
-0.22503845 0.051863324 0.56999999 4294967295
-0.14864291 0.058893792 0.64899999 4288913555
-0.14740723 0.058891896 0.64899999 4288914078
-0.12883927 0.060581986 0.66799998 4290755257
-0.12756854 0.060580172 0.66799998 4291807946
-0.12629791 0.06057838 0.66799998 4291347136
-0.12502731 0.060576595 0.66799998 4291149500
-0.12431258 0.060846861 0.671 4291150284
-0.12303643 0.060845103 0.671 4283715675
-0.12194177 0.060934011 0.67199999 4278190113
-0.12102295 0.061113611 0.67400002 4278190101
-0.11974129 0.061111871 0.67400002 4278190080
-0.11863543 0.061200805 0.67500001 4278584588
-0.11752582 0.06128975 0.676 4279240722
-0.11624054 0.061288044 0.676 4279372051
-0.11546545 0.061558317 0.67900002 4278584084
-0.11467905 0.061828595 0.68199998 4278190084
-0.11338254 0.061826907 0.68199998 4278190080
-0.11241481 0.062006537 0.68400002 4278190080
-0.11111464 0.062004872 0.68400002 4278190080
-0.11013563 0.062184513 0.68599999 4278190080
-0.10899042 0.062273517 0.68699998 4278190080
-0.10684366 0.062542193 0.69 4278779904
-0.10568534 0.062631212 0.69099998 4278583296
-0.10437224 0.062629603 0.69099998 4278190084
-0.10305923 0.062628031 0.69099998 4285361540
-0.10204076 0.062807724 0.69300002 4286281620
-0.10086939 0.062896796 0.69400001 4290887129
-0.099981204 0.063167125 0.69700003 4293913049
-0.098798566 0.063256219 0.69800001 4294967290
-0.097472548 0.063254692 0.69800001 4294967295
-0.096559823 0.063525036 0.70099998 4294967295
-0.095228225 0.063523538 0.70099998 4294967295
-0.093896694 0.063522056 0.70099998 4294967295
-0.092829332 0.063701823 0.70300001 4294967295
-0.23058982 0.052490287 0.565 4294967295
-0.22951525 0.052489281 0.565 4294967295
-0.22884487 0.052581154 0.56599998 4294967295
-0.22817062 0.052673005 0.56699997 4294967295
-0.22709192 0.052671935 0.56699997 4294967295
-0.22641172 0.052763741 0.56800002 4294967295
-0.2257276 0.052855514 0.56900001 4294967295
-0.22464478 0.052854382 0.56900001 4294967295
-0.22356188 0.052853219 0.56900001 4294967295
-0.22247887 0.052852046 0.56900001 4294967295
-0.19294243 0.055860084 0.602 4289176484
-0.17025825 0.057854325 0.62400001 4287465348
-0.1690691 0.057852402 0.62400001 4287531141
-0.14718202 0.0600322 0.648 4288913826
-0.14617349 0.060122911 0.64899999 4288913826
-0.12718841 0.061663609 0.66600001 4291676100
-0.12535433 0.061384033 0.66299999 4291018945
-0.12409324 0.061382242 0.66299999 4291084994
-0.1235733 0.061750785 0.667 4291282126
-0.12230474 0.061749011 0.667 4283913053
-0.12194355 0.062210102 0.67199999 4278190629
-0.12066559 0.062208332 0.67199999 4278190101
-0.11974303 0.062391713 0.67400002 4278190080
-0.11863717 0.062482528 0.67500001 4278781440
-0.11735368 0.062480781 0.67500001 4278649127
-0.11624224 0.062571615 0.676 4278190108
-0.11529712 0.062755004 0.67799997 4278190080
-0.1141763 0.062845856 0.67900002 4278191872
-0.11305173 0.062936708 0.68000001 4278979135
-0.11095387 0.063210979 0.68300003 4278190127
-0.10981617 0.063301854 0.68400002 4278190124
-0.10883342 0.06348528 0.68599999 4278190099
-0.10653561 0.063667081 0.68800002 4278190080
-0.10522813 0.063665435 0.68800002 4278190080
-0.1042228 0.06384889 0.69 4278193664
-0.10291167 0.063847288 0.69 4278191616
-0.10174783 0.06393823 0.69099998 4278190128
-0.10043492 0.063936658 0.69099998 4285297575
-0.099122055 0.063935094 0.69099998 4291275919
-0.098233916 0.064211123 0.69400001 4293381294
-0.097194783 0.06439463 0.69599998 4294040519
-0.096148111 0.064578146 0.69800001 4294967278
-0.093764246 0.064760156 0.69999999 4294967295
-0.092566706 0.064851187 0.70099998 4294967295
-0.22844163 0.053562704 0.565 4290557881
-0.22533205 0.05384279 0.56800002 4292134610
-0.22425112 0.053841654 0.56800002 4293581767
-0.22317015 0.053840507 0.56800002 4294634455
-0.22248006 0.053934112 0.56900001 4294967288
-0.22139697 0.05393292 0.56900001 4294967293
-0.21776378 0.053834449 0.56800002 4294967295
-0.21668227 0.053833179 0.56800002 4294967295
-0.16907103 0.059038375 0.62400001 4287465609
-0.16788197 0.059036434 0.62400001 4287662991
-0.1447165 0.061259411 0.648 4288848033
-0.12787855 0.062646843 0.66299999 4291412158
-0.12661731 0.062645011 0.66299999 4292464847
-0.12516707 0.062548697 0.662 4291544260
-0.12390788 0.062546887 0.662 4291149502
-0.12264876 0.062545091 0.662 4291150797
-0.12138967 0.062543295 0.662 4283979617
-0.121038 0.063013889 0.667 4278191396
-0.12066735 0.063484453 0.67199999 4278190096
-0.11938947 0.063482679 0.67199999 4278190080
-0.11846316 0.063669845 0.67400002 4281413939
-0.11718157 0.06366808 0.67400002 4280031562
-0.11607202 0.063760787 0.67500001 4278190105
-0.11478867 0.063759044 0.67500001 4278190080
-0.11367354 0.063851766 0.676 4288324248
-0.1085178 0.064598866 0.68400002 4279913352
-0.10507679 0.064877197 0.68699998 4283654227
-0.10377128 0.06487558 0.68699998 4288916347
-0.10261498 0.064968392 0.68800002 4290824344
-0.10130768 0.064966783 0.68800002 4288849337
-0.10029115 0.065154046 0.69 4283256932
-0.098980166 0.065152466 0.69 4282927872
-0.097810812 0.065245323 0.69099998 4278190080
-0.096777372 0.065432623 0.69300002 4279959552
-0.094687849 0.065807208 0.69700003 4290881206
-0.09349785 0.06590011 0.69800001 4294967295
-0.09243615 0.06608744 0.69999999 4294967295
-0.22629304 0.054635067 0.565 4280751364
-0.22521806 0.054633979 0.565 4283244800
-0.22414303 0.05463288 0.565 4287060521
-0.22346261 0.054728445 0.56599998 4291269506
-0.22277838 0.054823991 0.56699997 4293901226
-0.22169921 0.054822821 0.56699997 4292989896
-0.22061999 0.054821633 0.56699997 4294965485
-0.21992779 0.054917116 0.56800002 4294967295
-0.21846117 0.0548192 0.56699997 4294967295
-0.21738167 0.05481796 0.56699997 4294967295
-0.21668358 0.054913379 0.56800002 4294967295
-0.21560198 0.054912083 0.56800002 4294967295
-0.21452035 0.05491079 0.56800002 4294967295
-0.21343865 0.054909468 0.56800002 4294967295
-0.21235684 0.05490813 0.56800002 4294967294
-0.16761488 0.060125917 0.62300003 4287728786
-0.16669485 0.060220461 0.62400001 4287662737
-0.1276875 0.063809685 0.662 4291346617
-0.12642817 0.063807838 0.662 4292333512
-0.12497982 0.063709609 0.66100001 4291348682
-0.12372252 0.063707776 0.66100001 4291348682
-0.12246528 0.063705958 0.66100001 4291480782
-0.1212081 0.063704148 0.66100001 4284375137
-0.11995099 0.063702352 0.66100001 4278192423
-0.11905305 0.063893303 0.66299999 4278190094
-0.11796992 0.063987888 0.66399997 4278190080
-0.11590181 0.064946212 0.67400002 4281222497
-0.11462037 0.064944461 0.67400002 4278190080
-0.11350712 0.065039061 0.67500001 4289577132
-0.11239015 0.065133676 0.676 4293585390
-0.11030743 0.065419279 0.67900002 4294967295
-0.10917734 0.065513924 0.68000001 4292666339
-0.10788487 0.065512232 0.68000001 4287151813
-0.10659243 0.065510549 0.68000001 4281822323
-0.10576464 0.065797895 0.68300003 4282663000
-0.10446665 0.065796241 0.68300003 4285492099
-0.1031687 0.065794587 0.68300003 4292919476
-0.10231829 0.066081949 0.68599999 4294301129
-0.10116203 0.066176653 0.68699998 4292071397
-0.099856682 0.066175044 0.68699998 4289966277
-0.098981746 0.066462435 0.69 4281825671
-0.097670838 0.06646084 0.69 4278190094
-0.096778922 0.066748239 0.69300002 4278190080
-0.23026982 0.055123832 0.55900002 4294637810
-0.2272307 0.055415798 0.56199998 4284505690
-0.22414413 0.055707358 0.565 4279897089
-0.22306895 0.055706244 0.565 4282253312
-0.22238661 0.055803694 0.56599998 4282253312
-0.2217004 0.055901118 0.56699997 4282584576
-0.22062117 0.055899933 0.56699997 4283308544
-0.21954185 0.055898733 0.56699997 4285947678
-0.21846241 0.055897504 0.56699997 4288973899
-0.21738294 0.055896256 0.56699997 4288973720
-0.21668483 0.055993576 0.56800002 4292197577
-0.21560328 0.055992294 0.56800002 4293713103
-0.21452166 0.05599099 0.56800002 4294964199
-0.21343994 0.055989664 0.56800002 4294967289
-0.21235818 0.055988327 0.56800002 4294967292
-0.21202025 0.056184098 0.56999999 4294967295
-0.21130461 0.056281287 0.57099998 4294967295
-0.21058512 0.056378465 0.57200003 4294967295
-0.20949546 0.056377046 0.57200003 4294967295
-0.16431884 0.061402518 0.62400001 4288124573
-0.13257024 0.064388491 0.65499997 4290426032
-0.12623906 0.064966917 0.66100001 4292597452
-0.12460351 0.064768486 0.65899998 4292401104
-0.12335002 0.064766638 0.65899998 4291480002
-0.12209655 0.064764805 0.65899998 4291481036
-0.12084315 0.06476298 0.65899998 4284901480
-0.11995278 0.064957708 0.66100001 4278194207
-0.11887529 0.065054171 0.662 4278190082
-0.11779404 0.065150633 0.66299999 4279500800
-0.1170606 0.065443635 0.66600001 4291997622
-0.11666354 0.065933168 0.671 4293316573
-0.11538769 0.065931372 0.671 4294966271
-0.11411192 0.065929607 0.671 4294966770
-0.11283623 0.065927848 0.671 4294965742
-0.11156061 0.065926105 0.671 4294967295
-0.11077809 0.066219114 0.67400002 4294967295
-0.10949688 0.066217385 0.67400002 4294967295
-0.10853682 0.066412158 0.676 4294967295
-0.10725193 0.066410445 0.676 4294967295
-0.1059671 0.066408761 0.676 4294967295
-0.10468233 0.066407084 0.676 4294967295
-0.10339761 0.066405416 0.676 4291151553
-0.10211297 0.066403776 0.676 4291151803
-0.10127584 0.066696823 0.67900002 4292665042
-0.1010164 0.067382783 0.68599999 4293190382
-0.099712923 0.067381158 0.68599999 4293914105
-0.098552987 0.067477763 0.68699998 4288915413
-0.097389318 0.067574397 0.68800002 4278190117
-0.094147518 0.068060763 0.69300002 4288581501
-0.092965074 0.068157427 0.69400001 4294967295
-0.22509357 0.056482505 0.56199998 4279440133
-0.22199489 0.056779608 0.565 4278386688
-0.22023325 0.056877758 0.56599998 4278648832
-0.21954307 0.056977052 0.56699997 4279828480
-0.21846366 0.056975823 0.56699997 4280419584
-0.21738416 0.056974575 0.56699997 4285676066
-0.21668611 0.057073805 0.56800002 4288176456
-0.21560457 0.057072513 0.56800002 4291403155
-0.21452297 0.057071209 0.56800002 4293771703
-0.21381707 0.057170365 0.56900001 4292858569
-0.2127334 0.05716902 0.56900001 4294965229
-0.21202162 0.057268128 0.56999999 4294967290
-0.21093595 0.057266753 0.56999999 4294967295
-0.21021837 0.057365816 0.57099998 4294967295
-0.20949689 0.05746486 0.57200003 4294967295
-0.20840719 0.057463426 0.57200003 4294967295
-0.12585895 0.066022068 0.65899998 4292270036
-0.12460537 0.066020176 0.65899998 4292269782
-0.12335185 0.066018321 0.65899998 4291809231
-0.12209839 0.066016465 0.65899998 4291811282
-0.120845 0.066014618 0.65899998 4284903017
-0.11959165 0.066012777 0.65899998 4278193693
-0.11869753 0.066211291 0.66100001 4278190082
-0.11761817 0.066309638 0.662 4281466880
-0.11671087 0.066508159 0.66399997 4292120981
-0.11579599 0.06670668 0.66600001 4292724421
-0.11487359 0.066905208 0.66799998 4294966780
-0.11394365 0.067103729 0.67000002 4294967294
-0.11266983 0.067101955 0.67000002 4294967288
-0.11139608 0.06710019 0.67000002 4294967295
-0.11012239 0.067098446 0.67000002 4294967295
-0.10901122 0.067196846 0.671 4294967295
-0.1078963 0.067295261 0.67199999 4294967295
-0.10693632 0.067493826 0.67400002 4294967295
-0.10581204 0.067592256 0.67500001 4294967295
-0.10452915 0.067590564 0.67500001 4294967295
-0.10339928 0.067689009 0.676 4293519849
-0.10211462 0.067687348 0.676 4287872951
-0.10083001 0.067685686 0.676 4287741622
-0.1001345 0.068084553 0.68000001 4290100664
-0.099423856 0.06848342 0.68400002 4290824387
-0.09841115 0.06868203 0.68599999 4287733174
-0.097107776 0.068680413 0.68599999 4278190098
-0.21984534 0.057851791 0.565 4278190080
-0.21738543 0.058052909 0.56699997 4280483840
-0.2166874 0.058154039 0.56800002 4280811520
-0.21560587 0.05815275 0.56800002 4282254848
-0.2145243 0.058151454 0.56800002 4282978560
-0.21381839 0.058252495 0.56900001 4282784774
-0.21273476 0.058251161 0.56900001 4283245325
-0.212023 0.058352169 0.56999999 4285357615
-0.21093732 0.058350783 0.56999999 4287923285
-0.21021976 0.058451749 0.57099998 4288448661
-0.20913205 0.058450334 0.57099998 4292198862
-0.20804429 0.0584489 0.57099998 4293713866
-0.20695646 0.058447439 0.57099998 4294634968
-0.20622915 0.058548339 0.57200003 4294967285
-0.20549795 0.058649208 0.57300001 4294967289
-0.20476292 0.058750052 0.574 4294967295
-0.20366921 0.058748536 0.574 4294967295
-0.20257542 0.058746986 0.574 4294966783
-0.2014816 0.05874544 0.574 4294966526
-0.20038778 0.058743879 0.574 4294637047
-0.19929385 0.058742292 0.574 4294044909
-0.19819996 0.058740709 0.574 4293716195
-0.19710599 0.0587391 0.574 4292729300
-0.19601199 0.058737479 0.574 4292138196
-0.19491804 0.058735855 0.574 4291282887
-0.16326948 0.063365765 0.62 4287795352
-0.12441816 0.067169845 0.65799999 4292400850
-0.12316655 0.06716796 0.65799999 4291282626
-0.12191496 0.06716609 0.65799999 4291219661
-0.12066346 0.067164227 0.65799999 4284442981
-0.1195935 0.067264445 0.65899998 4278191884
-0.11869936 0.067466736 0.66100001 4278190080
-0.11744232 0.067464896 0.66100001 4279435264
-0.11636114 0.067565136 0.662 4280090625
-0.1152762 0.067665376 0.66299999 4283700224
-0.11470342 0.068071805 0.667 4287187233
-0.1136053 0.068172045 0.66799998 4288905576
-0.11233527 0.068170257 0.66799998 4292589984
-0.11106531 0.068168476 0.66799998 4294435249
-0.10979541 0.06816671 0.66799998 4294962622
-0.1088505 0.068369046 0.67000002 4294967290
-0.10757691 0.068367302 0.67000002 4294967295
-0.10646205 0.06846761 0.671 4294967295
-0.10565698 0.068772003 0.67400002 4294967295
-0.10437599 0.068770289 0.67400002 4294967295
-0.10324802 0.068870619 0.67500001 4294572537
-0.10196523 0.06886895 0.67500001 4290432207
-0.1006825 0.068867274 0.67500001 4278193424
-0.099841639 0.069171689 0.67799997 4278191104
-0.098844044 0.069374084 0.68000001 4278190080
-0.097838938 0.069576487 0.68199998 4278190080
-0.095806092 0.069981307 0.68599999 4278190080
-0.094502844 0.069979712 0.68599999 4278190080
-0.093199626 0.069978125 0.68599999 4286345307
-0.092030451 0.070078567 0.68699998 4294967295
-0.090725496 0.070077024 0.68699998 4294967295
-0.22756959 0.0578948 0.55500001 4294637301
-0.21769552 0.058923922 0.565 4278197587
-0.21661989 0.058922693 0.565 4278976795
-0.21522756 0.05912872 0.56699997 4279566336
-0.21414788 0.059127416 0.56699997 4279828736
-0.21344393 0.05923038 0.56800002 4278517760
-0.21236221 0.059229042 0.56800002 4278190080
-0.21165243 0.059331957 0.56900001 4280423424
-0.21093874 0.059434842 0.56999999 4281607425
-0.20985302 0.059433445 0.56999999 4284627743
-0.20876721 0.059432015 0.56999999 4287917393
-0.20804577 0.059534855 0.57099998 4291272598
-0.20695792 0.059533391 0.57099998 4293706939
-0.20623064 0.059636191 0.57200003 4292794063
-0.20549944 0.059738953 0.57300001 4293978338
-0.20440772 0.05973744 0.57300001 4294965490
-0.2033159 0.05973592 0.57300001 4294967032
-0.20257695 0.059838623 0.574 4294967292
-0.20148316 0.059837066 0.574 4294967033
-0.20038936 0.059835501 0.574 4294967291
-0.19929548 0.05983391 0.574 4294965749
-0.19820152 0.059832312 0.574 4294571504
-0.19710761 0.059830703 0.574 4294308588
-0.19601367 0.059829079 0.574 4292996072
-0.19491965 0.059827436 0.574 4291943383
-0.19416331 0.059930019 0.57499999 4291350994
-0.19306734 0.059928346 0.57499999 4290693065
-0.13647757 0.066987179 0.64399999 4289376173
-0.13525185 0.066985197 0.64399999 4289244587
-0.13444243 0.067191258 0.64600003 4289047724
-0.12191685 0.068415947 0.65799999 4291484379
-0.12066532 0.06841407 0.65799999 4285168252
-0.11959537 0.068516165 0.65899998 4278190634
-0.11834205 0.068514295 0.65899998 4278190106
-0.11744416 0.068720371 0.66100001 4278190080
-0.11618719 0.06871853 0.66100001 4278190080
-0.11510415 0.068820663 0.662 4278190080
-0.11401735 0.06892278 0.66299999 4278190080
-0.11326698 0.069232844 0.66600001 4279828480
-0.11216891 0.069334984 0.667 4284562484
-0.11090083 0.069333181 0.667 4290087284
-0.10963281 0.0693314 0.667 4293047712
-0.10852731 0.06943357 0.66799998 4292397759
-0.10757867 0.069639698 0.67000002 4294964714
-0.10646378 0.069741875 0.671 4294967285
-0.10518841 0.069740139 0.671 4294967295
-0.10437769 0.07005021 0.67400002 4294967295
-0.10324969 0.070152424 0.67500001 4294901241
-0.10196691 0.070150726 0.67500001 4292537065
-0.10068417 0.070149034 0.67500001 4286089352
-0.099548765 0.070251286 0.676 4284838737
-0.09826427 0.070249625 0.676 4278191872
-0.097553656 0.070663653 0.68000001 4278583375
-0.096261673 0.070662022 0.68000001 4278190150
-0.094969735 0.070660397 0.68000001 4278190080
-0.094228931 0.071074441 0.68400002 4278190080
-0.092929505 0.071072839 0.68400002 4285356872
-0.092032045 0.071382985 0.68699998 4294967294
-0.090727054 0.071381405 0.68699998 4294967295
-0.089422107 0.071379848 0.68699998 4294967295
-0.21554543 0.059996001 0.565 4280360192
-0.21377152 0.060099609 0.56599998 4281279005
-0.21236357 0.060309317 0.56800002 4279176221
-0.21165378 0.060414128 0.56900001 4279240972
-0.21057005 0.060412753 0.56900001 4278714627
-0.20985442 0.060517523 0.56999999 4280156160
-0.20876864 0.060516097 0.56999999 4280483840
-0.20768283 0.060514659 0.56999999 4281597953
-0.20659696 0.06051321 0.56999999 4281991175
-0.20587157 0.06061789 0.57099998 4282456338
-0.20514235 0.060722563 0.57200003 4282982682
-0.20440923 0.060827199 0.57300001 4283377229
-0.20331742 0.060825672 0.57300001 4288838305
-0.20222558 0.060824126 0.57300001 4289039011
-0.20148474 0.060928714 0.574 4292262868
-0.20039092 0.060927138 0.574 4294173123
-0.19929704 0.060925551 0.574 4294962638
-0.19820318 0.060923941 0.574 4294966508
-0.19710924 0.060922325 0.574 4294967283
-0.19601525 0.060920693 0.574 4294967291
-0.19492133 0.060919054 0.574 4294834932
-0.19416496 0.061023515 0.57499999 4294178033
-0.19306903 0.061021842 0.57499999 4294112240
-0.19230695 0.061126288 0.57599998 4293848044
-0.19154105 0.061230704 0.57700002 4293387749
-0.11941575 0.069662064 0.65799999 4278193042
-0.11834393 0.069766052 0.65899998 4278190202
-0.11709067 0.069764182 0.65899998 4278190080
-0.11583748 0.069762319 0.65899998 4278190080
-0.11493211 0.06997218 0.66100001 4278190080
-0.11367524 0.069970354 0.66100001 4278190080
-0.1125885 0.070074379 0.662 4278190080
-0.11149803 0.070178404 0.66299999 4278190080
-0.11023755 0.070176609 0.66299999 4279697408
-0.10914149 0.070280649 0.66399997 4279762944
-0.10836662 0.070596389 0.667 4279173120
-0.10725929 0.070700467 0.66799998 4279042048
-0.10630688 0.070910372 0.67000002 4283053568
-0.1050334 0.070908621 0.67000002 4287264301
-0.10391483 0.071012713 0.671 4288710814
-0.10309846 0.071328469 0.67400002 4293842668
-0.10181756 0.07132674 0.67400002 4294965235
-0.10053671 0.071325041 0.67400002 4294967295
-0.099403195 0.071429178 0.67500001 4294967289
-0.098265924 0.071533315 0.676 4294967295
-0.097268388 0.071743287 0.67799997 4293715936
-0.095980175 0.071741633 0.67799997 4279636233
-0.094971366 0.07195162 0.68000001 4278190080
-0.093955003 0.072161615 0.68199998 4278190080
-0.09279523 0.072265819 0.68300003 4283777063
-0.091631725 0.07237003 0.68400002 4294967285
-0.090332419 0.072368443 0.68400002 4294967295
-0.089423664 0.072684281 0.68699998 4294967295
-0.20948766 0.061493531 0.56900001 4278517792
-0.20840383 0.061492115 0.56900001 4278190104
-0.20768429 0.061598744 0.56999999 4278190080
-0.20659842 0.061597288 0.56999999 4278190087
-0.20587307 0.061703876 0.57099998 4278190080
-0.20514385 0.061810449 0.57200003 4278190080
-0.20405403 0.061808929 0.57200003 4278977024
-0.20331898 0.061915454 0.57300001 4280029696
-0.20222715 0.061913896 0.57300001 4286334782
-0.2014863 0.062020388 0.574 4289098088
-0.20039253 0.062018804 0.574 4290945423
-0.19929866 0.062017214 0.574 4292787627
-0.1982048 0.062015601 0.574 4292332216
-0.19711086 0.062013965 0.574 4294240213
-0.19635841 0.062120359 0.57499999 4294110160
-0.19526254 0.062118705 0.57499999 4294439124
-0.19416663 0.062117048 0.57499999 4294899442
-0.19340651 0.062223393 0.57599998 4294833649
-0.19230863 0.062221687 0.57599998 4294506231
-0.19154273 0.062328003 0.57700002 4294637560
-0.19044293 0.062326286 0.57700002 4294046195
-0.18967128 0.062432569 0.57800001 4293519595
-0.18856953 0.062430821 0.57800001 4292140511
-0.18617043 0.061997026 0.574 4291482580
-0.18507627 0.061995268 0.574 4291545805
-0.11691486 0.070908204 0.65799999 4279894068
-0.11566356 0.070906319 0.65799999 4278911013
-0.1145862 0.071012214 0.65899998 4278190108
-0.11333312 0.071010359 0.65899998 4278190112
-0.1120801 0.071008518 0.65899998 4278190080
-0.11116349 0.071222186 0.66100001 4278190080
-0.1099068 0.071220368 0.66100001 4278190080
-0.10865018 0.071218565 0.66100001 4278190080
-0.10771853 0.071432248 0.66299999 4278190080
-0.10661878 0.071538202 0.66399997 4278190080
-0.10583264 0.071859635 0.667 4278190080
-0.10472161 0.071965605 0.66799998 4278190080
-0.10345197 0.071963854 0.66799998 4283241728
-0.10279426 0.07239303 0.67199999 4290413407
-0.10151713 0.072391286 0.67199999 4293837761
-0.10024007 0.072389565 0.67199999 4294962154
-0.098963082 0.072387874 0.67199999 4294966503
-0.097976878 0.072601624 0.67400002 4294967280
-0.096839651 0.07270766 0.67500001 4294963455
-0.095698699 0.072813712 0.676 4279501593
-0.093681104 0.073241271 0.68000001 4278190080
-0.092660978 0.073455058 0.68199998 4281408000
-0.091499358 0.073561154 0.68300003 4294967259
-0.090201944 0.073559552 0.68300003 4294967295
-0.088904567 0.07355798 0.68300003 4294967295
-0.21751536 0.06149004 0.55900002 4294966261
-0.20732139 0.062572889 0.56900001 4283720515
-0.20478666 0.062788375 0.57099998 4279571481
-0.2040555 0.062896825 0.57200003 4280491799
-0.2022287 0.063003697 0.57300001 4281073920
-0.2014879 0.06311208 0.574 4280942592
-0.20039409 0.063110493 0.574 4281795328
-0.19930026 0.063108891 0.574 4281795328
-0.19820638 0.063107267 0.574 4282786048
-0.1971125 0.063105643 0.574 4283509760
-0.19601856 0.063103996 0.574 4282851637
-0.19526421 0.063212276 0.57499999 4293444566
-0.19416831 0.063210599 0.57499999 4293847785
-0.19340819 0.063318834 0.57599998 4294966009
-0.19231033 0.063317135 0.57599998 4294834680
-0.19154444 0.063425347 0.57700002 4294703094
-0.19044466 0.063423619 0.57700002 4294637560
-0.18967298 0.063531779 0.57800001 4294177009
-0.18824501 0.063420117 0.57700002 4294308597
-0.18617216 0.063088618 0.574 4294045682
-0.18507804 0.063086852 0.574 4293979633
-0.18462496 0.063304886 0.57599998 4293979633
-0.18384565 0.063412994 0.57700002 4293979116
-0.12395863 0.071184598 0.64899999 4294373109
-0.12291311 0.071292326 0.64999998 4293716449
-0.12081084 0.071507812 0.65200001 4292730587
-0.11957072 0.071505882 0.65200001 4293980398
-0.11833062 0.07150396 0.65200001 4293914607
-0.11441419 0.072154358 0.65799999 4283918493
-0.113163 0.072152495 0.65799999 4281812861
-0.11191186 0.072150633 0.65799999 4278190154
-0.11082898 0.072258428 0.65899998 4278190152
-0.10957607 0.072256602 0.65899998 4278190080
-0.1083232 0.07225477 0.65899998 4278190080
-0.10739539 0.072472259 0.66100001 4278190080
-0.10613885 0.072470456 0.66100001 4278190080
-0.10519973 0.072687954 0.66299999 4278190080
-0.10440984 0.073015071 0.66600001 4278190080
-0.10314398 0.073013298 0.66600001 4278190080
-0.10203115 0.073121183 0.667 4278648832
-0.10121674 0.073448323 0.67000002 4281139200
-0.099943459 0.073446579 0.67000002 4281991168
-0.098817505 0.073554479 0.671 4283564066
-0.097978555 0.073881634 0.67400002 4292247718
-0.096697874 0.073879942 0.67400002 4289371267
-0.095558785 0.073987864 0.67500001 4279304960
-0.090071455 0.074746922 0.68199998 4294967295
-0.088775977 0.074745335 0.68199998 4294967295
-0.20004658 0.064090356 0.57300001 4278255616
-0.19930187 0.064200588 0.574 4278190080
-0.19820803 0.064198971 0.574 4278583296
-0.19711414 0.064197332 0.574 4278190080
-0.19602022 0.064195685 0.574 4278190080
-0.1952659 0.064305857 0.57499999 4292336842
-0.19417001 0.064304173 0.57499999 4293717480
-0.19340989 0.064414307 0.57599998 4294441203
-0.19231206 0.064412594 0.57599998 4294506229
-0.1912142 0.064410873 0.57599998 4294506229
-0.19044642 0.064520963 0.57700002 4294702840
-0.18934661 0.064519204 0.57700002 4294702840
-0.18824682 0.064517446 0.57700002 4294966011
-0.18617395 0.064180233 0.574 4294374131
-0.18507984 0.064178467 0.574 4294571504
-0.18462676 0.064400285 0.57599998 4294374381
-0.18384746 0.064510293 0.57700002 4294637299
-0.18274762 0.064508475 0.57700002 4294308334
-0.18164773 0.064506657 0.57700002 4293914607
-0.18054791 0.064504825 0.57700002 4293256677
-0.12215869 0.072080933 0.64600003 4293388779
-0.12092984 0.072078988 0.64600003 4292204504
-0.12007161 0.072300188 0.648 4292730333
-0.11902247 0.072409831 0.64899999 4293454056
-0.11796956 0.072519459 0.64999998 4294636002
-0.11709253 0.072740681 0.65200001 4294966508
-0.11299289 0.073290877 0.65700001 4286683553
