# .PCD v0.7 - Point Cloud Data file format
VERSION 0.7
FIELDS x y z rgba
SIZE 4 4 4 4
TYPE F F F U
COUNT 1 1 1 1
WIDTH 1087
HEIGHT 1
VIEWPOINT 0 0 0 1 0 0 0
POINTS 1087
DATA ascii
0.020721298 0.11627308 0.759 4293651948
0.026410958 0.11596824 0.75700003 4293454056
0.027847052 0.1159687 0.75700003 4293914607
0.029205795 0.11566281 0.755 4293717228
0.030638123 0.11566333 0.755 4293783021
0.032070458 0.11566389 0.755 4294374644
0.033502813 0.11566447 0.755 4294900989
0.034935191 0.11566509 0.755 4294967295
0.03631942 0.11551256 0.75400001 4294967295
0.037749931 0.11551325 0.75400001 4294967295
0.039180469 0.11551397 0.75400001 4294967295
0.04039558 0.1149019 0.75 4294967295
0.041818563 0.11490268 0.75 4294967295
0.043241572 0.11490346 0.75 4294967295
0.044664599 0.11490429 0.75 4294967295
0.046087656 0.11490516 0.75 4293980652
0.047447391 0.11475287 0.74900001 4292664792
0.048868597 0.11475375 0.74900001 4291348934
0.050289828 0.11475471 0.74900001 4290427832
0.051711082 0.1147557 0.74900001 4286551449
0.053132378 0.1147567 0.74900001 4282274904
0.054626524 0.11491096 0.75 4280294177
0.056049772 0.11491203 0.75 4278190081
0.057473041 0.11491312 0.75 4278190080
0.058817815 0.11476105 0.74900001 4278190080
0.060239259 0.11476219 0.74900001 4282327296
0.061660733 0.11476338 0.74900001 4294564776
0.063082233 0.1147646 0.74900001 4294967032
0.065749303 0.11446065 0.74699998 4294703607
0.067167111 0.11446192 0.74699998 4294900987
0.068584949 0.11446324 0.74699998 4293783026
0.070002839 0.11446461 0.74699998 4281940029
0.071420744 0.11446595 0.74699998 4279369731
0.072838701 0.11446735 0.74699998 4279107584
0.082433142 0.11401816 0.74400002 4282672483
0.08384572 0.11401976 0.74400002 4279119404
0.08525835 0.1140214 0.74400002 4278194207
0.092073984 0.11372338 0.74199998 4286612077
0.093483075 0.11372513 0.74199998 4287264330
0.10293026 0.11327831 0.73900002 4278190084
0.10433404 0.11328024 0.73900002 4280614912
0.10573786 0.11328222 0.73900002 4292323741
0.12594344 0.11254731 0.73400003 4291481045
0.1273386 0.11254957 0.73400003 4289573048
-0.022682235 0.11880604 0.76599997 4294967295
-0.021173496 0.1184952 0.764 4294967295
-0.019723997 0.11849462 0.764 4294243304
-0.018274512 0.11849403 0.764 4280163602
-0.01682505 0.11849352 0.764 4279508257
-0.015375596 0.118493 0.764 4282534478
-0.013926163 0.11849252 0.764 4283124550
-0.012476746 0.1184921 0.764 4282927428
-0.01102734 0.11849169 0.764 4282465342
-0.0095528727 0.11818113 0.76200002 4280228380
-0.0081072859 0.1181808 0.76200002 4285614888
-0.006661708 0.11818048 0.76200002 4294299564
-0.0052161412 0.11818021 0.76200002 4293710818
-0.0037705828 0.11817996 0.76200002 4292855509
-0.0023250314 0.11817975 0.76200002 4288780993
-0.00087833282 0.11802448 0.76099998 4287859891
0.00056530855 0.11802434 0.76099998 4284508271
0.002008945 0.11802422 0.76099998 4280297518
0.0034525781 0.11802413 0.76099998 4278977293
0.0048962077 0.11802409 0.76099998 4278190080
0.0092028389 0.11771397 0.759 4281350400
0.010642676 0.11771406 0.759 4282469135
0.012082512 0.1177142 0.759 4284572530
0.013486718 0.11740416 0.75700003 4288059816
0.014922767 0.11740433 0.75700003 4288059812
0.016358821 0.11740454 0.75700003 4293915388
0.017794881 0.11740478 0.75700003 4294967295
0.019230943 0.11740506 0.75700003 4294967295
0.020667022 0.11740537 0.75700003 4294704127
0.022103099 0.11740571 0.75700003 4293059046
0.026341628 0.11709674 0.755 4294967295
0.027737174 0.11694212 0.75400001 4294967295
0.029167624 0.11694261 0.75400001 4294967295
0.030598085 0.11694316 0.75400001 4294967295
0.031943604 0.1166335 0.75199997 4294967295
0.033370294 0.11663409 0.75199997 4294967295
0.034797009 0.1166347 0.75199997 4294967295
0.036127407 0.11632518 0.75 4294966782
0.037550364 0.11632586 0.75 4293780704
0.038973339 0.11632658 0.75 4292136136
0.040342472 0.11617222 0.74900001 4288582848
0.041763593 0.116173 0.74900001 4287727539
0.043184735 0.11617381 0.74900001 4284770938
0.044605903 0.11617464 0.74900001 4280823615
0.046027087 0.1161755 0.74900001 4278917376
0.047448292 0.11617639 0.74900001 4278193408
0.048869535 0.11617731 0.74900001 4278849820
0.050290793 0.11617827 0.74900001 4279442214
0.051712085 0.11617926 0.74900001 4279310621
0.053133398 0.11618029 0.74900001 4278916120
0.054554738 0.11618132 0.74900001 4279246875
0.055976115 0.11618239 0.74900001 4279970854
0.060079575 0.11587556 0.74699998 4281867008
0.061497267 0.11587674 0.74699998 4292130698
0.062915005 0.11587796 0.74699998 4294570711
0.064332776 0.1158792 0.74699998 4294965983
0.086439699 0.11512699 0.74199998 4293192168
0.098721087 0.11467747 0.73900002 4290031007
0.10139105 0.11452608 0.73799998 4278192660
0.1027929 0.11452799 0.73799998 4278190861
-0.022623667 0.11994798 0.764 4294967295
-0.021118687 0.11963335 0.76200002 4294967295
-0.019647131 0.11947574 0.76099998 4294506746
-0.018203305 0.11947515 0.76099998 4282532420
-0.016781526 0.11963163 0.76200002 4278591511
-0.015335836 0.11963113 0.76200002 4281552453
-0.013890165 0.11963066 0.76200002 4282992971
-0.012444506 0.1196302 0.76200002 4282992971
-0.010998864 0.11962981 0.76200002 4282400832
-0.0095532313 0.11962944 0.76200002 4281282351
-0.008107611 0.11962907 0.76200002 4283836959
-0.0052095549 0.11947148 0.76099998 4290493625
-0.0037658608 0.11947125 0.76099998 4287861649
-0.00087618543 0.11915687 0.759 4281815872
0.00056220934 0.11884275 0.75700003 4278190080
0.0019982907 0.11884263 0.75700003 4278191616
0.0034343679 0.11884256 0.75700003 4278190080
0.0048833098 0.11915649 0.759 4278190080
0.009178658 0.11884256 0.75700003 4285033040
0.01061473 0.11884265 0.75700003 4287796346
0.012018967 0.11852878 0.755 4289768353
0.013451251 0.11852892 0.755 4290162855
0.014883538 0.11852911 0.755 4292859593
0.01629422 0.11837233 0.75400001 4294965997
0.01772462 0.11837258 0.75400001 4294967295
0.019180432 0.11852985 0.755 4294967295
0.020612741 0.11853014 0.755 4294967295
0.022045065 0.11853049 0.755 4294967295
0.023446295 0.11837387 0.75400001 4294638330
0.02487674 0.1183743 0.75400001 4294967295
0.026307192 0.11837473 0.75400001 4294967295
0.027664084 0.1180612 0.75199997 4294967295
0.029090768 0.11806169 0.75199997 4294967295
0.030517468 0.11806223 0.75199997 4294967295
0.031944178 0.11806279 0.75199997 4294967295
0.033282161 0.1177494 0.75 4294900987
0.03470511 0.11775002 0.75 4293322470
0.036128081 0.11775067 0.75 4292730333
0.037501 0.11759435 0.74900001 4289970621
0.038922105 0.11759507 0.74900001 4288062623
0.040343236 0.11759582 0.74900001 4284839802
0.041652862 0.1172826 0.74699998 4279971120
0.043070238 0.11728339 0.74699998 4280948007
0.044487637 0.11728423 0.74699998 4279435280
0.045905065 0.11728511 0.74699998 4279111936
0.047322504 0.11728599 0.74699998 4279770120
0.048739973 0.11728693 0.74699998 4280557093
0.050157472 0.11728788 0.74699998 4280359970
0.051575005 0.11728889 0.74699998 4280951850
0.052992549 0.1172899 0.74699998 4281215279
0.055827733 0.11729202 0.74699998 4281676080
0.058584511 0.11713723 0.74599999 4279701784
0.060000312 0.11713841 0.74599999 4281207040
0.061416149 0.1171396 0.74599999 4289957492
0.064075671 0.11682803 0.74400002 4294834151
0.065487817 0.11682929 0.74400002 4294440436
0.066899978 0.11683059 0.74400002 4294637814
0.068312183 0.11683192 0.74400002 4294967295
0.069724433 0.11683328 0.74400002 4289506476
0.077988468 0.11652789 0.74199998 4294962138
0.10111818 0.11561494 0.736 4278193964
0.10251627 0.11561687 0.736 4278193707
0.10391439 0.11561882 0.736 4278190080
-0.022565102 0.12108243 0.76200002 4294967295
-0.021091595 0.12092287 0.76099998 4294967295
-0.019647719 0.12092225 0.76099998 4294967295
-0.018203864 0.12092169 0.76099998 4284374624
-0.016760025 0.12092113 0.76099998 4278196755
-0.015316203 0.12092064 0.76099998 4279122225
-0.013872396 0.12092014 0.76099998 4281481275
-0.012428601 0.12091969 0.76099998 4281349688
-0.0051961252 0.1206002 0.759 4282787072
-0.0037561923 0.12059995 0.759 4281932032
0.00056207983 0.12028162 0.75700003 4287339127
0.0019981938 0.12028151 0.75700003 4289444247
0.0034343039 0.12028144 0.75700003 4292466616
0.0048704115 0.12028139 0.75700003 4292730044
0.007722165 0.11996358 0.755 4294967278
0.0091544744 0.11996365 0.755 4294967295
0.010586786 0.11996372 0.755 4294967295
0.012003179 0.11980494 0.75400001 4294967295
0.013433601 0.11980511 0.75400001 4294967295
0.014864019 0.11980528 0.75400001 4294967295
0.01629445 0.11980549 0.75400001 4294967295
0.017724881 0.11980575 0.75400001 4294967295
0.019104509 0.11948824 0.75199997 4294967295
0.020531163 0.11948853 0.75199997 4294967295
0.021957824 0.11948888 0.75199997 4294967295
0.023384495 0.11948926 0.75199997 4294967295
0.024745189 0.11917187 0.75 4294967295
0.026168084 0.11917231 0.75 4293585131
0.027590994 0.11917276 0.75 4290097845
0.029013913 0.11917327 0.75 4285490091
0.030436851 0.11917379 0.75 4284766369
0.031859804 0.11917438 0.75 4282074170
0.033282772 0.11917499 0.75 4278323969
0.034659475 0.1190167 0.74900001 4278190080
0.036080576 0.11901735 0.74900001 4278190080
0.037401564 0.11870024 0.74699998 4278190598
0.038818907 0.11870097 0.74699998 4278257933
0.040236272 0.11870171 0.74699998 4279442464
0.041597895 0.11854359 0.74599999 4280231723
0.043013405 0.11854439 0.74599999 4280757808
0.044488497 0.11870416 0.74699998 4281349688
0.045844492 0.11854612 0.74599999 4281613113
0.047260076 0.11854701 0.74599999 4281547320
0.048675682 0.11854795 0.74599999 4281084474
0.0500913 0.11854891 0.74599999 4280821046
0.051506959 0.11854988 0.74599999 4280558126
0.052922644 0.11855092 0.74599999 4280163368
0.059840638 0.11823865 0.74400002 4280355843
0.061252702 0.11823983 0.74400002 4285224269
0.069538362 0.11792973 0.74199998 4292072401
0.077674665 0.11746162 0.73900002 4294958334
0.079077721 0.11746316 0.73900002 4294768887
0.10502839 0.11670216 0.73400003 4278190080
0.10906306 0.11654921 0.73299998 4294768115
-0.021092219 0.12236948 0.76099998 4294967295
-0.019596675 0.12204728 0.759 4294967295
-0.018156582 0.12204669 0.759 4285295724
-0.016716508 0.12204616 0.759 4280687360
-0.015276447 0.12204564 0.759 4281410816
-0.013836398 0.12204515 0.759 4280560425
-0.012396367 0.12204471 0.759 4280955183
-0.01095635 0.1220443 0.759 4280884513
-0.005182696 0.12172137 0.75700003 4282203178
-0.0037465245 0.12172113 0.75700003 4285492828
-0.0023042567 0.12139933 0.755 4288450949
-0.00087189337 0.12139913 0.755 4290029724
0.00056046399 0.12139899 0.755 4290756263
0.0019928166 0.12139887 0.755 4292598467
0.0034251648 0.12139878 0.755 4294178033
0.0048575113 0.12139874 0.755 4294967295
0.0062898556 0.12139872 0.755 4294967295
0.0077119716 0.12123797 0.75400001 4294967295
0.0091424175 0.12123802 0.75400001 4294967295
0.010572864 0.1212381 0.75400001 4294967295
0.013398129 0.12091676 0.75199997 4294967295
0.01482479 0.12091694 0.75199997 4294967295
0.016251458 0.12091714 0.75199997 4294967295
0.017678127 0.12091741 0.75199997 4294967285
0.019053996 0.1205961 0.75 4294967291
0.020476885 0.12059641 0.75 4294967295
0.021899782 0.12059674 0.75 4294967295
0.023291595 0.12043633 0.74900001 4294967295
0.024712617 0.12043674 0.74900001 4294967295
0.026133649 0.12043718 0.74900001 4293257181
0.027554689 0.12043766 0.74900001 4281874736
0.028975748 0.12043815 0.74900001 4283175459
0.030396821 0.12043869 0.74900001 4280221696
0.031817906 0.12043925 0.74900001 4278190080
0.033150245 0.12011824 0.74699998 4278321152
0.034567568 0.12011887 0.74699998 4278321416
0.035936736 0.11995872 0.74599999 4279439641
0.037352197 0.11995942 0.74599999 4280159044
0.038767677 0.11996015 0.74599999 4280356679
0.040183179 0.11996091 0.74599999 4280754728
0.041598693 0.11996169 0.74599999 4281543988
0.04301424 0.1199625 0.74599999 4281413685
0.044429794 0.11996333 0.74599999 4281742650
0.058272678 0.11933017 0.74199998 4278717510
0.059680961 0.11933135 0.74199998 4278715136
0.061089247 0.11933254 0.74199998 4279372805
0.062497575 0.11933376 0.74199998 4288775021
0.063819826 0.1191742 0.741 4294961877
0.065226316 0.11917546 0.741 4294768115
0.072064303 0.11886062 0.73900002 4278193440
0.073467232 0.11886208 0.73900002 4278190080
0.074870192 0.11886355 0.73900002 4278190080
0.076169953 0.11870416 0.73799998 4282392320
0.077571101 0.11870571 0.73799998 4294564006
0.10876754 0.11762115 0.73100001 4293783275
0.11015645 0.11762322 0.73100001 4294375156
-0.02103742 0.12349079 0.759 4294967295
-0.019545635 0.12316477 0.75700003 4294967295
-0.018109303 0.12316418 0.75700003 4288914852
-0.016672989 0.12316364 0.75700003 4280897893
-0.015236685 0.12316311 0.75700003 4282147961
-0.013800403 0.12316264 0.75700003 4285889408
-0.012364132 0.12316218 0.75700003 4288981679
-0.010927876 0.12316179 0.75700003 4290426799
-0.0080341147 0.12283563 0.755 4294374865
-0.0066016866 0.12283534 0.755 4294769623
-0.0051624211 0.12267234 0.75400001 4294967295
-0.0037319085 0.1226721 0.75400001 4294967295
-0.0023014026 0.12267186 0.75400001 4294967295
-0.00087090395 0.12267171 0.75400001 4294967295
0.00055958948 0.12267157 0.75400001 4294967295
0.0019900778 0.12267143 0.75400001 4294967295
0.009118231 0.12234595 0.75199997 4294967295
0.010516871 0.12202065 0.75 4293848550
0.011923845 0.12185807 0.74900001 4292202972
0.013344846 0.12185822 0.74900001 4291282126
0.014785558 0.12202109 0.75 4288255421
0.016208462 0.1220213 0.75 4286676389
0.017607866 0.12185887 0.74900001 4287006079
0.019028883 0.12185914 0.74900001 4294967032
0.02044991 0.12185947 0.74900001 4294967295
0.021870945 0.1218598 0.74900001 4294967295
0.023291986 0.12186018 0.74900001 4294967295
0.02464705 0.12153518 0.74699998 4294967295
0.026064318 0.12153563 0.74699998 4293980650
0.027481603 0.12153611 0.74699998 4278650881
0.028898895 0.12153661 0.74699998 4278190080
0.030316204 0.12153714 0.74699998 4278192640
0.031691041 0.12137499 0.74599999 4280228380
0.033106484 0.12137561 0.74599999 4287926160
0.034429386 0.12105082 0.74400002 4292666033
0.035841066 0.12105148 0.74400002 4293126584
0.037252761 0.12105217 0.74400002 4292666323
0.038664483 0.12105291 0.74400002 4288521621
0.040076211 0.12105366 0.74400002 4279577432
0.041487966 0.12105443 0.74400002 4278191924
0.042899743 0.12105525 0.74400002 4278193693
0.044311542 0.12105609 0.74400002 4278788143
0.04572336 0.12105697 0.74400002 4279702027
0.0512328 0.12073537 0.74199998 4288387211
0.052640948 0.1207364 0.74199998 4289505949
0.056788933 0.12057693 0.741 4289967261
0.058195304 0.12057808 0.741 4278519552
0.063648835 0.12025748 0.73900002 4294105599
0.065051563 0.12025877 0.73900002 4294834160
0.066454329 0.12026008 0.73900002 4294571244
0.067857131 0.12026142 0.73900002 4294308595
0.070567213 0.12010144 0.73799998 4293059546
0.07196822 0.12010287 0.73799998 4280953634
0.082726844 0.11946417 0.73400003 4293585640
0.084120616 0.11946585 0.73400003 4293519849
0.085514426 0.11946751 0.73400003 4293585642
0.086908281 0.11946922 0.73400003 4293651687
0.092358097 0.11931348 0.73299998 4293980652
0.093750283 0.1193153 0.73299998 4294178031
0.11385642 0.11853113 0.72799999 4294111988
0.11523984 0.11853327 0.72799999 4289769394
-0.020927183 0.12427535 0.755 4294967295
-0.019494591 0.12427473 0.755 4294967295
-0.018062023 0.12427416 0.755 4290165176
-0.016629469 0.1242736 0.755 4289633167
-0.01519693 0.12427309 0.755 4290225561
-0.013764408 0.12427259 0.755 4289902768
-0.012331899 0.12427215 0.755 4290758076
-0.010899406 0.12427174 0.755 4293386464
-0.009466921 0.12427135 0.755 4294966781
-0.0080238068 0.1241064 0.75400001 4294967295
-0.0065932432 0.12410609 0.75400001 4294967295
-0.0051489943 0.12377659 0.75199997 4294967295
-0.0037222425 0.12377635 0.75199997 4294967295
-0.002295498 0.12377612 0.75199997 4294967295
-0.0008687604 0.12377594 0.75199997 4294967295
0.00055648765 0.12344661 0.75 4294967291
0.0019794204 0.1234465 0.75 4294967295
0.0034023495 0.1234464 0.75 4294967295
0.0048252759 0.12344636 0.75 4294967295
0.0062398696 0.12328175 0.74900001 4294967295
0.0076608951 0.12328175 0.74900001 4293980398
0.0090819215 0.12328181 0.74900001 4292270297
0.010502947 0.12328189 0.74900001 4291349195
0.011892137 0.1229528 0.74699998 4290363069
0.013309374 0.12295295 0.74699998 4288520865
0.014766043 0.12328234 0.74900001 4284117619
0.016187081 0.12328254 0.74900001 4278262299
0.017561108 0.1229536 0.74699998 4281278720
0.018978363 0.12295387 0.74699998 4293910957
0.020395627 0.12295417 0.74699998 4294967295
0.021812901 0.12295453 0.74699998 4294967295
0.023230184 0.12295491 0.74699998 4294967295
0.024647471 0.12295531 0.74699998 4294967295
0.026029883 0.12279116 0.74599999 4294835709
0.0274453 0.12279164 0.74599999 4281282351
0.028860727 0.12279212 0.74599999 4279566336
0.031606663 0.12246405 0.74400002 4280884224
0.033018339 0.12246463 0.74400002 4290226824
0.034337476 0.12213606 0.74199998 4292732895
0.035745397 0.12213673 0.74199998 4292403930
0.03715333 0.12213742 0.74199998 4292928491
0.038561277 0.12213814 0.74199998 4289309876
0.039969251 0.12213889 0.74199998 4285229931
0.041377239 0.12213968 0.74199998 4281019179
0.042785253 0.1221405 0.74199998 4278196483
0.044193286 0.12214135 0.74199998 4279846192
0.045601342 0.12214222 0.74199998 4283911504
0.047009423 0.12214313 0.74199998 4286938239
0.049758505 0.12198044 0.741 4290030255
0.051164769 0.12198144 0.741 4290624443
0.05375883 0.12148967 0.73799998 4293847535
0.055159472 0.12149074 0.73799998 4294176244
0.056560151 0.12149187 0.73799998 4291153379
0.057960849 0.12149302 0.73799998 4279968569
0.059361584 0.1214942 0.73799998 4278190080
0.06076235 0.1214954 0.73799998 4278190080
0.062163141 0.1214966 0.73799998 4280688128
0.063563973 0.12149788 0.73799998 4293122985
0.066185877 0.12117122 0.736 4293916140
0.06758301 0.12117258 0.736 4294242543
0.068980172 0.12117394 0.736 4294308336
0.07037738 0.12117533 0.736 4293585390
0.071774617 0.12117675 0.736 4282795338
0.074366584 0.12085041 0.73400003 4279566336
0.075760148 0.12085192 0.73400003 4280287232
0.077048615 0.1206888 0.73299998 4289362806
0.078440338 0.12069032 0.73299998 4291805617
0.079832107 0.1206919 0.73299998 4294766559
0.081223935 0.12069353 0.73299998 4294046191
0.082390361 0.12036584 0.73100001 4293585640
0.083778456 0.12036749 0.73100001 4293519849
0.085166588 0.12036917 0.73100001 4293585642
0.086554773 0.12037086 0.73100001 4293585640
0.087942995 0.12037259 0.73100001 4293651689
0.089331262 0.12037434 0.73100001 4293979885
0.090719566 0.12037612 0.73100001 4294045678
0.092107899 0.12037791 0.73100001 4293979885
0.093496323 0.12037975 0.73100001 4294177263
-0.0209001 0.12554434 0.75400001 4294967295
-0.019417731 0.12521069 0.75199997 4294967295
-0.017990822 0.12521011 0.75199997 4294967295
-0.016607977 0.12554257 0.75400001 4294967295
-0.015177306 0.12554203 0.75400001 4294967295
-0.013746648 0.12554155 0.75400001 4294967295
-0.0094296727 0.12520728 0.75199997 4294967295
-0.0080028595 0.12520695 0.75199997 4294967295
-0.0065760552 0.1252066 0.75199997 4294967295
-0.0051355683 0.12487333 0.75 4294967295
-0.0037125775 0.12487308 0.75 4293914603
-0.0022865417 0.12470635 0.74900001 4292926933
-0.00086546259 0.12470617 0.74900001 4290821557
0.00055635284 0.12487252 0.75 4290360238
0.0019766798 0.1247059 0.74900001 4289965481
0.0033977448 0.12470581 0.74900001 4284373923
0.0048059393 0.12437277 0.74699998 4283255698
0.0062232059 0.12437275 0.74699998 4280562503
0.0076404698 0.12437276 0.74699998 4278192156
0.0090577342 0.12437282 0.74699998 4278191628
0.010474999 0.12437289 0.74699998 4278192657
0.011876347 0.12420652 0.74599999 4279310621
0.013291719 0.12420666 0.74599999 4279903015
0.014707094 0.12420684 0.74599999 4279510051
0.016122477 0.12420704 0.74599999 4278190080
0.017537862 0.12420731 0.74599999 4280358144
0.018953253 0.12420758 0.74599999 4292200866
0.020368654 0.12420789 0.74599999 4294967286
0.02178406 0.12420822 0.74599999 4294967281
0.023043986 0.12337612 0.741 4294967295
0.024449922 0.12337651 0.741 4294967295
0.025855875 0.12337697 0.741 4294967295
0.027188253 0.12304444 0.73900002 4287993237
0.028590435 0.12304494 0.73900002 4278197060
0.029992627 0.12304547 0.73900002 4278191406
0.031394836 0.12304604 0.73900002 4281146652
0.032797053 0.12304663 0.73900002 4289962914
0.034199294 0.12304726 0.73900002 4293387445
0.0356979 0.12338093 0.741 4293847996
0.037103966 0.12338162 0.741 4292861905
0.038510047 0.12338235 0.741 4288848533
0.039808422 0.1230501 0.73900002 4289637533
0.041210745 0.12305088 0.73900002 4292203459
0.042613097 0.1230517 0.73900002 4293519836
0.044015471 0.12305256 0.73900002 4294901489
0.045356404 0.12288692 0.73799998 4294967295
0.046756927 0.12288783 0.73799998 4294967295
0.048026968 0.12255575 0.736 4294967295
0.049423736 0.12255672 0.736 4294967295
0.050820537 0.12255771 0.736 4294967295
0.052217364 0.12255875 0.736 4294967295
0.05361421 0.12255979 0.736 4294967295
0.055011086 0.12256088 0.736 4294967295
0.056407996 0.122562 0.736 4294440949
0.057804927 0.12256314 0.736 4284243034
0.059201904 0.12256432 0.736 4278190099
0.060598906 0.12256553 0.736 4278190095
0.061995927 0.12256677 0.736 4278452224
0.063392989 0.12256802 0.736 4289636761
0.064790078 0.12256932 0.736 4293517768
0.067400724 0.12223892 0.73400003 4294110953
0.068794116 0.12224028 0.73400003 4294110953
0.070187546 0.12224168 0.73400003 4293717228
0.071581021 0.12224313 0.73400003 4287664272
0.072974525 0.12224457 0.73400003 4279052137
0.074266747 0.12207951 0.73299998 4278190138
0.075658433 0.12208103 0.73299998 4279959552
0.076839931 0.12174945 0.73100001 4285220162
0.078227878 0.12175099 0.73100001 4290289033
0.079615884 0.1217526 0.73100001 4294964447
0.081003927 0.1217542 0.73100001 4294833908
0.082279287 0.12158927 0.73000002 4294307564
0.083665513 0.12159094 0.73000002 4294046191
0.085051775 0.1215926 0.73000002 4294243826
0.08643809 0.12159432 0.73000002 4294506481
0.08758381 0.12126291 0.72799999 4294374894
0.088966399 0.12126464 0.72799999 4294308588
0.09059725 0.12159958 0.73000002 4293255644
0.098645769 0.12127758 0.72799999 4281744004
0.10002871 0.12127953 0.72799999 4280623388
-0.02078986 0.12630436 0.75 4294967295
-0.019366693 0.12630373 0.75 4294967295
-0.017943544 0.12630314 0.75 4294967295
-0.016564466 0.12663941 0.75199997 4294967295
-0.015137553 0.12663887 0.75199997 4294967295
-0.013710654 0.12663837 0.75199997 4294967295
-0.0094049629 0.12630031 0.75 4294967295
-0.0079819122 0.12629996 0.75 4294967295
-0.0065588709 0.12629965 0.75 4294638330
-0.0051289904 0.12613095 0.74900001 4293257444
-0.003697963 0.12579389 0.74699998 4291875792
-0.0022806386 0.12579368 0.74699998 4291020733
-0.0008633206 0.12579347 0.74699998 4290033838
0.00055399147 0.12579334 0.74699998 4287076482
0.0019712991 0.1257932 0.74699998 4283392074
0.0033886028 0.12579311 0.74699998 4278265644
0.0047994703 0.12562467 0.74599999 4278199338
0.0061982106 0.12528788 0.74400002 4278190919
0.0076098167 0.12528789 0.74400002 4278192461
0.0090456726 0.12562472 0.74599999 4278323478
0.010433028 0.12528799 0.74400002 4279047202
0.011812795 0.12495133 0.74199998 4280229667
0.013220612 0.12495146 0.74199998 4280821548
0.014628433 0.12495166 0.74199998 4281610033
0.016036253 0.12495185 0.74199998 4279767829
0.017444085 0.12495209 0.74199998 4281402624
0.018851919 0.12495237 0.74199998 4292390036
0.020259764 0.12495269 0.74199998 4294176988
0.021638412 0.12478463 0.741 4294967288
0.023044376 0.124785 0.741 4294967295
0.024450351 0.12478543 0.741 4294967295
0.025786543 0.12444906 0.73900002 4294967295
0.027188743 0.12444954 0.73900002 4288782753
0.028552262 0.12428162 0.73799998 4283844957
0.029952593 0.12428217 0.73799998 4279239447
0.031352933 0.12428272 0.73799998 4281146652
0.032753289 0.12428334 0.73799998 4288647054
0.034153659 0.12428395 0.73799998 4289111198
0.035554051 0.12428463 0.73799998 4290492851
0.037004534 0.12445374 0.73900002 4289702828
0.038406856 0.12445447 0.73900002 4287926160
0.039755326 0.12428683 0.73799998 4289637785
0.041155785 0.1242876 0.73799998 4294967284
0.042556275 0.12428844 0.73799998 4294967295
0.043837652 0.12395244 0.736 4294967295
0.04523439 0.12395333 0.736 4294967295
0.046504423 0.12361741 0.73400003 4294967295
0.04789741 0.12361835 0.73400003 4294967295
0.049290419 0.12361933 0.73400003 4294967295
0.05068345 0.12362032 0.73400003 4294573289
0.052076511 0.12362134 0.73400003 4294967280
0.053615283 0.12395925 0.736 4294967295
0.055012193 0.12396035 0.736 4294967295
0.056409135 0.12396148 0.736 4294243583
0.05764902 0.12362576 0.73400003 4285427578
0.05904223 0.12362697 0.73400003 4281542191
0.060435459 0.12362816 0.73400003 4278190080
0.061828714 0.12362941 0.73400003 4278190080
0.063222006 0.12363068 0.73400003 4287201145
0.064615332 0.12363197 0.73400003 4291675053
0.066008694 0.12363329 0.73400003 4294767324
0.067310244 0.12346618 0.73299998 4294176746
0.068701781 0.12346757 0.73299998 4294176746
0.070093326 0.12346897 0.73299998 4293652719
0.074065611 0.12313647 0.73100001 4278190092
0.07545352 0.12313797 0.73100001 4278452224
0.076736346 0.12297106 0.73000002 4279569934
0.078122444 0.12297262 0.73000002 4288639821
0.079508565 0.12297421 0.73000002 4294961089
0.080894731 0.12297581 0.73000002 4294242543
0.082055502 0.12264051 0.72799999 4293847785
0.083437957 0.12264217 0.72799999 4293980398
0.084820449 0.12264387 0.72799999 4294046191
0.086084574 0.12247711 0.727 4294374640
0.087465249 0.12247884 0.727 4293914089
0.088845961 0.12248061 0.727 4290299072
0.090350822 0.12265085 0.72799999 4289509556
0.09173353 0.12265267 0.72799999 4289309095
0.099618442 0.12215851 0.72500002 4278190080
0.10099576 0.12216048 0.72500002 4278190080
0.10237311 0.12216247 0.72500002 4278190080
0.11308082 0.121842 0.72299999 4293980400
-0.020762781 0.12756021 0.74900001 4294967295
-0.019289831 0.12721896 0.74699998 4294967295
-0.017872339 0.12721835 0.74699998 4294967295
-0.016498923 0.12755843 0.74900001 4294572287
-0.015077671 0.12755789 0.74900001 4292992999
-0.013619965 0.1272168 0.74699998 4290755278
-0.012202538 0.12721634 0.74699998 4290689485
-0.010785121 0.12721592 0.74699998 4287005377
-0.0093677165 0.12721552 0.74699998 4286084275
-0.0079503236 0.12721518 0.74699998 4282864215
-0.0065329392 0.12721482 0.74699998 4278191885
-0.0051155663 0.12721455 0.74699998 4278190080
-0.0036932505 0.12704399 0.74599999 4278190080
-0.0022777899 0.12704378 0.74599999 4278190080
-0.00086233573 0.12704359 0.74599999 4278190080
0.00055311259 0.12704344 0.74599999 4281284352
0.0019685561 0.12704331 0.74599999 4282073600
0.003383996 0.12704323 0.74599999 4283392356
0.0047865664 0.12670259 0.74400002 4287603108
0.0061815446 0.12636195 0.74199998 4287338676
0.0075893891 0.12636197 0.74199998 4284378247
0.0089972336 0.12636201 0.74199998 4278200137
0.010405079 0.1263621 0.74199998 4278198596
0.011812924 0.1263622 0.74199998 4279510051
0.013220775 0.12636234 0.74199998 4279970602
0.014628627 0.12636253 0.74199998 4281215275
0.016036484 0.12636274 0.74199998 4280096794
0.017444348 0.12636299 0.74199998 4281008128
0.018826811 0.12619297 0.741 4289955975
0.020232787 0.12619327 0.741 4293451451
0.021580372 0.12585303 0.73900002 4294967279
0.022982569 0.12585339 0.73900002 4294967295
0.02438478 0.12585381 0.73900002 4294967295
0.025752105 0.12568393 0.73799998 4294967295
0.02715244 0.12568441 0.73799998 4290295992
0.028475409 0.12534432 0.736 4283324568
0.029871972 0.12534486 0.736 4278192714
0.031268548 0.12534542 0.736 4280097825
0.032665145 0.12534602 0.736 4280953134
0.034154311 0.12568726 0.73799998 4282391842
0.035554729 0.12568793 0.73799998 4282062877
0.03695517 0.12568864 0.73799998 4280556037
0.038251683 0.12534875 0.736 4278911232
0.039648358 0.12534949 0.736 4283713639
0.041045055 0.1253503 0.736 4294967295
0.04232645 0.12501049 0.73400003 4294967295
0.043719392 0.12501132 0.73400003 4294967295
0.0450509 0.12484191 0.73299998 4294901502
0.046441991 0.12484282 0.73299998 4289111718
0.047833104 0.12484375 0.73299998 4278200698
0.04922425 0.12484472 0.73299998 4278194786
0.050615411 0.12484574 0.73299998 4279246336
0.052006606 0.12484676 0.73299998 4290036388
0.053470675 0.12501816 0.73400003 4293254110
0.054863822 0.12501927 0.73400003 4294967295
0.056256991 0.12502038 0.73400003 4294704123
0.057650186 0.12502153 0.73400003 4289243304
0.06035433 0.1248536 0.73299998 4278191150
0.061745726 0.12485484 0.73299998 4278190080
0.067127965 0.12451942 0.73100001 4294308588
0.068515718 0.12452079 0.73100001 4294176746
0.069903515 0.1245222 0.73100001 4293915377
0.071291342 0.12452363 0.73100001 4292730846
0.07396578 0.12435623 0.73000002 4278190080
0.075351834 0.12435775 0.73000002 4278190098
0.077909976 0.12402014 0.72799999 4285813760
0.079292335 0.12402172 0.72799999 4292655966
0.080674723 0.12402335 0.72799999 4291145655
0.082057171 0.12402499 0.72799999 4290027173
0.083325021 0.12385628 0.727 4285098652
0.084705636 0.12385798 0.727 4284177550
0.086086303 0.12385969 0.727 4281285447
0.087466992 0.12386142 0.727 4278190082
0.088847734 0.12386319 0.727 4278190080
0.09411151 0.12352974 0.72500002 4278190080
0.095488667 0.12353162 0.72500002 4278190080
0.096865855 0.12353351 0.72500002 4278191872
0.099345587 0.12319659 0.72299999 4285231719
0.10071912 0.12319856 0.72299999 4287402631
0.1020927 0.12320053 0.72299999 4290097302
-0.02070798 0.1286401 0.74699998 4294967295
-0.01929044 0.12863949 0.74699998 4294967295
-0.017872917 0.12863891 0.74699998 4294967295
-0.016455408 0.12863833 0.74699998 4294375156
-0.015037918 0.12863781 0.74699998 4289835439
-0.013620441 0.1286373 0.74699998 4290357149
-0.012202979 0.12863685 0.74699998 4287856759
-0.010785529 0.12863642 0.74699998 4283324764
-0.00936809 0.12863602 0.74699998 4282337869
-0.0079506626 0.12863566 0.74699998 4278196508
-0.0065245014 0.12846313 0.74599999 4278191368
-0.0051089916 0.12846287 0.74599999 4278190080
-0.003683588 0.1281182 0.74400002 4278190080
-0.0022718888 0.12811798 0.74400002 4278388520
-0.00086019596 0.12811777 0.74400002 4280164674
0.00055149122 0.12811762 0.74400002 4282728718
0.0019578964 0.12777309 0.74199998 4286808141
0.0033657798 0.127773 0.74199998 4289110941
0.004773661 0.12777294 0.74199998 4291216060
0.0061815409 0.12777293 0.74199998 4292007919
0.0075894194 0.12777294 0.74199998 4288586682
0.0089851702 0.12760077 0.741 4278210380
0.010391152 0.12760086 0.741 4278206268
0.011797134 0.12760098 0.741 4278197318
0.013203119 0.12760112 0.741 4278856276
0.014609109 0.12760131 0.741 4281082185
0.016015101 0.1276015 0.741 4279897912
0.0174211 0.12760176 0.741 4281073664
0.018827103 0.12760203 0.741 4285678133
0.020178506 0.12725794 0.73900002 4292656801
0.021551525 0.12708609 0.73799998 4294967278
0.02295186 0.12708646 0.73799998 4294967295
0.02435221 0.12708686 0.73799998 4294967295
0.025682772 0.1267429 0.736 4294967295
0.027079344 0.12674339 0.736 4292204502
0.028475929 0.12674388 0.736 4287208363
0.029872529 0.12674443 0.736 4278392102
0.031269133 0.126745 0.736 4278523672
0.032665756 0.1267456 0.736 4279642153
0.034062397 0.12674624 0.736 4280097825
0.03545906 0.12674689 0.736 4279900446
0.036855735 0.12674759 0.736 4279440147
0.038252428 0.12674834 0.736 4278190080
0.039541397 0.12640467 0.73400003 4283842827
0.040934332 0.12640546 0.73400003 4294967241
0.042327289 0.12640628 0.73400003 4294967295
0.043660697 0.12623492 0.73299998 4294967295
0.045051798 0.12623581 0.73299998 4294574079
0.046442915 0.12623671 0.73299998 4287139729
0.047834065 0.12623765 0.73299998 4278190080
0.049225233 0.12623863 0.73299998 4278190080
0.050616428 0.12623964 0.73299998 4278714368
0.052007657 0.12624069 0.73299998 4287460465
0.0533989 0.12624174 0.73299998 4294105292
0.054790169 0.12624285 0.73299998 4294967283
0.057415716 0.12590069 0.73100001 4291414475
0.058803298 0.12590186 0.73100001 4286155671
0.060190886 0.12590307 0.73100001 4278192662
0.061578512 0.12590432 0.73100001 4278190080
0.062880039 0.12573336 0.73000002 4278321920
0.064265817 0.12573466 0.73000002 4287594327
0.065651633 0.12573598 0.73000002 4294568385
0.075146906 0.12540154 0.72799999 4278190080
0.076529212 0.12540309 0.72799999 4278586903
0.077804536 0.1252324 0.727 4282326272
0.079185016 0.12523399 0.727 4288905555
0.080565542 0.12523562 0.727 4288189585
0.083097473 0.1248944 0.72500002 4281085222
0.084474318 0.1248961 0.72500002 4279111432
0.0858512 0.12489782 0.72500002 4278190080
0.087228127 0.12489957 0.72500002 4278190080
0.088605098 0.12490133 0.72500002 4278190080
0.089982092 0.1249031 0.72500002 4278190080
0.093853757 0.12456406 0.72299999 4278191875
0.095227145 0.12456594 0.72299999 4282600777
0.096600555 0.12456783 0.72299999 4286149988
0.097974017 0.12456977 0.72299999 4287992192
-0.020708626 0.13006073 0.74699998 4294967295
-0.019265227 0.12988599 0.74599999 4294967295
-0.017849568 0.12988541 0.74599999 4294967295
-0.016455956 0.13005894 0.74699998 4293717991
-0.015018299 0.1298843 0.74599999 4278782980
-0.013602687 0.1298838 0.74599999 4278193664
-0.012187088 0.12988335 0.74599999 4278394891
-0.010742624 0.12953471 0.74400002 4278198556
-0.0093308454 0.12953432 0.74400002 4283727481
-0.0079190768 0.12953395 0.74400002 4289640583
-0.0065073185 0.12953363 0.74400002 4289969548
-0.0050955703 0.12953334 0.74400002 4293123503
-0.0036838294 0.12953307 0.74400002 4293781177
-0.0022659884 0.12918463 0.74199998 4294570740
-0.00085805706 0.12918442 0.74199998 4294966527
0.00054986897 0.12918428 0.74199998 4294967292
0.0019577905 0.12918417 0.74199998 4294967295
0.0033657078 0.12918407 0.74199998 4294967295
0.0047736224 0.12918401 0.74199998 4294967295
0.0061815348 0.12918399 0.74199998 4294967295
0.0075894464 0.12918401 0.74199998 4291283398
0.0089852307 0.12900995 0.741 4286158253
0.010391246 0.12901001 0.741 4285960875
0.01176542 0.12866193 0.73900002 4287929783
0.013167646 0.12866208 0.73900002 4288587714
0.014569871 0.12866226 0.73900002 4289110659
0.015972106 0.12866248 0.73900002 4280425984
0.017374342 0.12866271 0.73900002 4279238661
0.018776583 0.12866299 0.73900002 4281606953
0.020151528 0.1284892 0.73799998 4287526794
0.02149348 0.12814134 0.736 4294967295
0.022890056 0.12814172 0.736 4294967295
0.024286637 0.12814212 0.736 4294967295
0.02568323 0.12814255 0.736 4294967295
0.027079836 0.12814304 0.736 4294440951
0.028399071 0.12779532 0.73400003 4291153345
0.029791905 0.12779586 0.73400003 4278586882
0.031184748 0.12779643 0.73400003 4278193429
0.032577612 0.12779704 0.73400003 4279972410
0.03397049 0.12779768 0.73400003 4281150263
0.035363387 0.12779835 0.73400003 4281018677
0.036756299 0.12779905 0.73400003 4280360495
0.038097251 0.12762566 0.73299998 4278190080
0.039380554 0.12727819 0.73100001 4278190848
0.040767826 0.12727898 0.73100001 4290170036
0.042270456 0.12762803 0.73299998 4294967289
0.043661568 0.12762891 0.73299998 4294967295
0.044929773 0.12728155 0.73100001 4294967295
0.046317134 0.12728246 0.73100001 4288322202
0.047704518 0.12728341 0.73100001 4278201449
0.04909192 0.12728439 0.73100001 4278192454
0.050479345 0.12728539 0.73100001 4279436288
0.051866811 0.12728645 0.73100001 4286607468
0.05325428 0.12728749 0.73100001 4293053093
0.05456705 0.12711449 0.73000002 4294967273
0.055952679 0.12711562 0.73000002 4294967295
0.057338346 0.12711678 0.73000002 4294110441
0.058724046 0.12711796 0.73000002 4291348403
0.059945088 0.12677091 0.72799999 4278913536
0.061327048 0.12677214 0.72799999 4278190080
0.062709033 0.12677342 0.72799999 4278190080
0.064003021 0.12660058 0.727 4280421428
0.065383188 0.12660192 0.727 4293382648
0.076215394 0.12626521 0.72500002 4278190089
0.077592082 0.12626679 0.72500002 4278190080
0.078968793 0.1262684 0.72500002 4278190080
0.080345534 0.12627001 0.72500002 4279042048
0.081722334 0.12627165 0.72500002 4278386688
0.086989239 0.12593013 0.72299999 4286679439
0.08836244 0.12593192 0.72299999 4288452239
0.089735672 0.12593371 0.72299999 4289307548
0.093725815 0.12576504 0.722 4293782244
0.095097318 0.12576692 0.722 4294505710
-0.019265844 0.13130479 0.74599999 4294967295
-0.016390415 0.1309516 0.74400002 4293521645
-0.014978549 0.13095106 0.74400002 4281020976
-0.013530228 0.13059855 0.74199998 4278190336
-0.012122186 0.13059808 0.74199998 4278919452
-0.010714157 0.13059765 0.74199998 4279511552
-0.0093061384 0.13059725 0.74199998 4289117319
-0.0064901365 0.13059658 0.74199998 4293392124
-0.0050821486 0.13059628 0.74199998 4294834430
-0.0036741693 0.13059601 0.74199998 4294967295
-0.0022661972 0.13059577 0.74199998 4294967295
-0.00085707562 0.1304196 0.741 4294967295
0.00054898678 0.13041943 0.741 4294967295
0.0019550442 0.13041928 0.741 4294967295
0.003361098 0.13041922 0.741 4294967295
0.00755879 0.13006712 0.73900002 4292994021
0.0089610424 0.13006718 0.73900002 4291088334
0.010363295 0.13006726 0.73900002 4291154383
0.011717786 0.12953936 0.736 4291810789
0.013114353 0.1295395 0.736 4292271340
0.014510918 0.12953967 0.736 4289901764
0.015907492 0.12953989 0.736 4280098607
0.017304068 0.12954013 0.736 4278716928
0.018700652 0.1295404 0.736 4278651136
0.020097243 0.12954071 0.736 4286607696
0.021435436 0.12918906 0.73400003 4294967266
0.022828247 0.12918943 0.73400003 4294967295
0.024221066 0.12918982 0.73400003 4294967295
0.025578998 0.12901425 0.73299998 4294967295
0.026969947 0.12901475 0.73299998 4294967295
0.028399594 0.12919126 0.73400003 4291549409
0.029751869 0.12901579 0.73299998 4279509033
0.031142849 0.12901637 0.73299998 4278190080
0.032533847 0.12901697 0.73299998 4280167981
0.033924859 0.12901761 0.73299998 4281147935
0.035315886 0.12901826 0.73299998 4281411107
0.036606781 0.12866694 0.73100001 4279965739
0.037994046 0.12866767 0.73100001 4278190081
0.039327461 0.12849243 0.73000002 4278191872
0.040712867 0.1284932 0.73000002 4290302904
0.042098299 0.12849404 0.73000002 4293456104
0.043483742 0.1284949 0.73000002 4294967295
0.044869207 0.12849578 0.73000002 4294967295
0.046254702 0.12849671 0.73000002 4290690750
0.047640227 0.12849768 0.73000002 4285366160
0.049025759 0.12849864 0.73000002 4278193952
0.050411314 0.12849964 0.73000002 4279173123
0.051796906 0.1285007 0.73000002 4283580743
0.054418661 0.12815081 0.72799999 4294967269
0.055723883 0.12797591 0.727 4294967295
0.057103876 0.12797706 0.727 4294439152
0.058483914 0.12797824 0.727 4291940047
0.059863977 0.12797946 0.727 4279834135
0.061244063 0.12798069 0.727 4278255616
0.062624179 0.12798198 0.727 4278321152
0.064004332 0.12798327 0.727 4280749056
0.06538453 0.12798464 0.727 4293184170
0.072087072 0.12763959 0.72500002 4292930027
0.073463671 0.1276411 0.72500002 4283850336
0.077379607 0.12729362 0.72299999 4278190080
0.07875254 0.1272952 0.72299999 4278190080
0.080125526 0.12729684 0.72299999 4278190081
0.081498541 0.12729849 0.72299999 4282202947
0.082871594 0.12730016 0.72299999 4284703587
-0.019163156 0.13201202 0.74199998 4294967295
-0.017755022 0.13201143 0.74199998 4294967295
-0.016346905 0.13201086 0.74199998 4294967295
-0.014938801 0.13201031 0.74199998 4285493619
-0.01353071 0.1320098 0.74199998 4278199350
-0.012122634 0.13200934 0.74199998 4278195238
-0.010700131 0.13183101 0.741 4280491799
-0.0092939772 0.1318306 0.741 4291545280
-0.0078878347 0.13183025 0.741 4294635761
-0.006481702 0.13182992 0.741 4294967295
-0.0050755776 0.13182962 0.741 4294967295
0.00054736255 0.13147295 0.73900002 4288195979
0.001949659 0.13147284 0.73900002 4287867270
0.0033474157 0.13129483 0.73799998 4292597191
0.0047478075 0.13129479 0.73799998 4294967295
0.0061315373 0.13093895 0.736 4294967295
0.0075281304 0.13093895 0.736 4294967295
0.008900472 0.13058318 0.73400003 4294967295
0.010293271 0.13058327 0.73400003 4294967295
0.011686074 0.13058339 0.73400003 4294572543
0.013078876 0.13058351 0.73400003 4294835967
0.014471682 0.1305837 0.73400003 4291016901
0.015864495 0.13058391 0.73400003 4280687399
0.017257309 0.13058417 0.73400003 4279702275
0.021435793 0.13058507 0.73400003 4294963663
0.022797538 0.13040756 0.73299998 4294967295
0.024122497 0.13005215 0.73100001 4294967295
0.025509663 0.13005258 0.73100001 4294967295
0.026896847 0.13005304 0.73100001 4294967295
0.028361427 0.13040939 0.73299998 4294967289
0.029671252 0.1300541 0.73100001 4282335289
0.031058464 0.13005467 0.73100001 4278190080
0.032445699 0.13005528 0.73100001 4278589451
0.033832949 0.13005592 0.73100001 4280361249
0.035220217 0.13005659 0.73100001 4285361517
0.036557421 0.12987937 0.73000002 4288977022
0.037942819 0.12988012 0.73000002 4290819226
0.03922049 0.12952504 0.72799999 4292794813
0.040602133 0.12952583 0.72799999 4294637017
0.041983794 0.12952666 0.72799999 4294967294
0.043365479 0.12952749 0.72799999 4294967295
0.044747181 0.12952839 0.72799999 4294967295
0.04612891 0.12952931 0.72799999 4293848044
0.047510657 0.12953027 0.72799999 4289571518
0.048892431 0.12953123 0.72799999 4279570981
0.050274231 0.12953225 0.72799999 4279045139
0.051656049 0.12953331 0.72799999 4280229413
0.052965045 0.12935644 0.727 4289367590
0.054345019 0.12935753 0.727 4293643878
0.055571724 0.12900281 0.72500002 4292064190
0.056947961 0.12900396 0.72500002 4290287779
0.059700523 0.1290064 0.72500002 4279045632
0.061076853 0.12900764 0.72500002 4278190336
0.062453188 0.12900889 0.72500002 4278190080
0.063829571 0.1290102 0.72500002 4278190080
0.065205984 0.12901154 0.72500002 4287797139
0.071889699 0.12866271 0.72299999 4293323501
0.07326252 0.1286642 0.72299999 4290165437
0.074635372 0.12866573 0.72299999 4286485156
-0.01916378 0.13342342 0.74199998 4294967295
-0.017755609 0.13342278 0.74199998 4294967295
-0.016347457 0.13342223 0.74199998 4294967295
-0.014919185 0.13324188 0.741 4286743170
-0.013512961 0.13324137 0.741 4282721856
-0.012106748 0.13324089 0.741 4279894037
-0.010671666 0.13288084 0.73900002 4282127104
-0.0092567308 0.13270062 0.73799998 4292785550
-0.0078562461 0.13270026 0.73799998 4294176237
-0.0064557735 0.13269994 0.73799998 4294967295
-0.0050553079 0.13269964 0.73799998 4294967295
-0.0036598044 0.13287918 0.73900002 4293585642
-0.002248293 0.13233952 0.736 4289248949
-0.00085164502 0.13233931 0.736 4284840817
0.00054647797 0.13269876 0.73799998 4283009627
0.0033382683 0.13233894 0.736 4291343259
0.0047348998 0.1323389 0.736 4294967288
0.0061148666 0.13197924 0.73400003 4294967295
0.0075076991 0.13197926 0.73400003 4294967295
0.0089005316 0.1319793 0.73400003 4294967295
0.010279341 0.13179956 0.73299998 4294769400
0.011670276 0.13179967 0.73299998 4293979887
0.013061216 0.1317998 0.73299998 4293519336
0.014471876 0.13197981 0.73400003 4288392624
0.015843105 0.13180019 0.73299998 4279707948
0.017234059 0.13180046 0.73299998 4280950806
0.018650426 0.13198055 0.73400003 4279108608
0.021348542 0.13144176 0.73100001 4294959299
0.022735726 0.13144213 0.73100001 4294967295
0.024089919 0.13126273 0.73000002 4294967295
0.025475226 0.13126318 0.73000002 4294967295
0.026860543 0.13126366 0.73000002 4294967295
0.028245872 0.13126415 0.73000002 4294967295
0.029671801 0.13144453 0.73100001 4284308577
0.031016571 0.13126528 0.73000002 4281139226
0.032401938 0.13126589 0.73000002 4280614930
0.033787321 0.13126652 0.73000002 4279705344
0.03517272 0.13126718 0.73000002 4285692492
0.036558136 0.13126789 0.73000002 4289240238
0.037839614 0.13090898 0.72799999 4294701055
0.039167397 0.13072993 0.727 4294967032
0.04054717 0.13073072 0.727 4294967291
0.041926965 0.13073155 0.727 4294967295
0.043306783 0.1307324 0.727 4294967295
0.044686619 0.1307333 0.727 4294967295
0.046066478 0.13073422 0.727 4294044907
0.047446359 0.13073516 0.727 4290625475
0.04882627 0.13073614 0.727 4280427560
0.050206207 0.13073719 0.727 4279639584
0.054196637 0.13038073 0.72500002 4288905304
0.055572875 0.13038185 0.72500002 4287922563
0.056949127 0.13038301 0.72500002 4283646018
0.058325436 0.13038422 0.72500002 4278197019
-0.013476975 0.13428749 0.73900002 4280103792
-0.012074523 0.13428701 0.73900002 4278193225
-0.010657644 0.13410488 0.73799998 4281273626
-0.0092571154 0.13410446 0.73799998 4289563288
-0.0078565972 0.13410409 0.73799998 4294764215
-0.0064385934 0.13374034 0.736 4294967266
-0.0050418898 0.13374004 0.736 4294967295
-0.0036352889 0.13337635 0.73400003 4293519336
-0.0022423961 0.13337611 0.73400003 4289378985
-0.00084950938 0.13337593 0.73400003 4278588933
0.00054485205 0.13373917 0.736 4281958220
0.0019415236 0.13373905 0.736 4282616150
0.0033291203 0.13337553 0.73400003 4289505163
0.0047219899 0.13337548 0.73400003 4290952609
0.0060898657 0.13283032 0.73100001 4287855786
0.007477039 0.13283032 0.73100001 4286605463
0.0088642118 0.13283037 0.73100001 4283125584
0.010251385 0.13283046 0.73100001 4279309590
0.011638559 0.13283053 0.73100001 4278716928
0.01302574 0.13283069 0.73100001 4279309065
0.014412918 0.13283086 0.73100001 4280884513
0.015800107 0.13283108 0.73100001 4280884513
0.017163783 0.13264963 0.73000002 4281215781
0.018549079 0.13264988 0.73000002 4279307784
0.019934386 0.1326502 0.73000002 4281207040
0.021319695 0.13265054 0.73000002 4292655007
0.022705019 0.13265094 0.73000002 4294967265
0.024024343 0.13228789 0.72799999 4294967268
0.025405884 0.13228834 0.72799999 4294967295
0.026787443 0.13228881 0.72799999 4294967295
0.028246399 0.13265276 0.73000002 4294967295
0.030932179 0.13229044 0.72799999 4278722418
0.032313786 0.13229105 0.72799999 4278192991
0.033695407 0.13229167 0.72799999 4280096030
0.035077039 0.13229235 0.72799999 4286411902
0.036458697 0.13229306 0.72799999 4289895617
0.037788384 0.13211206 0.727 4294967295
0.039060421 0.13174939 0.72500002 4294967285
0.040436432 0.13175018 0.72500002 4293187791
0.041697118 0.13138755 0.72299999 4291148487
0.043069381 0.13138843 0.72299999 4290622143
0.044564594 0.13175276 0.72500002 4287399592
0.04594069 0.1317537 0.72500002 4285689230
0.047186278 0.13139118 0.72299999 4284440903
0.048558619 0.13139215 0.72299999 4279572224
0.050069116 0.13175665 0.72500002 4278981659
0.051445294 0.13175768 0.72500002 4278784279
0.05404824 0.1313964 0.72299999 4280156160
0.055420712 0.13139753 0.72299999 4280616448
0.056793202 0.13139868 0.72299999 4278779904
0.058165736 0.13139988 0.72299999 4278190894
0.059538297 0.13140111 0.72299999 4283326089
-0.019087547 0.13569558 0.73900002 4294967295
-0.016260441 0.13551074 0.73799998 4294967295
-0.014859828 0.13551022 0.73799998 4290164404
-0.012025961 0.13514198 0.736 4280162346
-0.010629182 0.13514157 0.736 4281669653
-0.009207326 0.13477392 0.73400003 4288512124
-0.0078143645 0.13477355 0.73400003 4292722867
-0.0064214142 0.13477322 0.73400003 4294967295
-0.0050216201 0.13458928 0.73299998 4294967295
-0.0036305846 0.13458903 0.73299998 4292993503
-0.0022395551 0.13458881 0.73299998 4288527262
-0.00084968988 0.13477223 0.73400003 4285829750
0.00054322527 0.13477205 0.73400003 4287273084
0.0019361356 0.13477194 0.73400003 4288983446
0.0033245063 0.13458821 0.73299998 4289571770
0.0047026468 0.13422093 0.73100001 4283781985
0.0060815238 0.13403729 0.73000002 4282857790
0.007466834 0.1340373 0.73000002 4278452224
0.0088521438 0.13403735 0.73000002 4278191122
0.010237454 0.13403739 0.73000002 4278190092
0.011622764 0.13403752 0.73000002 4278452224
0.013008079 0.13403766 0.73000002 4279372555
0.014393396 0.13403784 0.73000002 4280361249
0.015778719 0.13403806 0.73000002 4281084972
0.017117018 0.13367106 0.72799999 4281479980
0.018498553 0.13367134 0.72799999 4279637776
0.019880095 0.13367166 0.72799999 4281077504
0.021261645 0.133672 0.72799999 4290617232
0.022643203 0.13367236 0.72799999 4293386441
0.023991769 0.13348916 0.727 4294967284
0.025371449 0.13348959 0.727 4294967295
0.026751138 0.13349007 0.727 4294967295
0.028169537 0.1336742 0.72799999 4294967295
0.029551143 0.13367473 0.72799999 4290493371
0.030890277 0.13349169 0.727 4286152078
0.032270022 0.13349231 0.727 4278717469
0.033649772 0.13349296 0.727 4279174929
0.03493318 0.13312636 0.72500002 4285227884
0.036309168 0.13312706 0.72500002 4289040547
0.037685178 0.13312781 0.72500002 4292790748
0.038953446 0.13276133 0.72299999 4291676359
0.040325694 0.1327621 0.72299999 4289965998
0.041697964 0.13276295 0.72299999 4288389530
0.043070246 0.1327638 0.72299999 4284507487
0.044442561 0.13276471 0.72299999 4280102954
0.045751531 0.13258201 0.722 4279247901
0.047121976 0.13258293 0.722 4278194946
0.048492454 0.1325839 0.722 4278462744
0.049862955 0.13258494 0.722 4279639584
0.051304441 0.13276961 0.72299999 4278981911
0.052676886 0.1327707 0.72299999 4278194450
