# .PCD v0.7 - Point Cloud Data file format
VERSION 0.7
FIELDS x y z rgba
SIZE 4 4 4 4
TYPE F F F U
COUNT 1 1 1 1
WIDTH 1121
HEIGHT 1
VIEWPOINT 0 0 0 1 0 0 0
POINTS 1121
DATA ascii
0.18301353 0.1102649 0.63200003 4292270034
0.18392499 0.1100925 0.63099998 4292138448
0.18512607 0.11009458 0.63099998 4292072401
0.18662244 0.11027113 0.63200003 4292072401
0.1878254 0.11027317 0.63200003 4292203476
0.18962653 0.11062418 0.634 4292400598
0.19083327 0.1106262 0.634 4292335057
0.19204001 0.1106282 0.634 4292203728
0.19355153 0.11080468 0.63499999 4292204241
0.1947601 0.11080666 0.63499999 4292204241
0.19596867 0.11080861 0.63499999 4292204241
0.19748776 0.11098505 0.63599998 4292270034
0.19869821 0.11098697 0.63599998 4292204241
0.20053726 0.1113379 0.63800001 4292138448
0.20238388 0.1116888 0.63999999 4292007380
0.20360185 0.11169067 0.63999999 4292073173
0.2051398 0.11186702 0.64099997 4292073173
0.20635962 0.11186884 0.64099997 4292007380
0.20790322 0.11204518 0.64200002 4292138196
0.20912488 0.11204695 0.64200002 4292138196
0.21067411 0.11222325 0.64300001 4292006610
0.21222711 0.1123995 0.64399999 4291875024
0.21345238 0.1124012 0.64399999 4292006608
0.2153444 0.11275199 0.64600003 4292006608
0.21690868 0.11292817 0.64700001 4292006606
0.21847667 0.11310434 0.648 4292138448
0.22004847 0.11328049 0.64899999 4291743438
0.22162397 0.11345661 0.64999998 4291743438
0.22286035 0.11345814 0.64999998 4291677645
0.22513101 0.11398332 0.653 4291546059
0.094455875 0.11939944 0.67799997 4291216049
0.095744006 0.1194013 0.67799997 4291282103
0.097175322 0.11957932 0.67900002 4291479739
0.098465465 0.11958126 0.67900002 4291479737
0.099755615 0.1195832 0.67900002 4291676859
0.10118453 0.11677112 0.66299999 4291939266
0.10244446 0.11677308 0.66299999 4292202694
0.10354802 0.11659896 0.662 4292137412
0.10480616 0.11660096 0.662 4292268999
0.10606432 0.11660297 0.662 4292268999
0.1071604 0.11642887 0.66100001 4292268999
0.10841675 0.11643092 0.66100001 4292269001
0.10967316 0.11643299 0.66100001 4292269001
0.11092959 0.11643509 0.66100001 4292137931
0.11167689 0.11590871 0.65799999 4292203980
0.11292769 0.11591081 0.65799999 4292203980
0.11417854 0.11591291 0.65799999 4292137931
0.11542944 0.11591504 0.65799999 4292203980
0.11490712 0.11415553 0.648 4292203980
0.11613908 0.11415765 0.648 4292400589
0.1173711 0.11415979 0.648 4292334796
0.11860315 0.11416193 0.648 4292334796
0.12002017 0.11434029 0.64899999 4292466382
0.12125418 0.11434244 0.64899999 4292466636
0.12116713 0.11311135 0.64200002 4292400587
0.12238793 0.11311352 0.64200002 4292269003
0.12360876 0.11311571 0.64200002 4292466382
0.1246352 0.1129417 0.64099997 4292466893
0.12585422 0.11294391 0.64099997 4292532942
0.12687504 0.11276992 0.63999999 4292466895
0.12809223 0.11277213 0.63999999 4292466895
0.12930945 0.11277433 0.63999999 4292336081
0.13052672 0.11277658 0.63999999 4292336081
0.13174404 0.11277881 0.63999999 4292336079
0.13254587 0.11242864 0.63800001 4292467408
0.13375944 0.11243088 0.63800001 4292532942
0.13476151 0.11225692 0.63700002 4292598736
0.13597324 0.11225917 0.63700002 4292598484
0.13696964 0.11208519 0.63599998 4292532690
0.13796228 0.11191121 0.63499999 4292532690
0.13917033 0.11191349 0.63499999 4292401104
0.14037842 0.11191575 0.63499999 4292335057
0.14136353 0.11174177 0.634 4292400850
0.14256977 0.11174405 0.634 4292401104
0.14377603 0.11174633 0.634 4292401104
0.14452498 0.11139609 0.63200003 4292335055
0.1457275 0.11139836 0.63200003 4292335055
0.14669755 0.11122436 0.63099998 4292400850
0.14789823 0.11122665 0.63099998 4292335057
0.14933522 0.11140519 0.63200003 4292335057
0.15053788 0.11140749 0.63200003 4292400850
0.15174052 0.11140976 0.63200003 4292466897
0.15294321 0.11141203 0.63200003 4292532690
0.15414591 0.11141431 0.63200003 4292335827
0.15510282 0.11124029 0.63099998 4292270034
0.15605597 0.11106626 0.63 4292270549
0.15700535 0.11089224 0.62900001 4292336343
0.15820241 0.11089449 0.62900001 4292335829
0.15965295 0.11107305 0.63 4292335829
0.16085194 0.11107529 0.63 4292270032
0.16205104 0.11107755 0.63 4292336081
0.16299097 0.11090348 0.62900001 4292467156
0.16418816 0.11090572 0.62900001 4292335827
0.16538534 0.11090796 0.62900001 4292270034
0.16658251 0.11091016 0.62900001 4292270034
0.16777976 0.1109124 0.62900001 4292204500
0.16897696 0.1109146 0.62900001 4292204500
0.16990365 0.11074045 0.62800002 4292270034
0.17109904 0.11074266 0.62800002 4292270034
0.17284308 0.11109752 0.63 4292270034
0.17883889 0.11110829 0.63 4292270034
0.18003808 0.11111042 0.63 4292203989
0.18123724 0.11111254 0.63 4292203989
0.18301561 0.11146738 0.63200003 4292138194
0.18392706 0.11129308 0.63099998 4292072401
0.18512815 0.11129517 0.63099998 4291875276
0.1866245 0.11147361 0.63200003 4292072399
0.18782742 0.11147565 0.63200003 4292203728
0.18962856 0.11183047 0.634 4292400850
0.19083527 0.11183248 0.634 4292335057
0.19234489 0.11201086 0.63499999 4292203728
0.19355352 0.11201286 0.63499999 4292138448
0.19506878 0.11219121 0.63599998 4292072399
0.19627923 0.11219316 0.63599998 4292137935
0.19748968 0.1121951 0.63599998 4292137935
0.19901252 0.11237341 0.63700002 4292138448
0.20116779 0.11290456 0.63999999 4292138448
0.20238574 0.11290643 0.63999999 4292007378
0.20392182 0.11308471 0.64099997 4292073171
0.20514163 0.11308654 0.64099997 4292007380
0.20668338 0.11326478 0.64200002 4291941587
0.20790501 0.11326658 0.64200002 4292072403
0.20945236 0.11344477 0.64300001 4292006610
0.21067584 0.11344653 0.64300001 4291875024
0.21222882 0.11362467 0.64399999 4291875024
0.21345408 0.11362636 0.64399999 4291940047
0.21534605 0.11398093 0.64600003 4291742925
0.2169103 0.114159 0.64700001 4291742923
0.21847828 0.11433706 0.648 4291874508
0.22005004 0.1145151 0.64899999 4291874254
0.22162554 0.11469313 0.64999998 4291677132
0.2228619 0.11469465 0.64999998 4291546059
0.22409819 0.11469614 0.64999998 4291414473
0.099022985 0.11998478 0.67400002 4291545280
0.10030373 0.11998674 0.67400002 4291807934
0.1015845 0.11998871 0.67400002 4291939520
0.1011865 0.1180324 0.66299999 4291939266
0.10244644 0.11803436 0.66299999 4292136901
0.10355002 0.11785834 0.662 4292202946
0.10480818 0.11786034 0.662 4292268739
0.10606634 0.11786237 0.662 4292268485
0.10732456 0.11786442 0.662 4292268485
0.10858283 0.11786647 0.662 4292203205
0.10967524 0.11769051 0.66100001 4292268999
0.11093168 0.11769259 0.66100001 4292269001
0.1118487 0.11733856 0.65899998 4292334794
0.11310142 0.11734068 0.65899998 4292203978
0.11435419 0.1173428 0.65899998 4292072391
0.11578276 0.11503433 0.64600003 4292203978
0.11701099 0.11503649 0.64600003 4292138185
0.11769014 0.11450439 0.64300001 4292334796
0.11891273 0.11450653 0.64300001 4292400589
0.12013537 0.1145087 0.64300001 4292531405
0.12135805 0.11451088 0.64300001 4292531405
0.12239011 0.11433496 0.64200002 4292400589
0.12341841 0.11415904 0.64099997 4292466382
0.1246374 0.11416125 0.64099997 4292597965
0.12585643 0.11416347 0.64099997 4292729552
0.12687725 0.11398757 0.63999999 4292532688
0.12809446 0.11398979 0.63999999 4292401102
0.12951374 0.11417013 0.64099997 4292466897
0.13073291 0.11417237 0.64099997 4292532690
0.13174629 0.11399651 0.63999999 4292532690
0.13296361 0.11399876 0.63999999 4292532690
0.13376169 0.11364476 0.63800001 4292664010
0.13476375 0.1134689 0.63700002 4292795597
0.13597551 0.11347117 0.63700002 4292532688
0.13697191 0.11329528 0.63599998 4292466895
0.13796455 0.1131194 0.63499999 4292400850
0.1391726 0.11312169 0.63499999 4292400850
0.14038067 0.11312396 0.63499999 4292400598
0.14136581 0.11294809 0.634 4292400598
0.14257205 0.11295037 0.634 4292335057
0.14332476 0.11259634 0.63200003 4292335057
0.14429855 0.11242043 0.63099998 4292335055
0.14549918 0.11242272 0.63099998 4292335055
0.14669983 0.11242499 0.63099998 4292335057
0.14790049 0.11242726 0.63099998 4292335057
0.14910121 0.11242954 0.63099998 4292400850
0.15030193 0.11243182 0.63099998 4292400850
0.1515027 0.11243411 0.63099998 4292270032
0.15270348 0.11243638 0.63099998 4292336081
0.15390427 0.11243866 0.63099998 4292270034
0.1551051 0.11244092 0.63099998 4292270034
0.15605824 0.11226501 0.63 4292335829
0.15700759 0.11208906 0.62900001 4292335829
0.15820464 0.11209133 0.62900001 4292466643
0.15940177 0.11209358 0.62900001 4292400850
0.16085422 0.11227406 0.63 4292203980
0.16205329 0.11227631 0.63 4292401102
0.16299321 0.11210032 0.62900001 4292270034
0.16419034 0.11210256 0.62900001 4292270034
0.16538757 0.1121048 0.62900001 4292204239
0.16658472 0.11210701 0.62900001 4292270032
0.16778196 0.11210922 0.62900001 4292270034
0.16897917 0.11211144 0.62900001 4292138448
0.16990589 0.11193541 0.62800002 4292138448
0.17110118 0.11193759 0.62800002 4292270034
0.17764188 0.11230492 0.63 4292204241
0.17884101 0.11230703 0.63 4292270034
0.18004021 0.11230915 0.63 4292270043
0.18123934 0.11231126 0.63 4292007128
0.18272811 0.11249164 0.63099998 4292006610
0.18422064 0.11267199 0.63200003 4291875024
0.18542358 0.11267407 0.63200003 4291875530
0.18662652 0.11267611 0.63200003 4291875530
0.18842386 0.11303474 0.634 4292006608
0.18992969 0.11321505 0.63499999 4292072401
0.19113827 0.11321707 0.63499999 4292137935
0.19234686 0.11321905 0.63499999 4292203728
0.19386028 0.11339935 0.63599998 4292072653
0.19537747 0.11357962 0.63700002 4292006859
0.19658981 0.11358156 0.63700002 4292072142
0.19780214 0.11358349 0.63700002 4292072142
0.19932686 0.11376373 0.63800001 4292138446
0.20116967 0.11412223 0.63999999 4292204239
0.20238763 0.1141241 0.63999999 4292138448
0.20392366 0.11430425 0.64099997 4292204241
0.20514345 0.11430609 0.64099997 4292138448
0.20668517 0.11448623 0.64200002 4291875276
0.20823064 0.11466636 0.64300001 4292006610
0.20945412 0.11466811 0.64300001 4291875024
0.21100521 0.11484817 0.64399999 4291875024
0.2122305 0.11484987 0.64399999 4291875024
0.21411866 0.11520825 0.64600003 4291677391
0.21534769 0.1152099 0.64600003 4291611598
0.21691191 0.11538987 0.64700001 4291611598
0.2184799 0.11556984 0.648 4291677391
0.22005159 0.11574974 0.64899999 4291677645
0.22162706 0.11592964 0.64999998 4291546059
0.22286342 0.11593116 0.64999998 4291414987
0.22789216 0.11789458 0.66100001 4291414987
0.099024944 0.12126705 0.67400002 4291479485
0.10030568 0.12126899 0.67400002 4291676348
0.10158649 0.12127097 0.67400002 4291676348
0.10164633 0.11983352 0.66600001 4291872959
0.10244845 0.11929573 0.66299999 4292004546
0.10370845 0.11929772 0.66299999 4292005313
0.10481019 0.11911981 0.662 4292071106
0.10606839 0.11912184 0.662 4292070595
0.10716449 0.11894394 0.66100001 4292070595
0.10842088 0.11894601 0.66100001 4292005059
0.1096773 0.11894806 0.66100001 4292136901
0.1105981 0.11859024 0.65899998 4292137414
0.11185081 0.11859236 0.65899998 4292334794
0.11310355 0.11859448 0.65899998 4292335307
0.11435633 0.1185966 0.65899998 4292072391
0.1145567 0.11626127 0.64600003 4292203980
0.11578491 0.11626343 0.64600003 4292203978
0.11701313 0.11626557 0.64600003 4292203978
0.11891489 0.11572991 0.64300001 4292466382
0.12013753 0.11573209 0.64300001 4292465610
0.12136021 0.11573428 0.64300001 4292465610
0.12239231 0.11555647 0.64200002 4292400589
0.12342062 0.11537866 0.64099997 4292269003
0.12463962 0.11538087 0.64099997 4292268489
0.12585865 0.11538307 0.64099997 4292662991
0.12707771 0.11538529 0.64099997 4292466382
0.12829684 0.11538753 0.64099997 4292466382
0.12951596 0.11538976 0.64099997 4292597713
0.13073516 0.11539201 0.64099997 4292597713
0.13174854 0.11521424 0.63999999 4292400591
0.13296589 0.1152165 0.63999999 4292400591
0.13376397 0.11485872 0.63800001 4292466634
0.134766 0.11468094 0.63700002 4292466634
0.13597776 0.11468322 0.63700002 4292401104
0.13697417 0.11450542 0.63599998 4292401104
0.13796683 0.11432767 0.63499999 4292401104
0.13917488 0.11432994 0.63499999 4292401104
0.14038296 0.11433223 0.63499999 4292400850
0.14159106 0.11433449 0.63499999 4292400850
0.14257431 0.11415673 0.634 4292335057
0.14332704 0.11379889 0.63200003 4292335057
0.14430083 0.11362111 0.63099998 4292401104
0.14550146 0.11362337 0.63099998 4292401104
0.14646962 0.11344559 0.63 4292335055
0.14766839 0.11344787 0.63 4292335055
0.14910349 0.11363022 0.63099998 4292270036
0.15030421 0.11363249 0.63099998 4292270036
0.15150495 0.11363477 0.63099998 4292270034
0.15270574 0.11363706 0.63099998 4292335827
0.15390655 0.11363934 0.63099998 4292335827
0.15510738 0.11364162 0.63099998 4292270034
0.15606052 0.1134638 0.63 4292335827
0.15700985 0.11328594 0.62900001 4292270034
0.15820692 0.11328821 0.62900001 4292400850
0.15940402 0.11329048 0.62900001 4292466643
0.16085647 0.11347283 0.63 4292335055
0.16205551 0.11347508 0.63 4292401104
0.16299541 0.11329722 0.62900001 4292204241
0.16419257 0.11329944 0.62900001 4292204241
0.16538978 0.11330167 0.62900001 4292335057
0.16658697 0.1133039 0.62900001 4292400850
0.16778417 0.11330611 0.62900001 4292400850
0.177644 0.11350367 0.63 4291875278
0.17884314 0.11350581 0.63 4292138194
0.18004231 0.11350792 0.63 4292204504
0.18124145 0.11351003 0.63 4291875540
0.18273015 0.1136923 0.63099998 4291613135
0.18422274 0.11387456 0.63200003 4291744722
0.18542567 0.11387663 0.63200003 4291875276
0.18662858 0.11387868 0.63200003 4291875276
0.18842587 0.11424108 0.634 4292006606
0.18993171 0.1144233 0.63499999 4292072399
0.19114029 0.1144253 0.63499999 4292006606
0.19265179 0.11460751 0.63599998 4292006606
0.19386226 0.11460948 0.63599998 4292006606
0.19537945 0.11479165 0.63700002 4292006606
0.19659175 0.1147936 0.63700002 4292006606
0.19780405 0.1147955 0.63700002 4291875276
0.19932877 0.11497762 0.63800001 4292006094
0.20148587 0.11552015 0.64099997 4291940301
0.2027057 0.115522 0.64099997 4291743438
0.20392552 0.11552386 0.64099997 4291743438
0.20546533 0.11570591 0.64200002 4291809231
0.20700891 0.11588793 0.64300001 4291875024
0.20823239 0.11588971 0.64300001 4291809231
0.20945585 0.11589145 0.64300001 4291809231
0.21067928 0.11589318 0.64300001 4291875278
0.21223222 0.11607511 0.64399999 4291809485
0.21412034 0.11643726 0.64600003 4291677645
0.21534933 0.11643891 0.64600003 4291677645
0.21691354 0.11662076 0.64700001 4291742925
0.21848147 0.1168026 0.648 4291677132
0.22005315 0.11698443 0.64899999 4291611852
0.22128764 0.11698593 0.64899999 4291546059
0.2266365 0.11915056 0.66100001 4291284171
0.22789362 0.11915203 0.66100001 4291218377
0.22915074 0.1191535 0.66100001 4290889926
0.23040777 0.11915493 0.66100001 4290889926
0.23166472 0.11915631 0.66100001 4291348682
0.098036222 0.12291105 0.676 4291347385
0.099026881 0.12254935 0.67400002 4291544508
0.10030767 0.12255131 0.67400002 4291610557
0.10158848 0.1225533 0.67400002 4291610557
0.10164833 0.12110064 0.66600001 4291742141
0.10245044 0.12055712 0.66299999 4291807934
0.10371049 0.12055915 0.66299999 4291939520
0.10481222 0.12037931 0.662 4292071106
0.1059102 0.12019952 0.66100001 4292005061
0.10716655 0.12020157 0.66100001 4292005061
0.10809487 0.11983991 0.65899998 4292070854
0.10934754 0.11984202 0.65899998 4292070854
0.1106002 0.11984409 0.65899998 4292005831
0.11185293 0.11984621 0.65899998 4292202953
0.11310568 0.11984833 0.65899998 4292138185
0.11435846 0.11985046 0.65899998 4292072391
0.11526044 0.11948887 0.65700001 4292072391
0.11455884 0.11749043 0.64600003 4292072391
0.11578704 0.11749256 0.64600003 4292072137
0.11701526 0.1174947 0.64600003 4292072137
0.11824357 0.11749687 0.64600003 4292202953
0.11891707 0.11695337 0.64300001 4292269003
0.1201397 0.11695553 0.64300001 4292269003
0.12136239 0.11695772 0.64300001 4292269003
0.12239449 0.11677803 0.64200002 4292269003
0.1234228 0.11659832 0.64099997 4292202953
0.12464182 0.11660054 0.64099997 4292268749
0.12586085 0.11660274 0.64099997 4292597713
0.12707995 0.11660498 0.64099997 4292466382
0.12829904 0.11660718 0.64099997 4292466382
0.12951821 0.11660945 0.64099997 4292466384
0.13073741 0.1166117 0.64099997 4292466384
0.13175078 0.11643203 0.63999999 4292400337
0.13296816 0.1164343 0.63999999 4292400337
0.13376622 0.11607271 0.63800001 4292335055
0.13497986 0.11607499 0.63800001 4292401104
0.13598004 0.11589532 0.63700002 4292401104
0.13697644 0.11571563 0.63599998 4292401104
0.13796911 0.11553598 0.63499999 4292466895
0.13917714 0.11553825 0.63499999 4292466895
0.14060631 0.11572248 0.63599998 4292335057
0.14159334 0.11554281 0.63499999 4292335057
0.14257661 0.11536314 0.634 4292335055
0.1437829 0.11536544 0.634 4292335055
0.14498919 0.11536772 0.634 4292335309
0.14527315 0.11464213 0.63 4292335309
0.14647189 0.11464439 0.63 4292335055
0.14767067 0.11464669 0.63 4292335055
0.14910576 0.11483093 0.63099998 4292466647
0.15030648 0.11483321 0.63099998 4292400598
0.15174736 0.1150175 0.63200003 4292270034
0.15295005 0.11501979 0.63200003 4292270034
0.15415274 0.11502206 0.63200003 4292270034
0.15510963 0.11484233 0.63099998 4292270034
0.1563105 0.11484463 0.63099998 4292270034
0.15726171 0.11466487 0.63 4292270034
0.15846072 0.11466716 0.63 4292400850
0.1596597 0.11466941 0.63 4292400850
0.16085871 0.11467165 0.63 4292335057
0.16205774 0.11467391 0.63 4292400850
0.16299766 0.11449414 0.62900001 4292335057
0.16419484 0.11449638 0.62900001 4292203728
0.16539201 0.1144986 0.62900001 4292203728
0.16658919 0.11450082 0.62900001 4292203728
0.16778637 0.11450304 0.62900001 4292335055
0.17284961 0.11469387 0.63 4292203980
0.17524786 0.11469819 0.63 4292072399
0.17644702 0.11470035 0.63 4292335827
0.17764615 0.11470249 0.63 4291875024
0.17884526 0.11470462 0.63 4291875024
0.18004441 0.11470672 0.63 4291875026
0.18153122 0.1148909 0.63099998 4291743440
0.18302184 0.11507507 0.63200003 4291940047
0.18422477 0.11507715 0.63200003 4292006096
0.1854277 0.1150792 0.63200003 4291875276
0.18663059 0.11508125 0.63200003 4291809483
0.18842791 0.11544746 0.634 4292006606
0.18993373 0.11563159 0.63499999 4292072399
0.19114228 0.11563358 0.63499999 4292006606
0.19235085 0.11563558 0.63499999 4292006606
0.19386421 0.11581964 0.63599998 4292072137
0.19538137 0.1160037 0.63700002 4291940551
0.19659367 0.11600563 0.63700002 4291874504
0.19780597 0.11600754 0.63700002 4291940553
0.19901818 0.11600943 0.63700002 4291940047
0.20117344 0.11655765 0.63999999 4291874254
0.20239131 0.11655951 0.63999999 4291809233
0.20392732 0.11674345 0.64099997 4291677391
0.20546715 0.11692742 0.64200002 4291743438
0.20701066 0.1171113 0.64300001 4291875024
0.20823416 0.11711308 0.64300001 4291743436
0.20945761 0.11711482 0.64300001 4291743436
0.21068098 0.11711652 0.64300001 4291743436
0.21223386 0.11730033 0.64399999 4291677643
0.21412201 0.1176663 0.64600003 4291677643
0.21535094 0.11766791 0.64600003 4291677643
0.21691513 0.11785168 0.64700001 4291677132
0.21848303 0.1180354 0.648 4291611339
0.22005469 0.11821909 0.64899999 4291546059
0.22128913 0.11822061 0.64899999 4291546059
0.22663796 0.12040802 0.66100001 4291349445
0.2278951 0.12040949 0.66100001 4291349445
0.22915219 0.12041093 0.66100001 4290954951
0.23040915 0.12041233 0.66100001 4290625986
0.23166607 0.12041371 0.66100001 4291085002
0.23292291 0.12041503 0.66100001 4290493121
0.095751643 0.1245608 0.67799997 4290887598
0.097039908 0.12456273 0.67799997 4291216562
0.098038152 0.12419721 0.676 4291216312
0.099028863 0.12383174 0.67400002 4291347899
0.10030964 0.12383371 0.67400002 4291413946
0.10159047 0.12383568 0.67400002 4291545532
0.10165032 0.12236783 0.66600001 4291545532
0.10245243 0.1218186 0.66299999 4291676861
0.10371248 0.1218206 0.66299999 4291676861
0.10481424 0.1216389 0.662 4291742654
0.10591225 0.1214572 0.66100001 4291939268
0.10716861 0.12145926 0.66100001 4291939268
0.10809694 0.1210938 0.65899998 4292071108
0.10934962 0.1210959 0.65899998 4292071108
0.11060232 0.121098 0.65899998 4291874243
0.11168531 0.12091635 0.65799999 4292137414
0.11276454 0.12073473 0.65700001 4292006598
0.11401355 0.12073686 0.65700001 4292006598
0.11526261 0.120739 0.65700001 4291875526
0.11562499 0.11982229 0.65200001 4292006855
0.11578918 0.11872176 0.64600003 4292006855
0.11701743 0.11872391 0.64600003 4292006855
0.11824573 0.11872608 0.64600003 4292072391
0.11891922 0.11817688 0.64300001 4292072391
0.12014189 0.11817907 0.64300001 4292072137
0.12136459 0.11818124 0.64300001 4292137931
0.12239669 0.11799965 0.64200002 4292269003
0.12361757 0.11800186 0.64200002 4292269003
0.12483849 0.11800407 0.64200002 4292268749
0.12605946 0.1180063 0.64200002 4292400591
0.12728046 0.11800855 0.64200002 4292203980
0.12850147 0.11801077 0.64200002 4292203980
0.12972254 0.11801304 0.64200002 4292335055
0.13073969 0.11783146 0.64099997 4292335055
0.13195892 0.11783371 0.64099997 4292335055
0.13297042 0.11765216 0.63999999 4292335055
0.13418782 0.11765443 0.63999999 4292335055
0.13498211 0.11728903 0.63800001 4292335055
0.13598229 0.11710746 0.63700002 4292335309
0.13697873 0.11692591 0.63599998 4292335309
0.13797139 0.11674433 0.63499999 4292401104
0.13917944 0.11674662 0.63499999 4292401104
0.14060861 0.11693275 0.63599998 4292203474
0.14159565 0.11675119 0.63499999 4292335059
0.14280377 0.11675347 0.63499999 4292335057
0.14401197 0.11675578 0.63499999 4292335057
0.14522018 0.11675806 0.63499999 4292203980
0.14642839 0.11676036 0.63499999 4292335309
0.14647417 0.11584327 0.63 4292203726
0.14767294 0.11584555 0.63 4292137933
0.14910805 0.11603172 0.63099998 4292400850
0.15030877 0.11603399 0.63099998 4292335057
0.15222988 0.11658797 0.634 4292204239
0.15343635 0.11659025 0.634 4292270032
0.15415505 0.11622476 0.63200003 4292270032
0.15535775 0.11622703 0.63200003 4292270032
0.15631278 0.1160454 0.63099998 4292270034
0.15751363 0.11604767 0.63099998 4292270034
0.15846296 0.11586603 0.63 4292335057
0.15966198 0.11586829 0.63 4292335057
0.16086097 0.11587054 0.63 4292204241
0.16206001 0.1158728 0.63 4292138448
0.16325903 0.11587504 0.63 4292138444
0.16419707 0.11569335 0.62900001 4292138444
0.16539422 0.11569557 0.62900001 4292072399
0.16659142 0.1156978 0.62900001 4292138448
0.16805536 0.11588395 0.63 4292138448
0.17285176 0.11589272 0.63 4292006606
0.17405088 0.11589488 0.63 4292006606
0.17525002 0.11589704 0.63 4292072399
0.17644913 0.11589919 0.63 4292138448
0.17764826 0.11590133 0.63 4292006608
0.17884742 0.11590346 0.63 4291875278
0.18004656 0.11590557 0.63 4292005842
0.18124561 0.11590765 0.63 4292005842
0.18302391 0.11627769 0.63200003 4292006094
0.18422686 0.11627978 0.63200003 4292006094
0.18542977 0.11628183 0.63200003 4292006092
0.18663265 0.11628387 0.63200003 4291940299
0.18842992 0.11665387 0.634 4291940299
0.18993571 0.11683989 0.63499999 4291940299
0.1911443 0.11684189 0.63499999 4291677895
0.19235283 0.11684385 0.63499999 4291875530
0.19386613 0.11702982 0.63599998 4292006606
0.19507654 0.11703176 0.63599998 4291809483
0.19628695 0.11703368 0.63599998 4291940299
0.19749729 0.11703558 0.63599998 4292006092
0.19902006 0.11722147 0.63700002 4291940047
0.20117529 0.1177754 0.63999999 4291940047
0.20239316 0.11777725 0.63999999 4291809231
0.20392917 0.11796309 0.64099997 4291743438
0.20514888 0.11796489 0.64099997 4291743438
0.20701244 0.11833473 0.64300001 4291743438
0.20855972 0.11852051 0.64399999 4291414727
0.20978509 0.11852224 0.64399999 4291611850
0.21101031 0.11852394 0.64399999 4291677643
0.21223553 0.11852562 0.64399999 4291611850
0.21412364 0.11889536 0.64600003 4291546057
0.21535258 0.11889697 0.64600003 4291611850
0.2169167 0.11908258 0.64700001 4291546059
0.21848457 0.11926821 0.648 4291414473
0.22039531 0.11963785 0.64999998 4291348934
0.2216316 0.11963936 0.64999998 4291348934
0.22286785 0.11964082 0.64999998 4291283398
0.22789656 0.12166697 0.66100001 4291283398
0.22915359 0.12166838 0.66100001 4290823620
0.23041055 0.12166978 0.66100001 4290757826
0.23166743 0.12167113 0.66100001 4290888642
0.095753543 0.12585081 0.67799997 4290296746
0.097041838 0.12585275 0.67799997 4290888883
0.098040111 0.12548347 0.676 4291216310
0.099177748 0.12529981 0.67500001 4291216310
0.10046045 0.12530178 0.67500001 4291545014
0.10174319 0.12530378 0.67500001 4291610807
0.10180493 0.12382068 0.667 4291610553
0.10245445 0.12308013 0.66299999 4291676602
0.1037145 0.12308216 0.66299999 4291676602
0.10481627 0.12289855 0.662 4291742395
0.1059143 0.12271496 0.66100001 4291807938
0.10684642 0.12234569 0.65899998 4291807938
0.10809903 0.12234777 0.65899998 4292005059
0.10918578 0.12216418 0.65799999 4292071108
0.11043658 0.1221663 0.65799999 4292071108
0.11168742 0.12216842 0.65799999 4292071108
0.11276666 0.12198488 0.65700001 4291940038
0.11401569 0.12198702 0.65700001 4292005831
0.11456299 0.12124647 0.653 4292006596
0.11562714 0.12106293 0.65200001 4292006596
0.11597056 0.12013669 0.64700001 4292006596
0.11720074 0.12013887 0.64700001 4292072389
0.11843093 0.12014103 0.64700001 4292203207
0.11910634 0.11958613 0.64399999 4292137414
0.12014408 0.11940262 0.64300001 4292203207
0.1213668 0.11940482 0.64300001 4292269001
0.12258954 0.11940702 0.64300001 4292269001
0.12361979 0.11922354 0.64200002 4292137414
0.12484072 0.11922576 0.64200002 4292202953
0.12606168 0.11922798 0.64200002 4292400589
0.12728268 0.11923021 0.64200002 4292334796
0.12850372 0.11923246 0.64200002 4292269003
0.1297248 0.11923473 0.64200002 4292203726
0.13074194 0.11905125 0.64099997 4292203726
0.13196118 0.11905351 0.64099997 4292203980
0.13318045 0.11905578 0.64099997 4292335309
0.1341901 0.11887234 0.63999999 4292203980
0.13498439 0.11850311 0.63800001 4292137931
0.13598458 0.11831968 0.63700002 4292137931
0.136981 0.11813618 0.63599998 4292203980
0.13819093 0.11813848 0.63599998 4292335309
0.1394009 0.11814076 0.63599998 4292335309
0.1406109 0.11814306 0.63599998 4292334805
0.14159793 0.11795958 0.63499999 4292334805
0.14280607 0.11796189 0.63499999 4292203728
0.14401424 0.11796418 0.63499999 4292203728
0.14522247 0.11796648 0.63499999 4292334796
0.14643072 0.11796878 0.63499999 4292334796
0.14670897 0.11722795 0.63099998 4292203726
0.14790963 0.11723023 0.63099998 4292203726
0.14934666 0.11741832 0.63200003 4292335309
0.15054929 0.11742061 0.63200003 4292335309
0.15175192 0.11742289 0.63200003 4292204493
0.15295462 0.11742518 0.63200003 4292336079
0.15415733 0.11742747 0.63200003 4292270286
0.1551142 0.11724392 0.63099998 4292204493
0.15631504 0.11724621 0.63099998 4292204241
0.15751588 0.11724848 0.63099998 4292204241
0.15846525 0.11706493 0.63 4292203728
0.15966423 0.11706719 0.63 4292203728
0.16086324 0.11706945 0.63 4292138448
0.16206227 0.1170717 0.63 4292072399
0.16326129 0.11707394 0.63 4292072391
0.16446033 0.11707617 0.63 4292138185
0.16592234 0.11726424 0.63099998 4292137931
0.16685846 0.11708062 0.63 4292203980
0.16805758 0.11708284 0.63 4292006606
0.16925663 0.11708505 0.63 4291875276
0.17285398 0.11709162 0.63 4292006092
0.17405307 0.11709379 0.63 4292072142
0.17525218 0.11709592 0.63 4292072142
0.1764513 0.11709806 0.63 4292072142
0.17765039 0.11710019 0.63 4291875278
0.17913343 0.1172882 0.63099998 4292006608
0.1800486 0.11710441 0.63 4292071636
0.18124771 0.1171065 0.63 4292005842
0.18302602 0.11748035 0.63200003 4291875278
0.18422893 0.11748242 0.63200003 4291875278
0.18543181 0.11748447 0.63200003 4291875276
0.18722528 0.1178583 0.634 4291809483
0.18843193 0.11786031 0.634 4291874506
0.18993773 0.11804821 0.63499999 4291874506
0.19114624 0.11805019 0.63499999 4291743436
0.1923548 0.11805218 0.63499999 4292006608
0.1935633 0.11805411 0.63499999 4291875528
0.19507849 0.11824195 0.63599998 4291743942
0.19628884 0.11824387 0.63599998 4291874508
0.19749919 0.11824575 0.63599998 4291940301
0.19902195 0.11843356 0.63700002 4291940301
0.20117712 0.11899316 0.63999999 4291874508
0.20239499 0.118995 0.63999999 4291743438
0.20393094 0.11918274 0.64099997 4291743438
0.20515065 0.11918452 0.64099997 4291677645
0.20669226 0.11937222 0.64200002 4291677645
0.20856149 0.11974583 0.64399999 4291546059
0.20978676 0.11974753 0.64399999 4291546059
0.21101199 0.11974922 0.64399999 4291546059
0.21289633 0.12012279 0.64600003 4291414473
0.21412526 0.12012441 0.64600003 4291414727
0.21535416 0.12012602 0.64600003 4291414727
0.21691826 0.12031352 0.64700001 4291546059
0.21882328 0.12068699 0.64899999 4291414473
0.2203968 0.12087446 0.64999998 4291349445
0.22163303 0.12087593 0.64999998 4291283652
0.22424081 0.12162127 0.65399998 4291283139
0.22686362 0.12236654 0.65799999 4291151553
0.22846159 0.1225539 0.65899998 4291085758
0.2304119 0.12292722 0.66100001 4291085758
0.23166876 0.12292853 0.66100001 4290954426
0.098042056 0.12676978 0.676 4291216310
0.099032789 0.12639669 0.67400002 4291216310
0.10001594 0.12602359 0.67199999 4291281590
0.10114228 0.12583807 0.671 4291347383
0.10180695 0.1250899 0.667 4291347637
0.10292007 0.12490439 0.66600001 4291478967
0.10371653 0.12434377 0.66299999 4291544762
0.10481832 0.12415826 0.662 4291610555
0.10591635 0.12397277 0.66100001 4291742143
0.10684848 0.1235997 0.65899998 4291742143
0.10793708 0.12341423 0.65799999 4291676350
0.10918787 0.12341633 0.65799999 4291807936
0.11043869 0.12341843 0.65799999 4291874243
0.11151982 0.12323298 0.65700001 4291940036
0.11242552 0.12285996 0.65499997 4291874243
0.1134972 0.12267452 0.65399998 4292006085
0.11456514 0.1224891 0.653 4291940549
0.11562931 0.12230367 0.65200001 4291940549
0.11651045 0.12193067 0.64999998 4291940803
0.11774634 0.12193284 0.64999998 4291940803
0.11898226 0.12193502 0.64999998 4292006085
0.11910851 0.12081165 0.64399999 4291940036
0.12033312 0.12081385 0.64399999 4291874756
0.12136899 0.12062845 0.64300001 4292072391
0.12259176 0.12063067 0.64300001 4292072137
0.12362201 0.12044526 0.64200002 4292072137
0.12484294 0.12044748 0.64200002 4292202953
0.12606391 0.12044971 0.64200002 4292334796
0.12728491 0.12045195 0.64200002 4292269003
0.12850596 0.12045421 0.64200002 4292202953
0.12952499 0.12026884 0.64099997 4292137933
0.1307442 0.12027111 0.64099997 4292137933
0.13196346 0.12027337 0.64099997 4292269003
0.13318273 0.12027565 0.64099997 4292202953
0.13419236 0.12009028 0.63999999 4292137160
0.13540982 0.12009256 0.63999999 4292202953
0.13598688 0.11953192 0.63700002 4292072137
0.13698328 0.11934656 0.63599998 4292137931
0.13797595 0.1191612 0.63499999 4292203980
0.13896482 0.11897583 0.634 4292335309
0.14017101 0.11897811 0.634 4292204241
0.14182319 0.11935572 0.63599998 4292204241
0.14303325 0.11935802 0.63599998 4292138448
0.14401653 0.11917264 0.63499999 4292204241
0.14522476 0.11917495 0.63499999 4292138446
0.14643301 0.11917724 0.63499999 4292138446
0.14740877 0.11899187 0.634 4292138448
0.14861515 0.11899417 0.634 4292138448
0.14934894 0.11862109 0.63200003 4292138446
0.15055157 0.11862338 0.63200003 4292138446
0.15175423 0.11862566 0.63200003 4292335309
0.15295692 0.11862796 0.63200003 4292335309
0.15415961 0.11863024 0.63200003 4292072651
0.15511648 0.11844479 0.63099998 4292138444
0.15631732 0.11844707 0.63099998 4292204239
0.15726854 0.11826163 0.63 4292204239
0.1584675 0.11826388 0.63 4292138448
0.15966648 0.11826614 0.63 4292138448
0.16086549 0.11826841 0.63 4292072399
0.16206448 0.11827065 0.63 4292006606
0.16352266 0.11846063 0.63099998 4291874758
0.1647236 0.11846285 0.63099998 4292137931
0.16618757 0.11865284 0.63200003 4292138446
0.16712555 0.11846732 0.63099998 4292072653
0.16832653 0.11846954 0.63099998 4292006092
0.17274691 0.11903939 0.634 4292072142
0.17395364 0.11904158 0.634 4291875276
0.17553248 0.11848261 0.63099998 4292006608
0.17673349 0.11848475 0.63099998 4292006608
0.1779345 0.11848688 0.63099998 4291875276
0.17913552 0.118489 0.63099998 4291875276
0.18005069 0.1183033 0.63 4291875024
0.1812498 0.11830539 0.63 4291875024
0.18302809 0.11868306 0.63200003 4291875278
0.18423097 0.11868512 0.63200003 4291875278
0.18543383 0.11868715 0.63200003 4291809483
0.18722732 0.11906477 0.634 4291809483
0.18843395 0.11906677 0.634 4291743690
0.18993971 0.11925657 0.63499999 4291677897
0.19114822 0.11925855 0.63499999 4291677643
0.19235677 0.1192605 0.63499999 4291743436
0.1935652 0.11926244 0.63499999 4291743690
0.1947737 0.11926436 0.63499999 4291677897
0.19598213 0.11926626 0.63499999 4291677897
0.19719054 0.11926814 0.63499999 4291743690
0.1983989 0.11926999 0.63499999 4291677897
0.19992159 0.11945963 0.63599998 4291677897
0.2017643 0.11983713 0.63800001 4291677643
0.20361461 0.12021458 0.63999999 4291677643
0.20515241 0.12040418 0.64099997 4291677643
0.20669402 0.12059378 0.64200002 4291677643
0.20856322 0.12097117 0.64399999 4291611852
0.20978844 0.12097286 0.64399999 4291546059
0.21101364 0.12097453 0.64399999 4291349447
0.21289796 0.12135188 0.64600003 4291349447
0.21412688 0.1213535 0.64600003 4291348934
0.21535575 0.12135508 0.64600003 4291414727
0.21691982 0.12154449 0.64700001 4291283400
0.21882477 0.12192173 0.64899999 4291283400
0.22039829 0.12211108 0.64999998 4291414727
0.22163452 0.12211256 0.64999998 4291217092
0.22424221 0.12286545 0.65399998 4291085506
0.22686504 0.12361833 0.65799999 4291085506
0.22846296 0.12380757 0.65899998 4291019197
0.23041324 0.12418468 0.66100001 4291019197
0.23167004 0.12418597 0.66100001 4290690748
0.23292677 0.12418724 0.66100001 4289901232
0.098044023 0.12805617 0.676 4290953393
0.099034756 0.12767927 0.67400002 4291216564
0.10001794 0.12730241 0.67199999 4291281844
0.10114429 0.12711495 0.671 4291216051
0.1019616 0.12654863 0.66799998 4291281590
0.10307663 0.12636122 0.667 4291478969
0.10371856 0.12560545 0.66299999 4291544762
0.10482038 0.12541804 0.662 4291544762
0.10591841 0.12523064 0.66100001 4291544510
0.10685056 0.1248538 0.65899998 4291610303
0.10793917 0.12466642 0.65799999 4291742143
0.10918997 0.12466852 0.65799999 4291742143
0.11027296 0.12448116 0.65700001 4291939518
0.11152193 0.12448329 0.65700001 4292071104
0.11242766 0.12410646 0.65499997 4291940290
0.11349936 0.12391912 0.65399998 4291940290
0.11456728 0.12373178 0.653 4291940036
0.11563148 0.12354448 0.65200001 4291874243
0.11651263 0.12316766 0.64999998 4291874497
0.11774853 0.12316983 0.64999998 4291874497
0.11898445 0.12317204 0.64999998 4291874243
0.12022043 0.12317424 0.64999998 4291940036
0.12033532 0.12203945 0.64399999 4291940803
0.12137119 0.12185214 0.64300001 4292006596
0.12259397 0.12185435 0.64300001 4292006344
0.12362424 0.12166707 0.64200002 4292006344
0.12484518 0.12166929 0.64200002 4292202953
0.12606615 0.12167153 0.64200002 4292334796
0.12728718 0.12167379 0.64200002 4292138185
0.12850823 0.12167601 0.64200002 4292006598
0.12952724 0.12148874 0.64099997 4292072137
0.13074647 0.12149101 0.64099997 4292072137
0.13196571 0.12149327 0.64099997 4292202953
0.133185 0.12149555 0.64099997 4292137160
0.13419466 0.12130831 0.63999999 4292137160
0.13541211 0.12131061 0.63999999 4292202953
0.13620265 0.12093379 0.63800001 4292202953
0.13655481 0.12017786 0.634 4292202953
0.13776092 0.12018013 0.634 4292203978
0.1389671 0.12018242 0.634 4292335307
0.14017329 0.1201847 0.634 4292203980
0.14160252 0.12037656 0.63499999 4292335309
0.14281067 0.12037887 0.63499999 4292203726
0.14401884 0.12038115 0.63499999 4292203726
0.14522706 0.12038346 0.63499999 4292138448
0.1462047 0.12019618 0.634 4292072399
0.14741103 0.12019847 0.634 4292072399
0.14861746 0.12020078 0.634 4292006606
0.14982384 0.12020307 0.634 4292072653
0.15103027 0.12020537 0.634 4292006859
0.15223676 0.12020767 0.634 4292203978
0.15344323 0.12020995 0.634 4292203978
0.15464973 0.12021225 0.634 4292137931
0.15511876 0.11964571 0.63099998 4292203980
0.15631959 0.11964797 0.63099998 4292335309
0.15727079 0.11946063 0.63 4292335309
0.15846975 0.11946289 0.63 4292203980
0.15966873 0.11946514 0.63 4292137931
0.16086772 0.11946739 0.63 4292072139
0.16206676 0.11946964 0.63 4292006346
0.16326578 0.11947189 0.63 4291940299
0.16498694 0.11985341 0.63200003 4292006092
0.16618979 0.11985564 0.63200003 4291875276
0.16712774 0.11966821 0.63099998 4292006606
0.16832875 0.11967043 0.63099998 4291875276
0.1703357 0.12024157 0.634 4291875276
0.17154239 0.12024378 0.634 4291875276
0.1739558 0.12024817 0.634 4291875276
0.17636921 0.1202525 0.634 4292072401
0.17673562 0.1196856 0.63099998 4292006608
0.17793664 0.11968773 0.63099998 4291875530
0.17913762 0.11968982 0.63099998 4291809481
0.1800528 0.11950225 0.63 4291875278
0.18125184 0.11950431 0.63 4291875278
0.18274054 0.11969607 0.63099998 4291743436
0.18394148 0.11969812 0.63099998 4291743436
0.18514244 0.11970013 0.63099998 4291677643
0.18634336 0.11970216 0.63099998 4291677643
0.18784153 0.11989386 0.63200003 4291677897
0.18964256 0.12027526 0.634 4291611848
0.19084917 0.12027723 0.634 4291677643
0.19205576 0.12027917 0.634 4291743436
0.19326231 0.12028109 0.634 4291677897
0.19446886 0.12028302 0.634 4291546055
0.19567534 0.12028487 0.634 4291611850
0.19688185 0.12028675 0.634 4291677643
0.19808829 0.12028857 0.634 4291612102
0.1999234 0.12066985 0.63599998 4291612102
0.20176607 0.12105112 0.63800001 4291611850
0.20361637 0.12143238 0.63999999 4291611850
0.20515415 0.12162387 0.64099997 4291611848
0.20701768 0.12200508 0.64300001 4291677897
0.20856489 0.12219653 0.64399999 4291546055
0.20979016 0.12219822 0.64399999 4291414725
0.21167064 0.12257937 0.64600003 4291414727
0.2128996 0.12258101 0.64600003 4291348934
0.21412846 0.12258261 0.64600003 4291414725
0.21535727 0.12258418 0.64600003 4291546055
0.21692134 0.12277547 0.64700001 4291348932
0.22152369 0.12467459 0.65700001 4291283139
0.22277327 0.12467609 0.65700001 4291217094
0.22402281 0.12467756 0.65700001 4290953922
0.22595806 0.12505852 0.65899998 4291085508
0.22721122 0.12505992 0.65899998 4290953922
0.22846432 0.12506126 0.65899998 4290887359
0.23041454 0.12544215 0.66100001 4290690237
0.098045997 0.12934263 0.676 4290624432
0.099183679 0.12915328 0.67500001 4290953141
0.1003176 0.12896393 0.67400002 4291018418
0.10114629 0.12839191 0.671 4291215797
0.10196361 0.12781988 0.66799998 4291281590
0.1032332 0.12782192 0.66799998 4291347383
0.10434639 0.12763262 0.667 4291347385
0.10498077 0.12686926 0.66299999 4291478715
0.10559998 0.12610586 0.65899998 4291413692
0.10685261 0.12610793 0.65899998 4291479485
0.10794125 0.12591867 0.65799999 4291545534
0.10919207 0.12592077 0.65799999 4291545534
0.11027508 0.12573151 0.65700001 4291676348
0.11152406 0.12573363 0.65700001 4291742141
0.11242978 0.12535301 0.65499997 4291742143
0.11350149 0.12516376 0.65399998 4291742143
0.11456945 0.12497456 0.653 4291874243
0.11563364 0.12478533 0.65200001 4291874243
0.11687332 0.12478752 0.65200001 4291874495
0.11775071 0.12440689 0.64999998 4291874495
0.11898666 0.1244091 0.64999998 4291742654
0.12059258 0.12479413 0.65200001 4291874497
0.12183239 0.12479632 0.65200001 4291874756
0.12137341 0.1230759 0.64300001 4291874756
0.12259619 0.12307811 0.64300001 4291874758
0.12362644 0.12288891 0.64200002 4291874758
0.1248474 0.12289113 0.64200002 4291743429
0.12606841 0.1228934 0.64200002 4292072137
0.12728943 0.12289564 0.64200002 4291875528
0.1285105 0.12289789 0.64200002 4291809735
0.12952948 0.12270871 0.64099997 4291809735
0.13074873 0.12271097 0.64099997 4292006857
0.13196801 0.12271327 0.64099997 4292006344
0.13318729 0.12271554 0.64099997 4291940551
0.13419694 0.12252638 0.63999999 4292005831
0.13541439 0.12252866 0.63999999 4292137160
0.13620493 0.12214805 0.63800001 4292137160
0.13655707 0.12138452 0.634 4292005831
0.13776322 0.12138679 0.634 4292005833
0.13896941 0.1213891 0.634 4292137162
0.14017558 0.12139136 0.634 4292137160
0.14160481 0.12158513 0.63499999 4292269003
0.14281295 0.12158742 0.63499999 4292137931
0.14402115 0.12158973 0.63499999 4292137931
0.14522935 0.12159202 0.63499999 4292006859
0.14620699 0.12140284 0.634 4292072653
0.14741336 0.12140515 0.634 4292072399
0.14861973 0.12140743 0.634 4291875276
0.14982614 0.12140974 0.634 4292006606
0.1510326 0.12141205 0.634 4292006606
0.15223904 0.12141432 0.634 4292137160
0.15296149 0.12103362 0.63200003 4292202953
0.15416415 0.1210359 0.63200003 4292202953
0.15536688 0.12103817 0.63200003 4292202953
0.15632185 0.12084892 0.63099998 4292137933
0.15752271 0.12085119 0.63099998 4292072139
0.158472 0.12066193 0.63 4292137935
0.15967101 0.12066419 0.63 4292072142
0.16086999 0.12066644 0.63 4291940299
0.16206901 0.12066869 0.63 4292006092
0.16326801 0.12067091 0.63 4291875276
0.16498914 0.12105623 0.63200003 4291875276
0.16619202 0.12105848 0.63200003 4291875278
0.16739485 0.12106068 0.63200003 4291875278
0.16859771 0.12106289 0.63200003 4291875276
0.17033793 0.12144821 0.634 4291875276
0.17154461 0.12145042 0.634 4291809481
0.17275129 0.12145259 0.634 4291809481
0.17395797 0.12145478 0.634 4291809483
0.17516463 0.12145694 0.634 4291875276
0.17637134 0.12145908 0.634 4291875276
0.17757803 0.12146122 0.634 4291875276
0.17822075 0.1210802 0.63200003 4291809996
0.17942362 0.12108231 0.63200003 4291809996
0.18005487 0.1207012 0.63 4291875276
0.18125394 0.12070327 0.63 4291875276
0.18274258 0.12089692 0.63099998 4291677643
0.18394351 0.12089895 0.63099998 4291743436
0.18514447 0.12090099 0.63099998 4291874506
0.18634537 0.12090299 0.63099998 4291874506
0.18784352 0.1210966 0.63200003 4291677897
0.18964456 0.12148178 0.634 4291677897
0.19085112 0.12148373 0.634 4291677643
0.19205767 0.12148565 0.634 4291611850
0.19326423 0.12148759 0.634 4291546057
0.19447072 0.12148947 0.634 4291546057
0.19567722 0.12149134 0.634 4291611850
0.19688366 0.12149319 0.634 4291611850
0.19809011 0.12149502 0.634 4291611848
0.19992521 0.12188007 0.63599998 4291546055
0.20176788 0.12226515 0.63800001 4291546055
0.20361812 0.12265018 0.63999999 4291414725
0.20515588 0.12284355 0.64099997 4291414727
0.20701936 0.12322858 0.64300001 4291414727
0.20824273 0.12323027 0.64300001 4291348680
0.20946603 0.12323193 0.64300001 4291282887
0.21199992 0.12400018 0.64700001 4291282887
0.21323073 0.12400179 0.64700001 4291282887
0.21446149 0.12400338 0.64700001 4291282374
0.21602558 0.12419659 0.648 4291282374
0.21792868 0.12458143 0.64999998 4291217092
0.22152518 0.12592457 0.65700001 4291217092
0.22277479 0.12592606 0.65700001 4291151301
0.22402424 0.12592751 0.65700001 4291085508
0.22595941 0.12631227 0.65899998 4291085506
0.22721255 0.12631361 0.65899998 4290822334
0.22846566 0.12631497 0.65899998 4290690750
0.23041582 0.12669963 0.66100001 4290624957
0.098047972 0.13062917 0.676 4290426545
0.099185675 0.13043793 0.67500001 4290887096
0.10031962 0.13024665 0.67400002 4291018164
0.10129905 0.12986219 0.67199999 4291083957
0.10227093 0.12947772 0.67000002 4291150002
0.10323524 0.12909323 0.66799998 4291216051
0.10434844 0.12890205 0.667 4291215797
0.10498283 0.12813108 0.66299999 4291215797
0.10560206 0.12736009 0.65899998 4291282108
0.1068547 0.12736216 0.65899998 4291479487
0.10794334 0.12717098 0.65799999 4291479737
0.10919419 0.1271731 0.65799999 4291479737
0.11027719 0.12698191 0.65700001 4291479485
0.11152619 0.12698406 0.65700001 4291545534
0.11243192 0.12659962 0.65499997 4291546047
0.11350366 0.1264085 0.65399998 4291479998
0.11457161 0.12621737 0.653 4291546047
0.1156358 0.12602626 0.65200001 4291611840
0.1168755 0.12602843 0.65200001 4291808702
0.11811522 0.12603064 0.65200001 4291874495
0.11935499 0.12603283 0.65200001 4291808448
0.12059479 0.12603503 0.65200001 4291808448
0.12183464 0.12603728 0.65200001 4291677634
0.12156437 0.124493 0.64399999 4291743427
0.12278908 0.12449523 0.64399999 4291743427
0.12382124 0.12430415 0.64300001 4291677634
0.12504409 0.12430637 0.64300001 4291677380
0.126267 0.12430861 0.64300001 4291874758
0.12748994 0.12431088 0.64300001 4291743942
0.12851274 0.12411981 0.64200002 4291677893
0.12953176 0.12392873 0.64099997 4291874758
0.13075101 0.12393101 0.64099997 4292072137
0.13197027 0.12393328 0.64099997 4292005831
0.13318957 0.12393556 0.64099997 4291874245
0.13419923 0.1237445 0.63999999 4291940038
0.1354167 0.12374679 0.63999999 4292005831
0.13663417 0.12374906 0.63999999 4291874504
0.13742095 0.12336468 0.63800001 4291874504
0.13820009 0.12298021 0.63599998 4291940299
0.13897167 0.12259579 0.634 4291940299
0.14017788 0.12259808 0.634 4292005833
0.14205314 0.1231805 0.63700002 4292202955
0.14348999 0.12337619 0.63800001 4292202953
0.14425027 0.12299172 0.63599998 4292202953
0.14523166 0.12280064 0.63499999 4292202953
0.1464399 0.12280293 0.63499999 4292334796
0.14764817 0.12280525 0.63499999 4292137931
0.14885646 0.12280755 0.63499999 4292006344
0.14982845 0.12261645 0.634 4291875276
0.15103486 0.12261874 0.634 4291875276
0.15224133 0.12262104 0.634 4291940553
0.15296374 0.12223651 0.63200003 4292006346
0.15416645 0.12223879 0.63200003 4292006092
0.15536916 0.12224107 0.63200003 4292006092
0.15632413 0.12204991 0.63099998 4292006092
0.15752496 0.12205217 0.63099998 4292006092
0.1584743 0.12186102 0.63 4292006610
0.15967321 0.12186326 0.63 4291875024
0.16087221 0.12186551 0.63 4291940299
0.16207123 0.12186775 0.63 4292006092
0.16352937 0.12206341 0.63099998 4291875278
0.16473033 0.12206566 0.63099998 4291875278
0.16619425 0.12226133 0.63200003 4292006096
0.16739705 0.12226354 0.63200003 4291940047
0.16913345 0.12265267 0.634 4291809481
0.17034012 0.12265488 0.634 4291809481
0.17154677 0.12265705 0.634 4291743942
0.17220849 0.12227232 0.63200003 4291677893
0.17341138 0.12227447 0.63200003 4291809481
0.17461425 0.12227664 0.63200003 4291809481
0.1763735 0.12266573 0.634 4291743690
0.17758016 0.12266786 0.634 4291743690
0.17878681 0.12266996 0.634 4291744203
0.1794257 0.12228511 0.63200003 4291809996
0.18005696 0.12190021 0.63 4291809483
0.18125597 0.12190225 0.63 4291809483
0.18274462 0.1220978 0.63099998 4291743690
0.18394554 0.12209983 0.63099998 4291743690
0.18514645 0.12210184 0.63099998 4291874504
0.18664269 0.12229735 0.63200003 4291940553
0.18843992 0.12268635 0.634 4291677643
0.18964651 0.12268832 0.634 4291611850
0.19085306 0.12269026 0.634 4291546059
0.19205961 0.12269219 0.634 4291546059
0.19326611 0.12269409 0.634 4291414727
0.19447263 0.12269598 0.634 4291546057
0.19567907 0.12269782 0.634 4291546055
0.19688553 0.12269967 0.634 4291546055
0.19809191 0.12270147 0.634 4291546057
0.19992697 0.12309032 0.63599998 4291546057
0.20176965 0.12347919 0.63800001 4291546309
0.20361988 0.12386803 0.63999999 4291348930
0.20515761 0.12406328 0.64099997 4291217094
0.20702109 0.1244521 0.64300001 4291217094
0.20824441 0.12445377 0.64300001 4291216581
0.20946769 0.12445544 0.64300001 4291282374
0.21101855 0.12465059 0.64399999 4291282376
0.21356189 0.12542641 0.648 4291282376
0.21479452 0.12542799 0.648 4291151301
0.21636048 0.12562308 0.64899999 4291085508
0.21860075 0.1262053 0.65200001 4291085508
0.22085233 0.12678747 0.65499997 4291085508
0.22209804 0.12678891 0.65499997 4291085506
0.22334366 0.12679034 0.65499997 4291085506
0.22596081 0.12756601 0.65899998 4291085758
0.22721392 0.12756737 0.65899998 4290756793
0.22846693 0.12756866 0.65899998 4290624955
0.22971991 0.12756994 0.65899998 4290361783
0.098049946 0.13191578 0.676 4290294443
0.099187665 0.1317226 0.67500001 4290821043
0.10047047 0.1317246 0.67500001 4291018164
0.10160256 0.13153148 0.67400002 4291083957
0.10227296 0.13075291 0.67000002 4290953395
0.10354639 0.13075496 0.67000002 4291019188
0.10450692 0.13036667 0.66799998 4291150004
0.10561828 0.13017359 0.667 4291150004
0.10608488 0.12919986 0.662 4291019188
0.1071811 0.12900677 0.66100001 4291282103
0.10810947 0.12861851 0.65899998 4291151285
0.10936224 0.12862061 0.65899998 4291217335
0.11044718 0.12842758 0.65799999 4291282874
0.11169808 0.12842971 0.65799999 4291414459
0.11277738 0.12823668 0.65700001 4291414975
0.11367936 0.12784846 0.65499997 4291349182
0.11457378 0.12746024 0.653 4291414975
0.11581533 0.1274624 0.653 4291349182
0.11705694 0.12746459 0.653 4291480252
0.11811743 0.12727159 0.65200001 4291546045
0.11935719 0.1272738 0.65200001 4291546045
0.120597 0.12727602 0.65200001 4291611838
0.12183685 0.12727825 0.65200001 4291611840
0.12307674 0.12728049 0.65200001 4291677634
0.12355398 0.12650187 0.648 4291743429
0.12459376 0.1263089 0.64700001 4291743429
0.12504636 0.12553024 0.64300001 4291611840
0.12626927 0.12553248 0.64300001 4291743427
0.1274922 0.12553473 0.64300001 4291743429
0.12871517 0.12553699 0.64300001 4291743429
0.12973613 0.12534405 0.64200002 4291874245
0.13095729 0.12534633 0.64200002 4291940038
0.13217846 0.1253486 0.64200002 4291874245
0.13339967 0.12535089 0.64200002 4291874245
0.13441122 0.12515791 0.64099997 4291940040
0.13563058 0.1251602 0.64099997 4291940040
0.1366365 0.12496724 0.63999999 4291677895
0.13785399 0.12496955 0.63999999 4291743688
