# .PCD v0.7 - Point Cloud Data file format
VERSION 0.7
FIELDS x y z rgba
SIZE 4 4 4 4
TYPE F F F U
COUNT 1 1 1 1
WIDTH 1064
HEIGHT 1
VIEWPOINT 0 0 0 1 0 0 0
POINTS 1064
DATA ascii
-0.15605931 0.053706296 0.71100003 4285751912
-0.1677613 0.05823648 0.77100003 4284962396
-0.16629378 0.058234483 0.77100003 4286279008
-0.10403392 0.064034112 0.84899998 4288781206
-0.10242195 0.064032651 0.84899998 4285229179
-0.10057256 0.063880362 0.847 4281807943
-0.09896452 0.063878931 0.847 4282793280
-0.076639488 0.064011797 0.84899998 4278321156
-0.075028613 0.064010657 0.84899998 4278190080
-0.32327166 0.066475183 0.85600001 4280098327
-0.32164121 0.066473246 0.85600001 4280549376
-0.32001069 0.066471271 0.85600001 4281139200
-0.31838006 0.066469297 0.85600001 4278190093
-0.31600925 0.066312 0.85399997 4280428866
-0.31438228 0.066309981 0.85399997 4278921984
-0.31275523 0.066307954 0.85399997 4279514112
-0.31112805 0.066305913 0.85399997 4280099152
-0.31022567 0.066459119 0.85600001 4278190104
-0.30787358 0.066301763 0.85399997 4278190080
-0.30624619 0.066299662 0.85399997 4282264619
-0.30461878 0.066297553 0.85399997 4288046944
-0.30299127 0.066295438 0.85399997 4290547335
-0.30136377 0.066293292 0.85399997 4289438383
-0.29973611 0.066291131 0.85399997 4284240735
-0.29810852 0.06628897 0.85399997 4278785031
-0.29648075 0.066286787 0.85399997 4278587909
-0.294853 0.066284589 0.85399997 4278190138
-0.29322523 0.066282399 0.85399997 4278190139
-0.29159737 0.066280164 0.85399997 4278190080
-0.28996953 0.066277944 0.85399997 4278190080
-0.28834164 0.066275701 0.85399997 4285092699
-0.28671372 0.066273451 0.85399997 4294962162
-0.28508583 0.066271193 0.85399997 4294242289
-0.20447877 0.053970121 0.69599998 4292004557
-0.20315211 0.053968169 0.69599998 4291411906
-0.20182548 0.053966224 0.69599998 4290885562
-0.20049886 0.053964261 0.69599998 4290622906
-0.19917224 0.053962298 0.69599998 4289965233
-0.19841424 0.054115407 0.69800001 4289965485
-0.19680153 0.054035921 0.69700003 4289899435
-0.1954731 0.054033954 0.69700003 4290292649
-0.19414474 0.054031987 0.69700003 4290292649
-0.19125111 0.054336149 0.70099998 4290226594
-0.18991527 0.054334179 0.70099998 4290226594
-0.18590799 0.054328278 0.70099998 4290290598
-0.18430902 0.05424881 0.69999999 4290224805
-0.18297531 0.054246843 0.69999999 4290291111
-0.18164161 0.054244895 0.69999999 4290291111
-0.18056555 0.054320429 0.70099998 4290291104
-0.17923008 0.054318469 0.70099998 4290488226
-0.17764087 0.054239038 0.69999999 4290489510
-0.1763074 0.054237098 0.69999999 4289963166
-0.17522392 0.054312624 0.70099998 4289569443
-0.17364056 0.054233212 0.69999999 4289635236
-0.17230722 0.054231271 0.69999999 4289439138
-0.17121822 0.054306816 0.70099998 4289439138
-0.17036778 0.054459825 0.70300001 4289898654
-0.16999067 0.054767754 0.70700002 4289832861
-0.16864423 0.054765828 0.70700002 4289766304
-0.16753447 0.054841351 0.708 4289766304
-0.16665573 0.054994345 0.70999998 4289898143
-0.16483811 0.054837514 0.708 4289766556
-0.16348998 0.054835591 0.708 4289176212
-0.16259998 0.054988582 0.70999998 4288847247
-0.16124821 0.054986678 0.70999998 4287797389
-0.15989646 0.054984774 0.70999998 4286942080
-0.17261288 0.059861653 0.773 4286610291
-0.17069852 0.059704721 0.77100003 4285952105
-0.16923089 0.059702676 0.77100003 4285949011
-0.16776331 0.059700653 0.77100003 4286014805
-0.10379033 0.065490343 0.847 4288059284
-0.10218213 0.06548886 0.847 4284574820
-0.10057401 0.065487392 0.847 4278190080
-0.098965958 0.065485939 0.847 4278190080
-0.32414472 0.067945637 0.85399997 4292531655
-0.32251826 0.067943707 0.85399997 4278190080
-0.31976447 0.067703098 0.85100001 4278190080
-0.31814343 0.067701139 0.85100001 4283190082
-0.31763816 0.067937806 0.85399997 4288912753
-0.31601131 0.067935809 0.85399997 4290952080
-0.31438434 0.06793379 0.85399997 4290821000
-0.31165859 0.067693122 0.85100001 4291347345
-0.3100372 0.067691065 0.85100001 4287728030
-0.30950296 0.067927621 0.85399997 4278255630
-0.30787566 0.06792552 0.85399997 4280878355
-0.30624828 0.067923419 0.85399997 4290155168
-0.30462086 0.067921288 0.85399997 4290815424
-0.30192903 0.06768056 0.85100001 4293907696
-0.30030724 0.067678422 0.85100001 4290949850
-0.29868534 0.067676261 0.85100001 4289305281
-0.29811063 0.067912646 0.85399997 4288650397
-0.29648295 0.067910448 0.85399997 4288913826
-0.29381943 0.06766969 0.85100001 4287139216
-0.29219738 0.067667469 0.85100001 4278520076
-0.29057527 0.067665249 0.85100001 4278190080
-0.28895316 0.067663014 0.85100001 4281020717
-0.28733099 0.067660756 0.85100001 4286405271
-0.28570881 0.067658499 0.85100001 4294960895
-0.24227186 0.066805087 0.84100002 4292465360
-0.19974656 0.055443846 0.69800001 4291610051
-0.19841619 0.055441853 0.69800001 4291806916
-0.19680347 0.055360436 0.69700003 4290885814
-0.19547512 0.055358458 0.69700003 4290753447
-0.19414669 0.055356469 0.69700003 4290621861
-0.1928184 0.055354491 0.69700003 4290491045
-0.192589 0.055670153 0.70099998 4290491045
-0.20101358 0.061055101 0.76899999 4290291365
-0.19902951 0.060894139 0.76700002 4290357158
-0.19756819 0.060891967 0.76700002 4290357408
-0.19610697 0.060889803 0.76700002 4290488995
-0.19439198 0.060808267 0.76599997 4290357919
-0.17706493 0.055805076 0.70300001 4289963418
-0.17572579 0.055803102 0.70300001 4289832100
-0.17438668 0.055801127 0.70300001 4289832100
-0.17304765 0.055799164 0.70300001 4289635234
-0.17170866 0.055797201 0.70300001 4288977304
-0.17036973 0.055795241 0.70300001 4288647817
-0.16903085 0.055793285 0.70300001 4288450695
-0.1700774 0.056584962 0.713 4288516238
-0.16871959 0.05658298 0.713 4288450445
-0.16689239 0.056422308 0.71100003 4287595147
-0.16553852 0.056420352 0.71100003 4287463561
-0.17803992 0.061179444 0.77100003 4286676586
-0.17657194 0.061177343 0.77100003 4286413158
-0.17464976 0.06101656 0.76899999 4286083934
-0.17318571 0.061014466 0.76899999 4285491541
-0.17216833 0.061171077 0.77100003 4285425246
-0.17025779 0.06101032 0.76899999 4285359452
-0.16879393 0.061008252 0.76899999 4286146395
-0.16733015 0.0610062 0.76899999 4286606946
-0.16737628 0.061559461 0.77600002 4286606959
-0.16632687 0.06171605 0.778 4287133303
-0.16526991 0.061872646 0.77999997 4286806389
-0.10354677 0.066939041 0.84500003 4288715931
-0.10194235 0.066937536 0.84500003 4285889662
-0.10033799 0.066936053 0.84500003 4278190080
-0.098733708 0.066934571 0.84500003 4278190080
-0.32300803 0.069325134 0.85100001 4290887859
-0.32138726 0.069323212 0.85100001 4278190080
-0.3197664 0.06932126 0.85100001 4280811520
-0.31814539 0.069319293 0.85100001 4286597699
-0.31652433 0.069317311 0.85100001 4290485914
-0.3149032 0.069315314 0.85100001 4290485914
-0.31328198 0.06931328 0.85100001 4290158732
-0.31166062 0.069311231 0.85100001 4290290318
-0.31003922 0.069309175 0.85100001 4287398549
-0.30841777 0.069307104 0.85100001 4280029733
-0.30679625 0.069304995 0.85100001 4281665039
-0.30517459 0.069302887 0.85100001 4289362820
-0.30355293 0.069300763 0.85100001 4289897120
-0.30122155 0.069135748 0.84899998 4290160549
-0.29960361 0.069133602 0.84899998 4290488224
-0.29868752 0.069294281 0.85100001 4291475119
-0.29706562 0.069292091 0.85100001 4292134110
-0.29544368 0.069289893 0.85100001 4292265696
-0.29382166 0.06928768 0.85100001 4290621893
-0.29151288 0.069122612 0.84899998 4278190082
-0.28989464 0.069120377 0.84899998 4278190080
-0.28895545 0.069280945 0.85100001 4282795842
-0.28733322 0.069278665 0.85100001 4290878635
-0.28571108 0.0692764 0.85100001 4294365920
-0.28408891 0.069274105 0.85100001 4291741891
-0.28246668 0.069271803 0.85100001 4289702308
-0.2461971 0.069056503 0.84899998 4292400087
-0.24227427 0.068403386 0.84100002 4292531157
-0.24009895 0.068238303 0.83899999 4292070606
-0.23849982 0.068235882 0.83899999 4292070093
-0.19680548 0.056685023 0.69700003 4291477700
-0.1954771 0.056683008 0.69700003 4290951094
-0.19414869 0.056680996 0.69700003 4290687666
-0.19392695 0.057004265 0.70099998 4290360240
-0.19259098 0.057002231 0.70099998 4290360240
-0.20541152 0.062522843 0.76899999 4289766050
-0.20394622 0.062520631 0.76899999 4289963166
-0.20248097 0.062518425 0.76899999 4289897372
-0.20101579 0.06251622 0.76899999 4289699998
-0.19903165 0.062351424 0.76700002 4289568156
-0.19757034 0.062349226 0.76700002 4289174415
-0.18952054 0.062094465 0.764 4289306003
-0.18806531 0.062092301 0.764 4288712847
-0.18587737 0.061846334 0.76099998 4288647054
-0.18394327 0.061681658 0.759 4288581251
-0.18321908 0.061923314 0.76200002 4288383616
-0.18176788 0.061921168 0.76200002 4287399551
-0.18031676 0.061919034 0.76200002 4286610291
-0.17886569 0.06191691 0.76200002 4286871412
-0.17904447 0.062483549 0.76899999 4286674034
-0.17758019 0.062481407 0.76899999 4286413158
-0.176116 0.062479287 0.76899999 4285886814
-0.17465188 0.06247716 0.76899999 4286147160
-0.17318781 0.062475048 0.76899999 4286015318
-0.17217043 0.062635429 0.77100003 4285884000
-0.17025986 0.062470842 0.76899999 4285884000
-0.16879599 0.062468752 0.76899999 4286147421
-0.1684202 0.062872827 0.77399999 4286476643
-0.16737835 0.063033201 0.77600002 4286869360
-0.16632895 0.063193575 0.778 4287329911
-0.16527201 0.063353933 0.77999997 4287067506
-0.16378756 0.063351855 0.77999997 4287725693
-0.10330322 0.068380229 0.84299999 4289110950
-0.10146128 0.068216473 0.84100002 4286808193
-0.099864513 0.068214968 0.84100002 4278190080
-0.098267801 0.068213478 0.84100002 4278190080
-0.075920798 0.068194814 0.84100002 4280690214
-0.074325055 0.068193644 0.84100002 4280558628
-0.072729349 0.068192482 0.84100002 4280821548
-0.07113371 0.06819135 0.84100002 4280887341
-0.069538124 0.068190239 0.84100002 4280623388
-0.06794259 0.068189152 0.84100002 4278190080
-0.066347115 0.068188079 0.84100002 4285354296
-0.32386756 0.070778504 0.84899998 4291872709
-0.32225075 0.070776589 0.84899998 4290559889
-0.32063383 0.070774667 0.84899998 4278190592
-0.31901678 0.07077273 0.84899998 4278190080
-0.31739968 0.070770755 0.84899998 4281087286
-0.31093022 0.070762686 0.84899998 4280222208
-0.30931264 0.070760615 0.84899998 4280812560
-0.30769506 0.070758544 0.84899998 4281470234
-0.30607733 0.070756443 0.84899998 4280357399
-0.30445945 0.070754312 0.84899998 4279107589
-0.3028416 0.070752174 0.84899998 4279173120
-0.30051416 0.070583373 0.847 4278452224
-0.29889998 0.070581198 0.847 4285353742
-0.29798773 0.070745677 0.84899998 4294964660
-0.29636964 0.070743479 0.84899998 4294966015
-0.29475152 0.070741273 0.84899998 4294438137
-0.29313332 0.070739038 0.84899998 4289507775
-0.29151517 0.070736803 0.84899998 4278190091
-0.24561962 0.070503622 0.847 4291938764
-0.24227664 0.070001736 0.84100002 4292200655
-0.24067372 0.069999285 0.84100002 4292200655
-0.23850226 0.06983038 0.83899999 4291938501
-0.19708988 0.058092847 0.69800001 4291872707
-0.19575956 0.05809081 0.69800001 4291609542
-0.19498637 0.058255218 0.69999999 4291411906
-0.19392897 0.058336403 0.70099998 4290886594
-0.20634104 0.063819908 0.76700002 4290095265
-0.20487954 0.06381768 0.76700002 4288187268
-0.20341802 0.063815437 0.76700002 4287792764
-0.20195661 0.06381321 0.76700002 4287266420
-0.20049518 0.063810982 0.76700002 4287069305
-0.19903386 0.063808747 0.76700002 4286542961
-0.19757259 0.063806534 0.76700002 4286673765
-0.19585565 0.06372112 0.76599997 4286805352
-0.19439636 0.063718908 0.76599997 4286937705
-0.19293715 0.063716695 0.76599997 4286871912
-0.1880675 0.063543744 0.764 4286936170
-0.18587951 0.063292034 0.76099998 4286739047
-0.18394542 0.063123539 0.759 4287068008
-0.18322124 0.063370869 0.76200002 4287331180
-0.18177003 0.063368693 0.76200002 4286739309
-0.18031888 0.063366532 0.76200002 4286673515
-0.17886782 0.063364387 0.76200002 4286475371
-0.17834814 0.063694842 0.76599997 4286409322
-0.17712051 0.063775837 0.76700002 4286147158
-0.17611815 0.063939981 0.76899999 4286081365
-0.17465399 0.063937835 0.76899999 4286146395
-0.17318991 0.063935682 0.76899999 4286146395
-0.17217255 0.064099826 0.77100003 4286212451
-0.17070481 0.064097703 0.77100003 4287001967
-0.16923714 0.064095587 0.77100003 4287397225
-0.16820471 0.064259715 0.773 4287397225
-0.16694905 0.064340726 0.77399999 4287396473
-0.16633105 0.064671129 0.778 4287922817
-0.16442654 0.064502776 0.77600002 4287857022
-0.16294968 0.064500675 0.77600002 4287725693
-0.16147293 0.064498588 0.77600002 4287200893
-0.10944786 0.069820262 0.84100002 4290227105
-0.10600094 0.069651 0.83899999 4290950576
-0.10440773 0.069649413 0.83899999 4290754746
-0.10256949 0.069481812 0.83700001 4289438886
-0.10098023 0.069480285 0.83700001 4286677377
-0.099153534 0.069312744 0.83499998 4278190080
-0.097568199 0.069311239 0.83499998 4278190080
-0.096212834 0.069475785 0.83700001 4282071351
-0.094623841 0.069474325 0.83700001 4288381542
-0.093034916 0.069472879 0.83700001 4292855466
-0.09144605 0.069471456 0.83700001 4293384654
-0.090071954 0.069636054 0.83899999 4294897893
-0.088479429 0.069634669 0.83899999 4294965748
-0.086886957 0.069633305 0.83899999 4294967295
-0.085294552 0.069631957 0.83899999 4294967295
-0.083702229 0.069630653 0.83899999 4289769133
-0.082109943 0.069629341 0.83899999 4283913303
-0.080517739 0.069628067 0.83899999 4278190081
-0.078925565 0.069626808 0.83899999 4279635727
-0.077333473 0.069625579 0.83899999 4280951587
-0.075741448 0.069624364 0.83899999 4280820773
-0.07414946 0.069623172 0.83899999 4280820773
-0.072557531 0.069622003 0.83899999 4281149486
-0.07096567 0.069620848 0.83899999 4281149486
-0.069208473 0.069453768 0.83700001 4280623138
-0.067620516 0.069452673 0.83700001 4278190080
-0.066190392 0.06961754 0.83899999 4283380240
-0.064598739 0.069616497 0.83899999 4294961607
-0.32310653 0.072222389 0.847 4288912540
-0.32149354 0.072220489 0.847 4288905335
-0.3198804 0.072218552 0.847 4279238656
-0.31826729 0.072216623 0.847 4278190080
-0.31665394 0.072214648 0.847 4279769880
-0.30374441 0.072198175 0.847 4278190099
-0.3021304 0.072196029 0.847 4278190080
-0.29980671 0.072023399 0.84500003 4278190080
-0.29819638 0.072021239 0.84500003 4284830737
-0.29658601 0.072019055 0.84500003 4294967228
-0.29497555 0.072016858 0.84500003 4294967295
-0.29175451 0.072012395 0.84500003 4288392106
-0.29014394 0.072010159 0.84500003 4278190080
-0.2885333 0.072007895 0.84500003 4278321152
-0.23642841 0.071760483 0.84299999 4291478213
-0.2348218 0.071758002 0.84299999 4291215297
-0.2332152 0.071755514 0.84299999 4290558398
-0.20634329 0.065277405 0.76700002 4289964460
-0.20488176 0.065275148 0.76700002 4288122256
-0.20342031 0.065272905 0.76700002 4287660661
-0.20195881 0.065270633 0.76700002 4287265903
-0.20049745 0.065268375 0.76700002 4286610291
-0.19877657 0.065181032 0.76599997 4286412656
-0.19731717 0.065178782 0.76599997 4286674286
-0.1958579 0.065176547 0.76599997 4286871408
-0.19439857 0.065174304 0.76599997 4286937453
-0.19293936 0.065172069 0.76599997 4286871660
-0.19098024 0.06499967 0.764 4286937453
-0.18952496 0.064997457 0.764 4286608745
-0.1880697 0.064995237 0.764 4286673763
-0.18588172 0.064737812 0.76099998 4286345055
-0.18394758 0.064565472 0.759 4286738273
-0.18250206 0.064563282 0.759 4286804322
-0.18153365 0.064731218 0.76099998 4286869602
-0.18008441 0.064729027 0.76099998 4287000931
-0.17886998 0.0648119 0.76200002 4287000430
-0.17788464 0.064979836 0.764 4286803307
-0.17689173 0.065147758 0.76599997 4286343258
-0.17566225 0.06523063 0.76700002 4286343258
-0.17465615 0.065398544 0.76899999 4286211418
-0.17319208 0.065396376 0.76899999 4286606176
-0.17217468 0.06556429 0.77100003 4286869861
-0.17070694 0.065562136 0.77100003 4287264619
-0.16923924 0.065559983 0.77100003 4287527794
-0.16820683 0.065727882 0.773 4287527794
-0.16695118 0.06581077 0.77399999 4287396473
-0.16590559 0.065978698 0.77600002 4287857024
-0.16442865 0.06597656 0.77600002 4287988608
-0.16295178 0.065974437 0.77600002 4287857022
-0.16147502 0.065972328 0.77600002 4287331961
-0.10574985 0.071073376 0.83700001 4290424750
-0.10391153 0.070901945 0.83499998 4290293941
-0.10232597 0.070900366 0.83499998 4289372839
-0.10049918 0.070728987 0.833 4286874242
-0.098917559 0.070727453 0.833 4278190080
-0.097335994 0.070725933 0.833 4278321152
-0.095984422 0.070894249 0.83499998 4282395690
-0.094399184 0.070892759 0.83499998 4289364101
-0.092814036 0.070891291 0.83499998 4294957277
-0.091228947 0.070889868 0.83499998 4294898158
-0.089643925 0.070888452 0.83499998 4294967295
-0.088058971 0.070887044 0.83499998 4294967295
-0.086474076 0.070885673 0.83499998 4294967295
-0.084889248 0.07088431 0.83499998 4294967295
-0.083504006 0.071052767 0.83700001 4290031287
-0.081915513 0.071051456 0.83700001 4284373618
-0.080327071 0.07105016 0.83700001 4278190099
-0.078738689 0.071048893 0.83700001 4279504143
-0.077150367 0.071047634 0.83700001 4280951589
-0.075562097 0.071046412 0.83700001 4280820773
-0.073973887 0.071045198 0.83700001 4280952102
-0.072385736 0.07104402 0.83700001 4281083689
-0.069044225 0.070871957 0.83499998 4280688935
-0.06746003 0.070870847 0.83499998 4278190080
-0.32395452 0.073660582 0.84500003 4294504945
-0.3223455 0.073658705 0.84500003 4287859852
-0.32073635 0.073656805 0.84500003 4283714895
-0.31912705 0.073654883 0.84500003 4278190080
-0.3175177 0.073652931 0.84500003 4282845202
-0.31590825 0.073650971 0.84500003 4292648359
-0.31429863 0.073648967 0.84500003 4294500793
-0.31268904 0.073646963 0.84500003 4294566586
-0.2990993 0.073455878 0.84299999 4284380546
-0.29749277 0.073453702 0.84299999 4287330483
-0.29588619 0.073451512 0.84299999 4294965247
-0.29427955 0.073449291 0.84299999 4294967295
-0.2926729 0.073447064 0.84299999 4290821055
-0.29106617 0.073444821 0.84299999 4288652155
-0.28945944 0.073442578 0.84299999 4278190080
-0.28785264 0.073440306 0.84299999 4278190080
-0.20688359 0.06690897 0.76899999 4290228402
-0.20488404 0.066732682 0.76700002 4288912542
-0.20342252 0.066730388 0.76700002 4288056702
-0.20196112 0.066728115 0.76700002 4288254337
-0.20049968 0.066725828 0.76700002 4287794559
-0.19877884 0.066636555 0.76599997 4287334008
-0.19731945 0.066634282 0.76599997 4286806910
-0.19586012 0.06663201 0.76599997 4286806910
-0.19389327 0.066455781 0.764 4287003510
-0.19243789 0.066453531 0.764 4286806387
-0.19098248 0.066451266 0.764 4286608493
-0.18903103 0.06627506 0.76200002 4286476650
-0.18757959 0.066272832 0.76200002 4286475358
-0.18588392 0.066183612 0.76099998 4286277722
-0.18394978 0.066007458 0.759 4286541151
-0.18250425 0.066005252 0.759 4286541151
-0.18153584 0.066176951 0.76099998 4286738012
-0.18008658 0.066174738 0.76099998 4287001183
-0.1788722 0.066259496 0.76200002 4287066727
-0.17788683 0.066431187 0.764 4287132520
-0.17689392 0.066602878 0.76599997 4287462768
-0.17566445 0.066687621 0.76700002 4287594354
-0.17420411 0.066685423 0.76700002 4287595386
-0.17319424 0.066857107 0.76899999 4287792764
-0.17173024 0.066854924 0.76899999 4287923319
-0.17070912 0.067026623 0.77100003 4287923319
-0.16924144 0.06702444 0.77100003 4287922817
-0.168209 0.067196123 0.773 4287922817
-0.16695333 0.067280881 0.77399999 4287725189
-0.16548015 0.06727872 0.77399999 4287988360
-0.16443078 0.067450404 0.77600002 4287922817
-0.16253392 0.067274414 0.77399999 4288054403
-0.16106094 0.067272276 0.77399999 4287988860
-0.16041277 0.067617804 0.778 4289831064
-0.15893233 0.067615688 0.778 4289700257
-0.10867031 0.072491527 0.83499998 4289436319
-0.10708451 0.072489865 0.83499998 4289502111
-0.10549879 0.072488219 0.83499998 4290817970
-0.10366424 0.072312981 0.833 4290425252
-0.10208245 0.072311379 0.833 4289504150
-0.10050074 0.072309792 0.833 4286940036
-0.098919094 0.072308242 0.833 4278190080
-0.097337522 0.072306708 0.833 4278190080
-0.095985919 0.072478794 0.83499998 4281015065
-0.094400682 0.072477296 0.83499998 4288835436
-0.092815503 0.072475806 0.83499998 4294957783
-0.091011874 0.072300762 0.833 4294963187
-0.08943063 0.072299324 0.833 4294967295
-0.087849438 0.072297901 0.833 4294967295
-0.086268328 0.072296515 0.833 4294967295
-0.084687263 0.072295144 0.833 4294967295
-0.083106287 0.072293796 0.833 4290688953
-0.081721082 0.072466046 0.83499998 4285555845
-0.080136411 0.072464727 0.83499998 4278911008
-0.3215844 0.075087428 0.84299999 4285425250
-0.31997913 0.075085536 0.84299999 4280885260
-0.31837365 0.075083606 0.84299999 4278452224
-0.31676811 0.075081654 0.84299999 4286257700
-0.29999447 0.074882925 0.84100002 4287726483
-0.29839182 0.074880764 0.84100002 4289437101
-0.29678917 0.074878581 0.84100002 4293513173
-0.29448441 0.074698307 0.83899999 4294964989
-0.29288545 0.074696101 0.83899999 4294967039
-0.29128641 0.074693874 0.83899999 4289439402
-0.28968734 0.074691631 0.83899999 4285755986
-0.28877494 0.074867405 0.84100002 4278190080
-0.28717196 0.074865133 0.84100002 4278386688
-0.28556904 0.074862853 0.84100002 4293186005
-0.20780946 0.068194866 0.76700002 4290687670
-0.20634787 0.068192557 0.76700002 4290096562
-0.20488633 0.068190247 0.76700002 4288912288
-0.20342483 0.068187937 0.76700002 4288779659
-0.20196341 0.068185627 0.76700002 4288713866
-0.20024058 0.068094425 0.76599997 4288647821
-0.19878112 0.068092115 0.76599997 4287924098
-0.19732174 0.06808982 0.76599997 4287331709
-0.19535103 0.067909755 0.764 4287265916
-0.19389553 0.067907467 0.764 4287003760
-0.19244014 0.06790518 0.764 4286740844
-0.19048481 0.067725159 0.76200002 4286542448
-0.1890333 0.067722879 0.76200002 4286542448
-0.18758184 0.067720614 0.76200002 4286606696
-0.18613045 0.067718342 0.76200002 4286869611
-0.18443675 0.067627221 0.76099998 4286935920
-0.18298739 0.067624971 0.76099998 4286870127
-0.18177666 0.067711592 0.76200002 4287000430
-0.18032548 0.067709342 0.76200002 4287198065
-0.1788744 0.067707106 0.76200002 4287263858
-0.17788903 0.067882575 0.764 4287460980
-0.17643428 0.067880347 0.764 4287790715
-0.17543763 0.068055823 0.76599997 4287856509
-0.17420632 0.068142444 0.76700002 4287727741
-0.17274603 0.068140224 0.76700002 4287924864
-0.17173243 0.068315685 0.76899999 4287924864
-0.17071129 0.068491139 0.77100003 4287661692
-0.1692436 0.068488941 0.77100003 4287988610
-0.16821116 0.068664394 0.773 4287922817
-0.1669555 0.068751015 0.77399999 4287725441
-0.1654823 0.068748832 0.77399999 4287988356
-0.16443297 0.068924293 0.77600002 4288054403
-0.16253608 0.068744481 0.77399999 4287922817
-0.16106309 0.06874232 0.77399999 4287989112
-0.16000254 0.068917789 0.77600002 4289304972
-0.15852588 0.068915643 0.77600002 4289568160
-0.1084117 0.073898882 0.833 4289107607
-0.10657317 0.073719777 0.83099997 4289501851
-0.10499504 0.073718123 0.83099997 4290357160
-0.10341696 0.073716477 0.83099997 4290096299
-0.10183895 0.073714867 0.83099997 4289438368
-0.100261 0.073713265 0.83099997 4287070852
-0.098683149 0.073711701 0.83099997 4278190080
-0.097105332 0.073710129 0.83099997 4278190080
-0.095757507 0.073885992 0.833 4279304448
-0.094176054 0.073884472 0.833 4288831831
-0.092594653 0.073882982 0.833 4294955206
-0.090794809 0.073704123 0.83099997 4294766316
-0.089217328 0.073702663 0.83099997 4294964723
-0.08763992 0.07370124 0.83099997 4294966780
-0.086062588 0.073699825 0.83099997 4294965753
-0.0844853 0.073698439 0.83099997 4294898672
-0.082908079 0.073697075 0.83099997 4290424748
-0.067139089 0.073684633 0.83099997 4278190080
-0.065562502 0.073683515 0.83099997 4279894016
-0.063985966 0.07368242 0.83099997 4294035402
-0.062409464 0.073681347 0.83099997 4294899955
-0.30088192 0.076302409 0.83899999 4294961919
-0.29928315 0.076300256 0.83899999 4293846763
-0.29768437 0.07629808 0.83899999 4293386212
-0.29608554 0.076295897 0.83899999 4292595935
-0.29448664 0.076293685 0.83899999 4292069591
-0.29288763 0.076291464 0.83899999 4291019449
-0.29128864 0.076289222 0.83899999 4284111184
-0.2896896 0.076286972 0.83899999 4278190112
-0.2880905 0.076284684 0.83899999 4278190099
-0.28649136 0.076282404 0.83899999 4281798937
-0.2848922 0.076280095 0.83899999 4294958565
-0.20635018 0.069650196 0.76700002 4290096814
-0.20488864 0.069647856 0.76700002 4289241505
-0.20342714 0.069645524 0.76700002 4289307039
-0.20196573 0.069643199 0.76700002 4289307039
-0.20024291 0.069550075 0.76599997 4289043862
-0.19878346 0.069547743 0.76599997 4289109655
-0.19732404 0.069545411 0.76599997 4288910996
-0.19535333 0.069361523 0.764 4288647567
-0.19389786 0.069359206 0.764 4288449663
-0.19244242 0.069356889 0.764 4288449663
-0.1904871 0.069173045 0.76200002 4288580749
-0.18903556 0.069170736 0.76200002 4288646543
-0.18758412 0.069168448 0.76200002 4288711565
-0.18613273 0.069166154 0.76200002 4288645772
-0.18443902 0.069073103 0.76099998 4288711052
-0.18298966 0.069070831 0.76099998 4288645259
-0.18177889 0.069159321 0.76200002 4288514956
-0.18032773 0.069157049 0.76200002 4288646543
-0.17887665 0.069154792 0.76200002 4288645770
-0.17789127 0.069334023 0.764 4288645770
-0.17643651 0.06933178 0.764 4288318856
-0.17543986 0.069511004 0.76599997 4288318856
-0.17420855 0.069599517 0.76700002 4287924864
-0.17274824 0.069597267 0.76700002 4287924864
-0.17173468 0.069776505 0.76899999 4287858305
-0.17071353 0.069955736 0.77100003 4287792512
-0.16924581 0.069953494 0.77100003 4287922563
-0.16821338 0.070132717 0.773 4288054405
-0.16695772 0.07022123 0.77399999 4288054403
-0.16548449 0.07021901 0.77399999 4288120196
-0.16443515 0.070398249 0.77600002 4288120196
-0.16295828 0.070396051 0.77600002 4287922817
-0.16148144 0.070393853 0.77600002 4287857524
-0.16000472 0.07039167 0.77600002 4288383868
-0.15811945 0.070208065 0.77399999 4289237912
-0.1564443 0.070115209 0.773 4290093220
-0.15497348 0.07011307 0.773 4289961882
-0.1081531 0.075298727 0.83099997 4289107355
-0.10657487 0.07529702 0.83099997 4289239193
-0.10499669 0.075295337 0.83099997 4289699744
-0.1034186 0.075293683 0.83099997 4289438116
-0.10184056 0.075292043 0.83099997 4289438116
-0.1000213 0.075109214 0.829 4287334280
-0.098447219 0.075107634 0.829 4278190080
-0.096873179 0.075106047 0.829 4278190080
-0.095529139 0.075285695 0.83099997 4278190080
-0.090577766 0.075099975 0.829 4288048232
-0.089004047 0.075098492 0.829 4287127130
-0.087430425 0.075097054 0.829 4284630114
-0.085856862 0.075095624 0.829 4281537844
-0.084283352 0.075094216 0.829 4281074185
-0.066978656 0.075080268 0.829 4278190080
-0.065405831 0.075079136 0.829 4278190080
-0.06383305 0.075078011 0.829 4289571499
-0.062260326 0.07507693 0.829 4294963936
-0.29857191 0.077710003 0.83700001 4291806916
-0.29697689 0.07770782 0.83700001 4290885814
-0.29538196 0.077705637 0.83700001 4290031007
-0.29378685 0.077703409 0.83700001 4289175699
-0.29149354 0.07751552 0.83499998 4285108102
-0.28990215 0.077513278 0.83499998 4280963144
-0.28831077 0.077511013 0.83499998 4278190080
-0.28740609 0.077694401 0.83700001 4278191616
-0.20689058 0.071293302 0.76899999 4289965744
-0.20489101 0.071105517 0.76700002 4289373606
-0.20342949 0.071103163 0.76700002 4289306787
-0.20196807 0.071100809 0.76700002 4289174945
-0.20024522 0.071005754 0.76599997 4288977815
-0.1987858 0.0710034 0.76599997 4289043608
-0.19732639 0.071001045 0.76599997 4289174935
-0.19535565 0.070813328 0.764 4288977300
-0.19390015 0.070810989 0.764 4288646795
-0.19194096 0.070623301 0.76200002 4288778124
-0.1904894 0.070620976 0.76200002 4288909199
-0.18903789 0.070618644 0.76200002 4288843406
-0.18758641 0.07061632 0.76200002 4288843406
-0.18613502 0.07061401 0.76200002 4288909199
-0.1846837 0.070611708 0.76200002 4289105810
-0.18323241 0.070609398 0.76200002 4289105810
-0.18178119 0.070607103 0.76200002 4288909199
-0.18033001 0.070604794 0.76200002 4288909199
-0.17887893 0.070602521 0.76200002 4288646541
-0.17789358 0.070785537 0.764 4288580747
-0.17643878 0.07078325 0.764 4287925897
-0.17498404 0.070780963 0.764 4287860104
-0.17398368 0.070963986 0.76599997 4287661442
-0.17275049 0.071054354 0.76700002 4287727235
-0.17173694 0.07123737 0.76899999 4288120450
-0.17071576 0.071420372 0.77100003 4288054401
-0.16924804 0.071418107 0.77100003 4287792258
-0.16821565 0.071601115 0.773 4287792258
-0.16695996 0.071691491 0.77399999 4288054403
-0.16591433 0.071874492 0.77600002 4288185990
-0.16443737 0.071872249 0.77600002 4288316556
-0.16296047 0.071870022 0.77600002 4288119176
-0.16148366 0.071867794 0.77600002 4287922554
-0.16000691 0.071865581 0.77600002 4288448898
-0.15812166 0.071678177 0.77399999 4288909197
-0.15644647 0.071583383 0.773 4289961628
-0.15497564 0.071581215 0.773 4289764767
-0.16343404 0.076209001 0.82300001 4289764767
-0.16186823 0.076206714 0.82300001 4289896367
-0.10946905 0.076692775 0.829 4288647317
-0.10789452 0.076691046 0.829 4288647317
-0.10632007 0.076689318 0.829 4288712597
-0.10474566 0.076687619 0.829 4289304990
-0.10317135 0.07668595 0.829 4289174945
-0.10159709 0.076684289 0.829 4289503909
-0.099781618 0.076497644 0.82700002 4287663493
-0.098211311 0.076496042 0.82700002 4278190080
-0.096641064 0.076494455 0.82700002 4278190080
-0.068387322 0.076469526 0.82700002 4278192133
-0.066818208 0.076468356 0.82700002 4278190080
-0.065249152 0.076467216 0.82700002 4278190080
-0.063680157 0.076466091 0.82700002 4289573037
-0.062111206 0.076464996 0.82700002 4293057238
-0.30740598 0.079124838 0.83499998 4279831808
-0.30581528 0.079122774 0.83499998 4279634176
-0.30422449 0.079120703 0.83499998 4280549376
-0.30263364 0.079118609 0.83499998 4280549376
-0.30032167 0.07892698 0.833 4282449920
-0.29873449 0.07892485 0.833 4281532416
-0.29786068 0.079112172 0.83499998 4283247104
-0.29555988 0.078920506 0.833 4281141504
-0.29326671 0.078728832 0.83099997 4283449856
-0.29168308 0.078726627 0.83099997 4284107776
-0.29009941 0.078724399 0.83099997 4286415960
-0.28851563 0.078722157 0.83099997 4286679133
-0.28624132 0.078530446 0.829 4289835650
-0.28466129 0.078528166 0.829 4290559372
-0.28376412 0.078715324 0.83099997 4292530121
-0.28285944 0.078902461 0.833 4294438119
-0.28127173 0.078900136 0.833 4292335557
-0.20743108 0.07294406 0.77100003 4289964712
-0.20542763 0.072752453 0.76899999 4289767334
-0.20396233 0.072750054 0.76899999 4289306283
-0.20197043 0.072558455 0.76700002 4289043110
-0.20050901 0.072556078 0.76700002 4288977302
-0.19878814 0.072459109 0.76599997 4289043095
-0.19732875 0.07245674 0.76599997 4289307287
-0.19535801 0.072265185 0.764 4289504409
-0.19390249 0.072262824 0.764 4289437590
-0.19194332 0.072071306 0.76200002 4288977039
-0.19049174 0.072068959 0.76200002 4289107859
-0.1890402 0.072066605 0.76200002 4289173652
-0.18758875 0.072064266 0.76200002 4289172116
-0.18613735 0.072061919 0.76200002 4289172116
-0.18468601 0.072059579 0.76200002 4289040528
-0.18323471 0.072057255 0.76200002 4288909199
-0.18178348 0.072054923 0.76200002 4289041552
-0.18033233 0.072052605 0.76200002 4289041552
-0.1793507 0.072239399 0.764 4288450445
-0.17789586 0.072237089 0.764 4288318858
-0.17644107 0.072234772 0.764 4287989896
-0.17498635 0.072232477 0.764 4287989896
-0.17398596 0.072419256 0.76599997 4288054405
-0.17252754 0.072416961 0.76599997 4288120198
-0.17106919 0.072414666 0.76599997 4288185990
-0.1702752 0.072695993 0.76899999 4288449161
-0.16925032 0.072882786 0.77100003 4287858820
-0.1684355 0.073164083 0.77399999 4287529856
-0.16739364 0.073350854 0.77600002 4287727237
-0.16591661 0.073348582 0.77600002 4288121995
-0.16486341 0.073535345 0.778 4288317839
-0.16296272 0.073344059 0.77600002 4287857544
-0.16148588 0.073341802 0.77600002 4287594886
-0.16000912 0.073339559 0.77600002 4287989644
-0.15853244 0.073337346 0.77600002 4288647047
-0.15887734 0.074185662 0.78500003 4289370513
-0.15738368 0.074183434 0.78500003 4289369759
-0.16264202 0.077394165 0.81900001 4289567395
-0.1610838 0.077391855 0.81900001 4289633701
-0.15952565 0.077389546 0.81900001 4290028459
-0.099541932 0.077878557 0.82499999 4287533186
-0.097975388 0.077876925 0.82499999 4278190080
-0.096408918 0.077875309 0.82499999 4278190080
-0.069788501 0.077851325 0.82499999 4281409090
-0.068223119 0.077850126 0.82499999 4281803080
-0.066657774 0.077848934 0.82499999 4284829302
-0.065092497 0.077847771 0.82499999 4284175724
-0.063527271 0.077846646 0.82499999 4290491851
-0.31143177 0.08052548 0.833 4278255628
-0.30984521 0.080523498 0.833 4278779908
-0.3082585 0.080521479 0.833 4279238667
-0.30349791 0.08051531 0.833 4281075228
-0.30191088 0.080513202 0.833 4281601572
-0.29960266 0.080317773 0.83099997 4282260508
-0.29801932 0.080315635 0.83099997 4283971126
-0.29643598 0.080313481 0.83099997 4285224257
-0.29414281 0.080118015 0.829 4286671960
-0.29256311 0.080115832 0.829 4287725926
-0.29098326 0.080113605 0.829 4288580979
-0.28940347 0.080111377 0.829 4289370513
-0.28782353 0.080109119 0.829 4290620580
-0.28624356 0.080106854 0.829 4291934907
-0.28466359 0.080104567 0.829 4294040283
-0.28308353 0.080102272 0.829 4294438639
-0.28218257 0.080293201 0.83099997 4293714659
-0.20543002 0.074213997 0.76899999 4289636261
-0.20396474 0.07421159 0.76899999 4289108900
-0.20197284 0.074016191 0.76700002 4289174949
-0.2005114 0.07401377 0.76700002 4289569189
-0.19879055 0.073914871 0.76599997 4289503396
-0.1973311 0.073912464 0.76599997 4289307296
-0.19536038 0.073717102 0.764 4289241503
-0.19390489 0.073714711 0.764 4289175197
-0.19244947 0.073712319 0.764 4289109403
-0.19049408 0.073516987 0.76200002 4288977050
-0.18904258 0.073514625 0.76200002 4288911257
-0.18734489 0.073415771 0.76099998 4288976016
-0.1858954 0.073413409 0.76099998 4288976016
-0.18468836 0.073507525 0.76200002 4288713101
-0.18323708 0.073505171 0.76200002 4288778894
-0.18178584 0.073502816 0.76200002 4288713362
-0.18033464 0.073500469 0.76200002 4288647569
-0.17888357 0.07349813 0.76200002 4288450445
-0.17743249 0.073495798 0.76200002 4288318858
-0.17644338 0.073686361 0.764 4287922817
-0.17498866 0.073684029 0.764 4288185990
-0.17353396 0.073681705 0.764 4288513671
-0.17207938 0.073679395 0.764 4288579464
-0.17062482 0.073677085 0.764 4288383114
-0.17027749 0.074156955 0.76899999 4288383114
-0.1692526 0.074347503 0.77100003 4287860104
-0.16843779 0.074634485 0.77399999 4287794311
-0.16739593 0.074825034 0.77600002 4287663241
-0.16591889 0.074822731 0.77600002 4287597448
-0.1648657 0.075013265 0.778 4287794057
-0.16296498 0.074818149 0.77600002 4287465348
-0.16148815 0.074815877 0.77600002 4287135100
-0.16083618 0.075199246 0.77999997 4287858566
-0.16037335 0.075679012 0.78500003 4288647047
-0.15887961 0.075676754 0.78500003 4289304720
-0.16340066 0.078566507 0.815 4289369246
-0.16184999 0.078564182 0.815 4289764004
-0.16029936 0.07856185 0.815 4289567908
-0.15874882 0.078559548 0.815 4289962666
-0.15719835 0.078557245 0.815 4290094502
-0.1008651 0.079253614 0.82300001 4289176480
-0.099060938 0.079059348 0.82099998 4287403667
-0.097501986 0.079057716 0.82099998 4278190080
-0.095943078 0.079056092 0.82099998 4278190080
-0.09461417 0.079247065 0.82300001 4278190080
-0.069620535 0.079224415 0.82300001 4288118926
-0.063220382 0.079027176 0.82099998 4291477438
-0.06166276 0.079026051 0.82099998 4293582560
-0.06010519 0.079024956 0.82099998 4294967295
-0.32018036 0.081923857 0.83099997 4290492853
-0.31859827 0.081922032 0.83099997 4286616224
-0.31385121 0.081916392 0.83099997 4287732114
-0.31226861 0.081914447 0.83099997 4289239454
-0.31068596 0.081912495 0.83099997 4289634212
-0.30910319 0.081910498 0.83099997 4291607725
-0.2988838 0.081701003 0.829 4294899442
-0.29730424 0.081698865 0.829 4294967034
-0.29572469 0.081696704 0.829 4294967292
-0.29414502 0.081694521 0.829 4294967295
-0.29256523 0.081692301 0.829 4294967295
-0.29098549 0.08169008 0.829 4294967295
-0.28870749 0.081490785 0.82700002 4294966783
-0.28713143 0.081488527 0.82700002 4294966783
-0.28555527 0.081486247 0.82700002 4294373361
-0.28397912 0.081483953 0.82700002 4294307312
-0.2824029 0.081481643 0.82700002 4294175462
-0.28150579 0.081676371 0.829 4291938501
-0.2799257 0.081674024 0.829 4290625193
-0.27834561 0.08167167 0.829 4290098849
-0.27676544 0.081669293 0.829 4290952389
-0.26570377 0.081652261 0.829 4292991706
-0.2641235 0.08164978 0.829 4292925659
-0.20596674 0.075872429 0.77100003 4290227617
-0.20396714 0.075673163 0.76899999 4290226601
-0.20250191 0.075670734 0.76899999 4289897893
-0.20051381 0.075471498 0.76700002 4289831596
-0.19879295 0.075370677 0.76599997 4289765802
-0.19733354 0.075368248 0.76599997 4289307039
-0.19536279 0.075169057 0.764 4289175197
-0.19390728 0.075166643 0.764 4289175197
-0.19245183 0.075164229 0.764 4289043610
-0.19049647 0.074965075 0.76200002 4288976539
-0.18904494 0.074962676 0.76200002 4288976539
-0.18734729 0.074861899 0.76099998 4289042066
-0.18589777 0.074859515 0.76099998 4288976016
-0.18469071 0.074955493 0.76200002 4288779144
-0.18323943 0.074953116 0.76200002 4288976522
-0.18178818 0.07495074 0.76200002 4288845462
-0.180337 0.074948378 0.76200002 4288450960
-0.17888588 0.074946001 0.76200002 4288384911
-0.17743485 0.074943647 0.76200002 4288187788
-0.17644574 0.075137988 0.764 4288318345
-0.174991 0.075135641 0.764 4288318345
-0.17353632 0.075133286 0.764 4288449161
-0.17208171 0.075130947 0.764 4288580747
-0.17062713 0.075128615 0.764 4288187536
-0.16983695 0.075421289 0.76700002 4287990157
-0.16925494 0.07581228 0.77100003 4287794311
-0.16931061 0.07649824 0.778 4287860104
-0.16782968 0.076495893 0.778 4287662726
-0.16634881 0.076493561 0.778 4287596932
-0.16529183 0.076687865 0.77999997 4287924614
-0.16380729 0.076685548 0.77999997 4287924614
-0.16232285 0.076683238 0.77999997 4287597186
-0.16083845 0.076680936 0.77999997 4287465344
-0.15935412 0.076678641 0.77999997 4287924098
-0.16373943 0.079527169 0.80900002 4289239958
-0.16220005 0.0795248 0.80900002 4289699492
-0.16145512 0.07991565 0.81300002 4290028457
-0.15990829 0.079913303 0.81300002 4289832100
-0.15836157 0.079910979 0.81300002 4289766050
-0.1568149 0.079908662 0.81300002 4289962664
-0.15526831 0.079906359 0.81300002 4290554801
-0.15409994 0.080100633 0.815 4289897893
-0.10062167 0.080619492 0.82099998 4289044633
-0.098821282 0.080421411 0.81900001 4287798173
-0.0972661 0.080419764 0.81900001 4282797905
-0.095710978 0.080418117 0.81900001 4282798157
-0.094385855 0.080612883 0.82099998 4283127121
-0.078800797 0.080597885 0.82099998 4293384413
-0.07724262 0.080596514 0.82099998 4294043100
-0.07568451 0.080595173 0.82099998 4294964202
-0.061513666 0.080387771 0.81900001 4294967295
-0.059959862 0.080386668 0.81900001 4294967295
-0.32098979 0.083305076 0.829 4293717995
-0.31941161 0.08330328 0.829 4290888896
-0.31783327 0.083301455 0.829 4290031539
-0.31625491 0.083299614 0.829 4289899953
-0.31467637 0.083297729 0.829 4289899953
-0.30919248 0.083091006 0.82700002 4293517802
-0.30761734 0.083089024 0.82700002 4293912295
-0.30604216 0.083087027 0.82700002 4294175210
-0.3044669 0.083084993 0.82700002 4294965495
-0.30289146 0.083082937 0.82700002 4294964980
-0.30131599 0.083080858 0.82700002 4294966520
-0.29658914 0.08307451 0.82700002 4294967295
-0.2950134 0.083072349 0.82700002 4294967295
-0.2934376 0.083070166 0.82700002 4294967292
-0.29186165 0.083067939 0.82700002 4294966779
-0.29028571 0.083065726 0.82700002 4294966265
-0.28801152 0.082862593 0.82499999 4294637301
-0.28643927 0.082860336 0.82499999 4293123805
-0.28486696 0.082858063 0.82499999 4291874495
-0.28329465 0.082855769 0.82499999 4293124561
-0.28172225 0.082853451 0.82499999 4293124076
-0.28082901 0.083051965 0.82700002 4291084492
-0.27925274 0.083049618 0.82700002 4288783491
-0.27767649 0.083047263 0.82700002 4290494109
-0.27610013 0.083044879 0.82700002 4292135886
-0.20743833 0.077340342 0.77100003 4290358190
-0.2059692 0.077337876 0.77100003 4290555568
-0.20450006 0.07733541 0.77100003 4290554801
-0.20250435 0.077132344 0.76899999 4289962664
-0.20051627 0.076929286 0.76700002 4289765541
-0.19905493 0.076926835 0.76700002 4289633699
-0.19733599 0.076824091 0.76599997 4289568417
-0.19587661 0.07682164 0.76599997 4289437088
-0.19390972 0.076618627 0.764 4289306013
-0.19245428 0.076616205 0.764 4289043097
-0.1904989 0.076413214 0.76200002 4289107357
-0.18904735 0.076410778 0.76200002 4289173150
-0.18734969 0.076308094 0.76099998 4289107859
-0.18590017 0.076305665 0.76099998 4289042066
-0.18445073 0.076303266 0.76099998 4288648843
-0.18300134 0.076300867 0.76099998 4288714636
-0.18179056 0.07639873 0.76200002 4288846488
-0.1803394 0.076396346 0.76200002 4288385937
-0.17888828 0.076393947 0.76200002 4288516753
-0.17743722 0.076391563 0.76200002 4288253581
-0.17644811 0.076589681 0.764 4288187788
-0.17499337 0.076587297 0.764 4288187788
-0.17353867 0.076584928 0.764 4287990409
-0.17208405 0.076582566 0.764 4288121995
-0.17062949 0.076580204 0.764 4287925393
-0.16983932 0.076878555 0.76700002 4287662478
-0.16925728 0.077277124 0.77100003 4287662476
-0.169313 0.077976346 0.778 4287596683
-0.16783203 0.077973977 0.778 4287661444
-0.16635117 0.077971622 0.778 4287924360
-0.16529416 0.078169703 0.77999997 4287794309
-0.16380964 0.078167357 0.77999997 4287860102
-0.16232514 0.078165017 0.77999997 4287663239
-0.16084073 0.078162692 0.77999997 4287202688
-0.16487262 0.080865934 0.80699998 4287792249
-0.16333696 0.080863528 0.80699998 4289239695
-0.1618014 0.080861174 0.80699998 4289634212
-0.16066311 0.081059203 0.80900002 4289831848
-0.1591239 0.081056848 0.80900002 4289832613
-0.1579743 0.081254877 0.81099999 4289766564
-0.15643144 0.081252538 0.81099999 4289634466
-0.15488863 0.081250221 0.81099999 4289897639
-0.15334593 0.081247903 0.81099999 4290160295
-0.15255199 0.081646331 0.815 4290160295
-0.10193358 0.081979573 0.81900001 4288781206
-0.10037824 0.081977852 0.81900001 4288912792
-0.098581642 0.081775963 0.81699997 4287995034
-0.097030222 0.081774279 0.81699997 4285165935
-0.095478892 0.081772633 0.81699997 4286212715
-0.094157547 0.081971176 0.81900001 4286607472
-0.092602529 0.081969567 0.81900001 4286542194
-0.091047578 0.081967965 0.81900001 4287397502
-0.31158897 0.084462933 0.82499999 4294967037
-0.31001788 0.084460996 0.82499999 4294439154
-0.30844671 0.084459059 0.82499999 4294307312
-0.30687538 0.084457085 0.82499999 4293715434
-0.30530402 0.08445508 0.82499999 4293649641
-0.30373257 0.084453054 0.82499999 4293911009
-0.29744586 0.084444717 0.82499999 4290883766
-0.295874 0.084442578 0.82499999 4290226092
-0.29430211 0.084440403 0.82499999 4288253604
-0.29273012 0.084438227 0.82499999 4287858846
-0.29115802 0.084435999 0.82499999 4283645825
-0.28958592 0.084433772 0.82499999 4282790772
-0.28801379 0.084431529 0.82499999 4280623392
-0.28574711 0.084224574 0.82300001 4278190080
-0.28417867 0.084222309 0.82300001 4278386688
-0.28261015 0.08422 0.82300001 4291146161
-0.28104159 0.084217675 0.82300001 4293386716
-0.28015223 0.084419996 0.82499999 4289702308
-0.27857977 0.084417634 0.82499999 4288192901
-0.20744084 0.078805871 0.77100003 4291149504
-0.2059717 0.078803383 0.77100003 4291083455
-0.20450254 0.078800887 0.77100003 4290687668
-0.20250681 0.078593984 0.76899999 4289569443
-0.20104156 0.078591503 0.76899999 4289634464
-0.19905737 0.07838463 0.76700002 4289437342
-0.19759606 0.078382172 0.76700002 4289437601
-0.19587906 0.078277491 0.76599997 4289437601
-0.19441977 0.078275025 0.76599997 4289372062
-0.19245671 0.078068197 0.764 4289306013
-0.19050132 0.077861384 0.76200002 4289371047
-0.18904978 0.07785894 0.76200002 4289371047
-0.18735211 0.077754319 0.76099998 4289305751
-0.18590258 0.077751882 0.76099998 4289239958
-0.18445314 0.077749446 0.76099998 4289108368
-0.18300372 0.077747025 0.76099998 4289174417
-0.18179297 0.077846773 0.76200002 4288977813
-0.18034181 0.077844352 0.76200002 4288714898
-0.17889068 0.077841938 0.76200002 4288845462
-0.1774396 0.077839531 0.76200002 4288582546
-0.17645051 0.078041419 0.764 4288516753
-0.17499575 0.078039013 0.764 4288384911
-0.17354104 0.078036621 0.764 4288318858
-0.17208642 0.078034222 0.764 4288187016
-0.17063186 0.078031845 0.764 4287990157
-0.17117029 0.078948662 0.773 4287924364
-0.16969872 0.07894627 0.773 4287858317
-0.16931537 0.079454511 0.778 4287726987
-0.16783443 0.07945212 0.778 4287858315
-0.16635354 0.079449736 0.778 4288121743
-0.16529652 0.079651587 0.77999997 4287990407
-0.163812 0.079649225 0.77999997 4288056200
-0.16253562 0.079748966 0.78100002 4287531137
-0.16104929 0.079746611 0.78100002 4287070842
-0.16385348 0.081888482 0.80199999 4287922806
-0.16232735 0.081886075 0.80199999 4289567374
-0.16140279 0.08219 0.80500001 4290027423
-0.16026829 0.082391806 0.80699998 4290290852
-0.15912625 0.082593612 0.80900002 4289898143
-0.1575871 0.082591243 0.80900002 4290095265
-0.15604801 0.082588889 0.80900002 4290028968
-0.15450901 0.082586542 0.80900002 4290028968
-0.15334822 0.082788363 0.81099999 4290095015
-0.15180558 0.082786039 0.81099999 4290292651
-0.10168639 0.083330423 0.81699997 4288846997
-0.10013482 0.083328679 0.81699997 4288715411
-0.098342016 0.083122991 0.815 4288584854
-0.096794374 0.083121292 0.815 4288914076
-0.095246807 0.083119616 0.815 4289176484
-0.093929239 0.083321944 0.81699997 4290163379
-0.092377998 0.083320312 0.81699997 4290752696
-0.090826839 0.083318703 0.81699997 4291936969
-0.08927571 0.083317108 0.81699997 4292330699
-0.31396964 0.085827149 0.82300001 4294044646
-0.31240264 0.085825287 0.82300001 4293649120
-0.31083548 0.085823402 0.82300001 4293057240
-0.30926824 0.08582148 0.82300001 4291940047
-0.3077009 0.085819542 0.82300001 4291084994
-0.30613348 0.085817575 0.82300001 4290690739
-0.30456594 0.085815579 0.82300001 4290230188
-0.3029983 0.08581356 0.82300001 4290293414
-0.30143055 0.085811488 0.82300001 4289964449
-0.29986283 0.085809439 0.82300001 4289634464
-0.29756999 0.085598804 0.82099998 4288252811
-0.29600585 0.085596688 0.82099998 4286936442
-0.29515886 0.085803069 0.82300001 4283646536
-0.29359084 0.085800894 0.82300001 4283315774
-0.29202268 0.085798711 0.82300001 4281407521
-0.29045442 0.08579649 0.82300001 4278191122
-0.28888613 0.085794263 0.82300001 4278190080
-0.28731784 0.08579202 0.82300001 4278190080
-0.28505501 0.08558125 0.82099998 4278190080
-0.28349033 0.085578963 0.82099998 4278190080
-0.28192571 0.085576661 0.82099998 4291939786
-0.28104401 0.085782804 0.82300001 4293649135
-0.20744336 0.080271438 0.77100003 4291020233
-0.20597419 0.080268934 0.77100003 4290822597
-0.20450509 0.080266431 0.77100003 4290293941
-0.203036 0.080263913 0.77100003 4289307046
-0.20104407 0.08005318 0.76899999 4289700257
-0.19957894 0.080050699 0.76899999 4289568671
-0.19759853 0.079839997 0.76700002 4289437855
-0.19613726 0.079837494 0.76700002 4289306013
-0.19442223 0.079730913 0.76599997 4289371297
-0.1924592 0.07952027 0.764 4289107868
-0.19100378 0.079517782 0.764 4289041562
-0.18905224 0.079307154 0.76200002 4288975768
-0.18735456 0.079200611 0.76099998 4288779146
-0.18590502 0.079198144 0.76099998 4288647304
-0.18445559 0.079195701 0.76099998 4288384649
-0.18300618 0.079193242 0.76099998 4288516492
-0.18179542 0.07929486 0.76200002 4288647817
-0.18034422 0.079292417 0.76200002 4288516488
-0.17889307 0.079289973 0.76200002 4288254085
-0.17790774 0.079495646 0.764 4288385415
-0.17645292 0.07949321 0.764 4288713614
-0.17499815 0.079490781 0.764 4288516492
-0.17399774 0.079696447 0.76599997 4288450447
-0.17253931 0.079694025 0.76599997 4288252811
-0.17108093 0.079691611 0.76599997 4287989896
-0.17139414 0.080521472 0.77399999 4287989896
-0.16992065 0.080519035 0.77399999 4287529352
-0.16931777 0.080932736 0.778 4287726987
-0.16783682 0.080930315 0.778 4287924364
-0.16635594 0.080927916 0.778 4287924364
-0.16529892 0.081133537 0.77999997 4287661442
-0.16381434 0.08113113 0.77999997 4287858820
-0.16253799 0.081232771 0.78100002 4287727235
-0.16414486 0.082790516 0.796 4287266684
-0.16303867 0.082996108 0.79799998 4288183673
-0.16152012 0.082993694 0.79799998 4289697168
-0.16080369 0.08340729 0.80199999 4290091935
-0.15987347 0.083716884 0.80500001 4290157728
-0.15873525 0.083922461 0.80699998 4289633949
-0.15719989 0.083920076 0.80699998 4290094500
-0.15605037 0.084125675 0.80900002 4290029992
-0.15451135 0.084123306 0.80900002 4290292908
-0.15297242 0.084120952 0.80900002 4290096299
-0.1518079 0.084326565 0.81099999 4290096299
-0.15026531 0.084324218 0.81099999 4289899435
-0.1029871 0.08467555 0.815 4288518298
-0.10143924 0.084673762 0.815 4289110941
-0.099646315 0.08446423 0.81300002 4288979099
-0.098102383 0.084462494 0.81300002 4288847258
-0.096558541 0.084460787 0.81300002 4288913307
