# .PCD v0.7 - Point Cloud Data file format
VERSION 0.7
FIELDS x y z rgba
SIZE 4 4 4 4
TYPE F F F U
COUNT 1 1 1 1
WIDTH 1072
HEIGHT 1
VIEWPOINT 0 0 0 1 0 0 0
POINTS 1072
DATA ascii
-0.15795822 0.05904153 0.56699997 4286467658
-0.15715431 0.059143811 0.56800002 4292254584
-0.15634662 0.059246082 0.56900001 4294960321
-0.15553518 0.059348356 0.56999999 4294967295
-0.15317629 0.062350269 0.59899998 4290620078
-0.14370768 0.066377014 0.63800001 4288186766
-0.14249301 0.066375002 0.63800001 4288187018
-0.14172125 0.066581063 0.63999999 4287989896
-0.14072239 0.066683076 0.64099997 4287399299
-0.13950217 0.06668108 0.64099997 4287136384
-0.138282 0.06667909 0.64099997 4287990157
-0.13748956 0.066885151 0.64300001 4288648087
-0.13647757 0.066987179 0.64399999 4288909971
-0.13285045 0.070921302 0.68199998 4290162607
-0.13155296 0.07091929 0.68199998 4290228400
-0.12678222 0.073400743 0.70599997 4290163888
-0.1254396 0.073398754 0.70599997 4290163375
-0.12444861 0.073604718 0.708 4290623926
-0.1224508 0.074846312 0.72000003 4290690235
-0.12141822 0.075052261 0.722 4290558648
-0.12087692 0.075570054 0.727 4290492088
-0.1201523 0.075983889 0.73100001 4291084481
-0.11876267 0.075981945 0.73100001 4292005061
-0.11769427 0.076187909 0.73299998 4293057749
-0.11630096 0.076185986 0.73299998 4293386716
-0.11459424 0.075976215 0.73100001 4293584095
-0.11320489 0.075974338 0.73100001 4292664538
-0.11181559 0.075972483 0.73100001 4292532952
-0.11321375 0.078878686 0.759 4278190080
-0.11147695 0.078668967 0.75700003 4278190336
-0.11003855 0.078667112 0.75700003 4280365083
-0.10888709 0.078873105 0.759 4280942960
-0.10865655 0.080843806 0.778 4290938981
-0.10717852 0.080841981 0.778 4294958779
-0.10597224 0.081047975 0.77999997 4294967295
-0.10449053 0.081046179 0.77999997 4291083707
-0.10314095 0.081148297 0.78100002 4284448181
-0.10165746 0.081146523 0.78100002 4291816703
-0.10158494 0.082287669 0.792 4294967295
-0.10033345 0.08249373 0.79400003 4294967295
-0.099821188 0.083323136 0.80199999 4292071647
-0.098298088 0.083321415 0.80199999 4278190080
-0.09677504 0.083319701 0.80199999 4278190080
-0.095252082 0.083318017 0.80199999 4294437605
-0.093729168 0.083316348 0.80199999 4294967295
-0.16708778 0.056651309 0.53399998 4291345014
-0.16606985 0.056649644 0.53399998 4294502106
-0.16063331 0.059912916 0.565 4278194450
-0.15983887 0.060017113 0.56599998 4279181602
-0.15876016 0.060015265 0.56599998 4280421396
-0.15796004 0.060119439 0.56699997 4278910976
-0.15715618 0.060223617 0.56800002 4284225536
-0.1563485 0.060327768 0.56900001 4289752129
-0.15553704 0.06043192 0.56999999 4292457610
-0.1520371 0.063486852 0.59899998 4290228398
-0.14430676 0.066745862 0.63 4288782487
-0.14310722 0.066743858 0.63 4288977052
-0.14249504 0.067587338 0.63800001 4289108122
-0.14172326 0.067797169 0.63999999 4288976537
-0.14072441 0.067901075 0.64099997 4288451993
-0.13950418 0.067899056 0.64099997 4288320151
-0.138284 0.067897052 0.64099997 4288122775
-0.13749152 0.068106875 0.64300001 4288517533
-0.13647957 0.068210796 0.64399999 4288845466
-0.13630395 0.068738364 0.64899999 4289174431
-0.13520935 0.070742518 0.66799998 4289965994
-0.13433926 0.070952289 0.67000002 4290228402
-0.1311692 0.072003119 0.68000001 4290162605
-0.12987556 0.0720011 0.68000001 4290228398
-0.12508625 0.074528046 0.704 4290425263
-0.12409903 0.07473778 0.70599997 4290293934
-0.12310428 0.074947514 0.708 4290163375
-0.12228268 0.076107971 0.71899998 4290228148
-0.12108383 0.076211847 0.72000003 4290228148
-0.12004752 0.076421589 0.722 4290228400
-0.11876461 0.077370256 0.73100001 4291148739
-0.1176962 0.077579997 0.73299998 4292925150
-0.11630289 0.07757806 0.73299998 4293648855
-0.11459614 0.077364482 0.73100001 4293846490
-0.11320677 0.077362582 0.73100001 4293057499
-0.11181746 0.077360697 0.73100001 4292136397
-0.11042824 0.07735882 0.73100001 4288918705
-0.11147884 0.080106497 0.75700003 4278190080
-0.1100404 0.080104619 0.75700003 4291549387
-0.10860202 0.080102764 0.75700003 4291412449
-0.10716371 0.080100916 0.75700003 4280491068
-0.10628413 0.080522329 0.76099998 4281211904
-0.10718034 0.082319267 0.778 4286738755
-0.10597405 0.082529046 0.77999997 4291869605
-0.10449231 0.08252722 0.77999997 4294967280
-0.10301065 0.08252541 0.77999997 4294964468
-0.10165922 0.082629442 0.78100002 4287989896
-0.10017579 0.082627676 0.78100002 4291997298
-0.10134612 0.084847614 0.80199999 4294960552
-0.099822931 0.084845856 0.80199999 4292662212
-0.098299801 0.084844097 0.80199999 4278190080
-0.096776754 0.084842369 0.80199999 4278190080
-0.095253766 0.084840678 0.80199999 4294046193
-0.09373083 0.084838986 0.80199999 4294967295
-0.16708946 0.057666745 0.53399998 4283916887
-0.1660715 0.057665065 0.53399998 4293570674
-0.16325185 0.059594687 0.55199999 4280558960
-0.15955831 0.060985237 0.565 4280229413
-0.15876201 0.061091315 0.56599998 4279769112
-0.15796192 0.061197385 0.56699997 4278190080
-0.15715803 0.061303437 0.56800002 4278190080
-0.15607557 0.061301563 0.56800002 4280557083
-0.15553893 0.061515525 0.56999999 4288441611
-0.15472366 0.061621554 0.57099998 4293967967
-0.15363556 0.061619658 0.57099998 4294967279
-0.1511499 0.064731315 0.60000002 4289835180
-0.15000689 0.064729325 0.60000002 4289964462
-0.14310923 0.067941062 0.63 4288715159
-0.13972385 0.069224894 0.64200002 4288189848
-0.13850176 0.06922286 0.64200002 4288057236
-0.13813506 0.069652118 0.64600003 4288451993
-0.13711737 0.069757894 0.64700001 4288714909
-0.13630597 0.069971494 0.64899999 4288846495
-0.1363195 0.07061632 0.65499997 4288978849
-0.13589783 0.071045533 0.65899998 4290031537
-0.13373978 0.071901821 0.667 4290096562
-0.13306645 0.072223164 0.67000002 4290162355
-0.12987758 0.073292919 0.68000001 4290228398
-0.12858401 0.073290892 0.68000001 4290227885
-0.12374946 0.075863294 0.704 4290686389
-0.12275851 0.076076813 0.70599997 4290426034
-0.12176002 0.076290347 0.708 4290228398
-0.12091762 0.077471629 0.71899998 4290162609
-0.11971694 0.077577405 0.72000003 4290425263
-0.11737701 0.078756675 0.73100001 4292794063
-0.11598749 0.078754716 0.73100001 4292925398
-0.11459805 0.078752786 0.73100001 4293714913
-0.11320867 0.078750864 0.73100001 4292598232
-0.11181935 0.078748964 0.73100001 4291940301
-0.1104301 0.078747071 0.73100001 4289703855
-0.11148074 0.081544079 0.75700003 4280811520
-0.10960618 0.081219032 0.75400001 4294957262
-0.10817347 0.081217147 0.75400001 4294967295
-0.10716556 0.081538431 0.75700003 4288650668
-0.10628595 0.081967421 0.76099998 4278199851
-0.10484017 0.081965595 0.76099998 4278197282
-0.10449414 0.084008336 0.77999997 4294959220
-0.10301246 0.084006511 0.77999997 4294967295
-0.101661 0.084112413 0.78100002 4291215032
-0.10043409 0.084326021 0.78299999 4285497789
-0.098946899 0.084324248 0.78299999 4288129252
-0.099824697 0.086368635 0.80199999 4290615951
-0.09830156 0.086366877 0.80199999 4278714368
-0.096778475 0.086365126 0.80199999 4279173120
-0.095255464 0.08636339 0.80199999 4294960868
-0.16607322 0.058680519 0.53399998 4281275136
-0.16403744 0.058677111 0.53399998 4293775276
-0.1584834 0.062057581 0.565 4278194447
-0.15768519 0.062165525 0.56599998 4278788897
-0.15688322 0.062273476 0.56699997 4280225052
-0.15580267 0.062271584 0.56699997 4278190080
-0.15526794 0.062489346 0.56900001 4278779904
-0.1544546 0.06259726 0.56999999 4286538852
-0.1533684 0.062595353 0.56999999 4292067985
-0.14191173 0.069136269 0.63 4289175710
-0.14071229 0.069134235 0.63 4288978587
-0.13950826 0.070335142 0.64099997 4288518550
-0.13828807 0.070333079 0.64099997 4288057245
-0.1381371 0.070879653 0.64600003 4288188831
-0.13733134 0.071097016 0.648 4288846749
-0.13247268 0.073167056 0.667 4290096562
-0.13179369 0.073494077 0.67000002 4290162605
-0.12968862 0.07447511 0.67900002 4290293934
-0.12858602 0.074582748 0.68000001 4290555566
-0.12729253 0.074580722 0.68000001 4290489773
-0.1227605 0.077417895 0.70599997 4290096560
-0.12176201 0.077635206 0.708 4290228402
-0.12007874 0.078289106 0.71399999 4290162609
-0.11905383 0.078506418 0.71600002 4290688690
-0.11583079 0.080033496 0.73000002 4292991704
-0.11444322 0.080031537 0.73000002 4294176235
-0.11305571 0.080029592 0.73000002 4292991704
-0.11166828 0.080027677 0.73000002 4291741893
-0.11028093 0.080025785 0.73000002 4289442228
-0.10889362 0.080023885 0.73000002 4278190081
-0.11074629 0.082433634 0.75199997 4278190080
-0.10931731 0.082431726 0.75199997 4293125089
-0.10788842 0.082429834 0.75199997 4294967293
-0.1067427 0.082647189 0.75400001 4293978851
-0.10628781 0.083412595 0.76099998 4285957838
-0.104842 0.083410732 0.76099998 4278720351
-0.10314635 0.085597284 0.78100002 4291280518
-0.10192316 0.085814655 0.78299999 4294967240
-0.10043588 0.085812829 0.78299999 4293911295
-0.098948665 0.085811056 0.78299999 4288582324
-0.098058179 0.087670542 0.80000001 4278910976
-0.096297532 0.087449618 0.79799998 4278190080
-0.094782084 0.087447874 0.79799998 4293388779
-0.16505705 0.05969429 0.53399998 4282668617
-0.16403912 0.059692565 0.53399998 4289365062
-0.16302124 0.059690844 0.53399998 4294959266
-0.15740851 0.063129909 0.565 4278525750
-0.15660845 0.063239738 0.56599998 4280554785
-0.15552981 0.063237846 0.56599998 4278190080
-0.15499698 0.063459389 0.56800002 4278190080
-0.15445651 0.06368091 0.56999999 4286349691
-0.15363939 0.063790709 0.57099998 4290885019
-0.15308571 0.064012215 0.57300001 4294967277
-0.15225911 0.064121999 0.574 4294967295
-0.15116541 0.064120062 0.574 4294967295
-0.14861983 0.066896603 0.59899998 4289966257
-0.14071433 0.070331492 0.63 4288584604
-0.13807438 0.071439549 0.63999999 4288122777
-0.13140233 0.074543886 0.66799998 4289965485
-0.128399 0.075763084 0.67900002 4290555564
-0.12729456 0.075872615 0.68000001 4290358442
-0.12637167 0.076093711 0.68199998 4289835180
-0.11872325 0.079643369 0.71399999 4291017139
-0.11769459 0.079864472 0.71600002 4291148469
-0.11633342 0.07986249 0.71600002 4290360240
-0.11397485 0.081083477 0.727 4293387747
-0.11259302 0.081081524 0.727 4292925911
-0.11121129 0.081079602 0.727 4291741893
-0.1098296 0.08107768 0.727 4288984770
-0.11098391 0.082971632 0.74400002 4278190863
-0.11001186 0.083304264 0.74699998 4281794560
-0.10859237 0.083302341 0.74699998 4292382861
-0.10717294 0.083300449 0.74699998 4294964930
-0.10617831 0.08363311 0.75 4294963389
-0.10503265 0.083854251 0.75199997 4291545080
-0.10360391 0.083852388 0.75199997 4281215579
-0.1028546 0.084408082 0.75700003 4278190080
-0.10141651 0.084406257 0.75700003 4283852373
-0.10024259 0.084627435 0.759 4289693341
-0.098800845 0.084625661 0.759 4293904093
-0.097359128 0.084623873 0.759 4294967027
-0.097814806 0.088966675 0.79799998 4278190106
-0.096057937 0.088741936 0.796 4278321152
-0.094546273 0.088740177 0.796 4293383120
-0.16404086 0.060708057 0.53399998 4278190080
-0.16302297 0.060706317 0.53399998 4282862650
-0.15633364 0.064202249 0.565 4278983971
-0.1555317 0.064313963 0.56599998 4278190080
-0.15472598 0.06442567 0.56699997 4278190080
-0.15418749 0.064650998 0.56900001 4292073675
-0.15337224 0.064762674 0.56999999 4294767863
-0.15282045 0.064987972 0.57200003 4294967295
-0.15199576 0.065099634 0.57300001 4294967295
-0.15116735 0.065211296 0.574 4294967295
-0.15007366 0.065209344 0.574 4294967295
-0.14898002 0.065207392 0.574 4294967295
-0.14788644 0.065205455 0.574 4294572537
-0.13973844 0.071640275 0.63099998 4288715679
-0.13764498 0.072428748 0.63800001 4288581792
-0.13148373 0.075134255 0.662 4290030505
-0.12729661 0.077164561 0.68000001 4290227621
-0.12600312 0.077162489 0.68000001 4289899951
-0.12507649 0.077387393 0.68199998 4290031537
-0.1176966 0.081224568 0.71600002 4291148205
-0.11633541 0.081222571 0.71600002 4290819004
-0.11504135 0.082239509 0.72500002 4292926165
-0.11397681 0.08246439 0.727 4293452509
-0.11259498 0.082462415 0.727 4292728786
-0.11121321 0.082460456 0.727 4291610305
-0.10983152 0.082458533 0.727 4290494427
-0.10957199 0.084382817 0.74400002 4283520374
-0.10815818 0.084380895 0.74400002 4278190096
-0.10703138 0.084605798 0.74599999 4285622784
-0.10603862 0.084944136 0.74900001 4294767740
-0.1046155 0.084942251 0.74900001 4294044406
-0.10360577 0.08528059 0.75199997 4287004554
-0.10285644 0.085845754 0.75700003 4286020939
-0.10141832 0.085843913 0.75700003 4292797362
-0.10024443 0.086068876 0.759 4293582814
-0.098802641 0.086067058 0.759 4287858566
-0.097360902 0.086065263 0.759 4291673195
-0.096468262 0.089234829 0.787 4289703873
-0.094973601 0.089233071 0.787 4287733349
-0.093716569 0.089458078 0.78899997 4290628498
-0.16302472 0.061721828 0.53399998 4278202741
-0.15525883 0.065274589 0.565 4278190080
-0.15445502 0.06538818 0.56599998 4282787649
-0.15364742 0.065501772 0.56699997 4294964479
-0.15310512 0.06573087 0.56900001 4294967295
-0.15255523 0.065959953 0.57099998 4294967295
-0.15173249 0.066073522 0.57200003 4294967295
-0.15090595 0.066187054 0.57300001 4294967295
-0.15007561 0.066300608 0.574 4294967295
-0.14898197 0.066298634 0.574 4294967295
-0.14788836 0.066296674 0.574 4294967295
-0.14679483 0.066294707 0.574 4294178033
-0.1364326 0.073639147 0.63800001 4289437090
-0.12600519 0.078454487 0.68000001 4289899435
-0.12471177 0.078452423 0.68000001 4290294193
-0.12396289 0.078796469 0.68300003 4290426034
-0.12284344 0.07890977 0.68400002 4290557363
-0.1215426 0.078907721 0.68400002 4290227885
-0.1205642 0.080862679 0.70099998 4290293162
-0.11957144 0.081091337 0.70300001 4290293934
-0.11823477 0.081089295 0.70300001 4290227885
-0.11601245 0.082352027 0.71399999 4291211954
-0.11513686 0.082696028 0.71700001 4292461765
-0.11424995 0.083040044 0.72000003 4292531153
-0.11319491 0.083268709 0.722 4293255133
-0.11182257 0.083266743 0.722 4292467408
-0.11121516 0.083841398 0.727 4291349184
-0.10983347 0.083839446 0.727 4291874254
-0.10786933 0.085563399 0.74199998 4278787900
-0.10645939 0.085561469 0.74199998 4278190080
-0.10533264 0.085790195 0.74400002 4289180839
-0.10391901 0.085788302 0.74400002 4294570220
-0.1033321 0.086478248 0.75 4290557104
-0.10258656 0.087052897 0.755 4286743463
-0.10168813 0.08751224 0.759 4291677938
-0.10024626 0.087510385 0.759 4292600030
-0.098804452 0.087508552 0.759 4286612868
-0.097362697 0.087506741 0.759 4286733855
-0.096470058 0.090729423 0.787 4292463804
-0.09497536 0.09072762 0.787 4290293930
-0.09371832 0.090956412 0.78899997 4292399305
-0.16272116 0.06261988 0.53299999 4284572017
-0.15418406 0.066346921 0.565 4284107171
-0.15337837 0.066462398 0.56599998 4294967295
-0.15256892 0.066577882 0.56699997 4294967295
-0.15229002 0.066928178 0.56999999 4294967295
-0.15146916 0.067043625 0.57099998 4294967295
-0.15090793 0.067276478 0.57300001 4294967295
-0.14981614 0.067274496 0.57300001 4294967295
-0.14898399 0.067389928 0.574 4294308597
-0.14789033 0.067387931 0.574 4294768369
-0.14679679 0.067385964 0.574 4294967294
-0.14595708 0.067501366 0.57499999 4294834175
-0.14486168 0.067499384 0.57499999 4294176246
-0.13600701 0.074617021 0.63599998 4289174683
-0.1347964 0.07461492 0.63599998 4289306017
-0.12916355 0.07776323 0.66299999 4290162605
-0.12809505 0.077878416 0.66399997 4290228402
-0.12721384 0.078110904 0.66600001 4290425782
-0.12613595 0.078226104 0.667 4290360492
-0.1228798 0.078571729 0.67000002 4290293943
-0.12160546 0.07856968 0.67000002 4290294958
-0.12284552 0.080209352 0.68400002 4290163629
-0.12147439 0.081026047 0.69099998 4289636261
-0.11923331 0.082192414 0.70099998 4289965485
-0.11790042 0.082190372 0.70099998 4290096814
-0.1149783 0.083940879 0.71600002 4291938493
-0.11409327 0.084290572 0.71899998 4292859089
-0.11272653 0.084288545 0.71899998 4293714398
-0.11151478 0.084403813 0.72000003 4292729552
-0.11121716 0.085222393 0.727 4290558383
-0.10983541 0.085220419 0.727 4290362539
-0.10979637 0.086273439 0.736 4291349434
-0.10839767 0.08627148 0.736 4290559973
-0.10743517 0.08662118 0.73900002 4288980940
-0.10603089 0.086619243 0.73900002 4284314739
-0.1050514 0.086968951 0.74199998 4281748812
-0.10364154 0.086967036 0.74199998 4290428052
-0.10333398 0.087902784 0.75 4293651909
-0.10218081 0.088135295 0.75199997 4292988908
-0.10142204 0.08871942 0.75700003 4290027966
-0.099983938 0.08871755 0.75700003 4289570679
-0.098545916 0.088715717 0.75700003 4286676044
-0.097364508 0.088948272 0.759 4284046686
-0.16241765 0.063514158 0.53200001 4291413705
-0.16140361 0.063512392 0.53200001 4278874535
-0.15310936 0.067419283 0.565 4294967295
-0.15230176 0.06753663 0.56599998 4294967295
-0.15175763 0.067773312 0.56800002 4294967295
-0.15147114 0.068129286 0.57099998 4294967295
-0.15090993 0.068365932 0.57300001 4294967295
-0.14981812 0.068363927 0.57300001 4294967295
-0.1487264 0.068361938 0.57300001 4291742925
-0.1476347 0.068359941 0.57300001 4292788388
-0.14679877 0.068477243 0.574 4294961870
-0.14570524 0.068475261 0.574 4294967287
-0.14486367 0.068592548 0.57499999 4294967027
-0.1347985 0.075823672 0.63599998 4289174945
-0.13379799 0.07594078 0.63700002 4289306787
-0.12990104 0.07795462 0.65399998 4289898667
-0.12790422 0.079021014 0.66299999 4290226865
-0.12683389 0.079138093 0.66399997 4290424500
-0.12613803 0.079493545 0.667 4290426286
-0.12505639 0.079610623 0.66799998 4289965735
-0.12434161 0.079966068 0.671 4289702574
-0.12288187 0.07984481 0.67000002 4290097332
-0.1216075 0.079842754 0.67000002 4290163892
-0.11872511 0.08316683 0.69800001 4289900203
-0.11773429 0.083403066 0.69999999 4289900203
-0.11640336 0.083401009 0.69999999 4289310632
-0.11556566 0.083756402 0.70300001 4288915874
-0.11377791 0.085418224 0.71700001 4292990674
-0.11241497 0.085416205 0.71700001 4293319640
-0.1110521 0.085414208 0.71700001 4292795086
-0.11014824 0.085769594 0.72000003 4290623660
-0.10877983 0.085767619 0.72000003 4289573287
-0.10839961 0.087669574 0.736 4291873700
-0.10729173 0.087905839 0.73799998 4291939493
-0.1060328 0.088023007 0.73900002 4289178560
-0.10462857 0.08802107 0.73900002 4285164931
-0.10350376 0.088257357 0.741 4286679648
-0.10250919 0.088612765 0.74400002 4292995777
-0.10218269 0.08956369 0.75199997 4294963455
-0.10142393 0.090157285 0.75700003 4292790746
-0.099985808 0.0901554 0.75700003 4289965485
-0.098547757 0.090153538 0.75700003 4286675835
-0.097109765 0.090151697 0.75700003 4283197582
-0.16140538 0.064524166 0.53200001 4294243071
-0.16099431 0.064764939 0.53399998 4288584876
-0.1563835 0.066688582 0.55000001 4284178245
-0.15590012 0.066929176 0.55199999 4278849280
-0.15203466 0.068491638 0.565 4294967295
-0.15122525 0.068610884 0.56599998 4294967295
-0.15041204 0.068730116 0.56699997 4294967295
-0.15064853 0.069334202 0.57200003 4294967295
-0.14955868 0.069332197 0.57200003 4294967295
-0.1487284 0.069451392 0.57300001 4286215284
-0.14763671 0.069449395 0.57300001 4283515136
-0.14680077 0.069568574 0.574 4284962564
-0.14570722 0.06956657 0.574 4290946686
-0.14486569 0.06968575 0.57499999 4294966740
-0.14377031 0.069683738 0.57499999 4294967295
-0.13359006 0.077030346 0.63599998 4289240994
-0.13258772 0.077149354 0.63700002 4289175712
-0.12819366 0.079677634 0.65799999 4289964712
-0.12664498 0.080278829 0.66299999 4290358444
-0.12557277 0.080397785 0.66399997 4290621096
-0.12505847 0.080879994 0.66799998 4290555303
-0.1241584 0.081120051 0.67000002 4289835180
-0.12306736 0.081239022 0.671 4289703337
-0.12179106 0.081236921 0.671 4289768881
-0.12177205 0.082082301 0.67799997 4289768881
-0.12048257 0.082080223 0.67799997 4290096312
-0.11739996 0.084490955 0.69800001 4289899435
-0.1164054 0.084730968 0.69999999 4289703330
-0.1152389 0.084849954 0.70099998 4289637281
-0.11423117 0.085090004 0.70300001 4289768101
-0.11194663 0.086415291 0.71399999 4293254351
-0.11058944 0.086413272 0.71399999 4292991172
-0.10969128 0.086774349 0.71700001 4290886053
-0.10832853 0.086772375 0.71700001 4289376425
-0.10603478 0.089426838 0.73900002 4294832639
-0.10463051 0.089424878 0.73900002 4292003546
-0.10322632 0.089422941 0.73900002 4290167686
-0.10209777 0.089663036 0.741 4288917362
-0.10068988 0.089661129 0.741 4292136136
-0.10142581 0.091595203 0.75700003 4292596687
-0.099987693 0.091593318 0.75700003 4293316571
-0.098549627 0.09159144 0.75700003 4294964735
-0.09711162 0.091589577 0.75700003 4294966523
-0.15997829 0.06577874 0.53399998 4286160834
-0.15407665 0.068098187 0.55299997 4278190080
-0.15096006 0.069564015 0.565 4294967295
-0.15014873 0.069685124 0.56599998 4294967295
-0.14959705 0.069929369 0.56800002 4294967295
-0.14929919 0.070296697 0.57099998 4294965748
-0.14873043 0.070540898 0.57300001 4279372807
-0.14763872 0.070538878 0.57300001 4280287232
-0.14680281 0.07065995 0.574 4280352768
-0.14570925 0.070657931 0.574 4287712000
-0.1448677 0.070778996 0.57499999 4294949990
-0.14377232 0.070776969 0.57499999 4294963680
-0.14292511 0.070898019 0.57599998 4294966249
-0.14182793 0.070896 0.57599998 4294967295
-0.13238166 0.078237042 0.63599998 4288913053
-0.12378989 0.082147323 0.66799998 4290031791
-0.12288605 0.082391158 0.67000002 4289637033
-0.12161165 0.082389042 0.67000002 4289702574
-0.1205169 0.082509913 0.671 4289899953
-0.11924073 0.082507834 0.671 4289899699
-0.11849204 0.082874648 0.67400002 4289899699
-0.11721024 0.082872577 0.67400002 4289833903
-0.11607488 0.085815124 0.69800001 4290030503
-0.11507657 0.086058937 0.69999999 4289964710
-0.11423323 0.086425699 0.70300001 4289505445
-0.11235378 0.087036282 0.708 4292004546
-0.1114783 0.087403052 0.71100003 4292465097
-0.11012679 0.087401025 0.71100003 4292398274
-0.10969329 0.088136554 0.71700001 4291082414
-0.10833051 0.088134557 0.71700001 4289112999
-0.10449085 0.090705842 0.73799998 4294829785
-0.10322827 0.090826817 0.73900002 4291219924
-0.10182411 0.090824887 0.73900002 4288851376
-0.15330148 0.069272928 0.55400002 4278715392
-0.14988546 0.070636384 0.565 4294967295
-0.14907227 0.070759386 0.56599998 4294703094
-0.14825532 0.070882387 0.56699997 4294438848
-0.14764073 0.071628399 0.57300001 4278190080
-0.14680484 0.071751371 0.574 4278190080
-0.14571127 0.071749322 0.574 4281008128
-0.14486973 0.071872279 0.57499999 4283569170
-0.1440244 0.071995229 0.57599998 4289692203
-0.14292714 0.07199318 0.57599998 4294959497
-0.14182995 0.071991138 0.57599998 4294966010
-0.1261743 0.081676982 0.65399998 4290029740
-0.12512106 0.081799738 0.65499997 4290292912
-0.12387495 0.08179763 0.65499997 4290358192
-0.12252133 0.083414659 0.66799998 4290096299
-0.12161376 0.083662286 0.67000002 4289965231
-0.12051901 0.083785035 0.671 4289965231
-0.11924282 0.083782941 0.671 4290030255
-0.11814249 0.083905712 0.67199999 4290030255
-0.11721233 0.084153362 0.67400002 4289702828
-0.11305936 0.087884225 0.704 4290688949
-0.11172105 0.087882176 0.704 4292135606
-0.11132354 0.088629119 0.70999998 4292530108
-0.10966413 0.088377424 0.708 4292069309
-0.10831837 0.088375412 0.708 4290621863
-0.1069727 0.088373423 0.708 4289572523
-0.10392649 0.091608696 0.73400003 4294963806
-0.10253176 0.091606729 0.73400003 4294503935
-0.10182603 0.0922288 0.73900002 4293648889
-0.1579463 0.067806341 0.53399998 4291220704
-0.15146488 0.070449501 0.55500001 4294967295
-0.14907432 0.071835689 0.56599998 4292006094
-0.14799587 0.071833663 0.56599998 4290490527
-0.14738512 0.072591066 0.57200003 4278190080
-0.1468069 0.072842829 0.574 4279241998
-0.14571333 0.072840765 0.574 4278648832
-0.14512374 0.07309249 0.57599998 4278190080
-0.14402644 0.073090434 0.57599998 4283301888
-0.14292921 0.073088385 0.57599998 4293233539
-0.14183199 0.073086321 0.57599998 4294827975
-0.1251232 0.083044626 0.65499997 4289571240
-0.12125285 0.084682055 0.66799998 4290949557
-0.12052113 0.085060216 0.671 4290423213
-0.11924491 0.085058101 0.671 4290030253
-0.11814459 0.085182764 0.67199999 4290030253
-0.11721438 0.085434176 0.67400002 4289637292
-0.1115644 0.089093134 0.70300001 4291412149
-0.11069839 0.089471266 0.70599997 4291938493
-0.10935635 0.089469224 0.70599997 4291740860
-0.10770842 0.089213759 0.704 4290227621
-0.10637031 0.089211747 0.704 4289571753
-0.10392846 0.093003228 0.73400003 4289432713
-0.10253371 0.093001239 0.73400003 4294828490
-0.101828 0.09363281 0.73900002 4294964189
-0.15119395 0.071376123 0.55400002 4294967295
-0.15040925 0.071502976 0.55500001 4294967294
-0.14935167 0.071500979 0.55500001 4294967295
-0.1479979 0.072909966 0.56599998 4287335532
-0.14691952 0.07290794 0.56599998 4278190080
-0.14584115 0.072905898 0.56599998 4278190080
-0.14476281 0.072903857 0.56599998 4278848535
-0.14520767 0.073674634 0.57200003 4278914821
-0.14436994 0.073801383 0.57300001 4278651648
-0.14352842 0.073928095 0.574 4280745984
-0.14293127 0.074183606 0.57599998 4280483840
-0.1413416 0.073923975 0.574 4286535424
-0.14024822 0.073921889 0.574 4293443671
-0.12834872 0.082369953 0.63999999 4289373345
-0.12369008 0.084158711 0.65399998 4289898919
-0.12300758 0.08454261 0.65700001 4289964712
-0.11924703 0.086333327 0.671 4289834157
-0.11849831 0.086717173 0.67400002 4289834157
-0.11721649 0.08671505 0.67400002 4289899435
-0.11627876 0.08697027 0.676 4289833642
-0.11533348 0.087225452 0.67799997 4289899185
-0.11124907 0.090171725 0.70099998 4291412149
-0.10991646 0.090169646 0.70099998 4291872700
-0.10935843 0.090810746 0.70599997 4291346104
-0.10771044 0.090551458 0.704 4289437851
-0.10637232 0.090549432 0.704 4288455587
-0.15547685 0.070093632 0.53600001 4288322981
-0.15474343 0.070222504 0.537 4278206845
-0.15014023 0.072427742 0.55400002 4294967295
-0.14908457 0.072425745 0.55400002 4294967295
-0.14692156 0.073984273 0.56599998 4279500800
-0.14584319 0.073982231 0.56599998 4278255616
-0.14476487 0.073980182 0.56599998 4279504391
-0.14495587 0.074631639 0.57099998 4280163618
-0.14437203 0.074890979 0.57300001 4281084720
-0.14328045 0.0748889 0.57300001 4278914151
-0.14268522 0.07514821 0.57499999 4278190143
-0.14134365 0.075015426 0.574 4279173120
-0.1402503 0.075013354 0.574 4286800223
-0.13964185 0.07527265 0.57599998 4293112714
-0.12611192 0.083712786 0.64099997 4288980384
-0.12263527 0.085530221 0.65499997 4289898919
-0.12194523 0.085919797 0.65799999 4289964460
-0.11721861 0.087996013 0.67400002 4290095785
-0.11628089 0.088254988 0.676 4290292908
-0.11499537 0.088252887 0.676 4290095533
-0.11370991 0.088250779 0.676 4290029740
-0.11077505 0.091112241 0.69800001 4291215799
-0.10944813 0.09111017 0.69800001 4291281592
-0.1537219 0.071241982 0.537 4285098361
-0.15298283 0.07137274 0.53799999 4278196042
-0.1498712 0.073348731 0.55299997 4294967295
-0.14908656 0.073479369 0.55400002 4294967295
-0.14584525 0.075058609 0.56599998 4278190080
-0.14476691 0.075056538 0.56599998 4280033831
-0.14419636 0.075319678 0.56800002 4288318563
-0.14412214 0.075848021 0.57200003 4292924073
-0.14303246 0.075845927 0.57200003 4289374397
-0.14243914 0.076109037 0.574 4278979360
-0.14134575 0.076106928 0.574 4278190080
-0.1402524 0.076104864 0.574 4278190080
-0.13915907 0.076102756 0.574 4283046656
-0.13878739 0.076498412 0.57700002 4290152025
-0.13792704 0.076628886 0.57800001 4293512867
-0.13706294 0.076759361 0.579 4294967260
-0.13619508 0.076889835 0.57999998 4294967295
-0.1350905 0.076887727 0.57999998 4294504693
-0.13375498 0.076753065 0.579 4292533724
-0.13265243 0.076750986 0.579 4290033334
-0.12139139 0.086773068 0.65499997 4290162605
-0.12069567 0.087168328 0.65799999 4290228398
-0.11687292 0.089012116 0.67199999 4289964712
-0.11611098 0.089407332 0.67500001 4290030505
-0.11499746 0.089537673 0.676 4289702824
-0.11371201 0.089535542 0.676 4289637031
-0.11242662 0.089533448 0.676 4289440935
-0.10945019 0.092436641 0.69800001 4291215797
-0.15298475 0.072396055 0.53799999 4279663034
-0.15252434 0.07266324 0.54000002 4278192458
-0.144769 0.076132931 0.56599998 4284901997
-0.14394455 0.076265365 0.56699997 4289237921
-0.14311635 0.076397784 0.56800002 4294830326
-0.14253443 0.076664701 0.56999999 4292600312
-0.14169678 0.076797105 0.57099998 4285099910
-0.14110158 0.077064 0.57300001 4278193753
-0.14025448 0.077196389 0.574 4278190141
-0.13916115 0.077194281 0.574 4278190080
-0.13878949 0.077595644 0.57700002 4281083941
-0.13792916 0.077728003 0.57800001 4290543919
-0.13706505 0.077860355 0.579 4294957190
-0.13619718 0.077992707 0.57999998 4294967286
-0.1350926 0.077990592 0.57999998 4294965483
-0.13375708 0.077854022 0.579 4294178294
-0.13265452 0.077851921 0.579 4292204504
-0.11837424 0.088549122 0.65899998 4289637031
-0.11652721 0.090020664 0.67000002 4289767849
-0.11559706 0.090287223 0.67199999 4289833642
-0.1148295 0.090688147 0.67500001 4289506478
-0.11371414 0.090820372 0.676 4289440685
-0.11242871 0.090818264 0.676 4289571751
-0.15149722 0.073688425 0.54000002 4285302831
-0.14451531 0.077072978 0.565 4287335055
-0.14369278 0.077207297 0.56599998 4291410112
-0.14286651 0.077341609 0.56699997 4294967295
-0.14178635 0.077339515 0.56699997 4294967295
-0.14145072 0.077746615 0.56999999 4293914089
-0.14036493 0.077744491 0.56999999 4288593124
-0.14025658 0.078287967 0.574 4279974241
-0.13916326 0.078285851 0.574 4278190100
-0.13879161 0.078692891 0.57700002 4278190090
-0.13793127 0.078827143 0.57800001 4279959552
-0.13706717 0.07896138 0.579 4286007879
-0.1361993 0.079095624 0.57999998 4291735395
-0.13509475 0.079093508 0.57999998 4294965934
-0.1337592 0.078955002 0.579 4294967294
-0.13265663 0.078952901 0.579 4294966779
-0.11837639 0.089801788 0.65899998 4289833642
-0.11525519 0.091292046 0.67000002 4289767851
-0.11432127 0.091562405 0.67199999 4289703089
-0.11337983 0.091832757 0.67400002 4289637296
-0.1120982 0.091830641 0.67400002 4289572001
-0.11081662 0.091828518 0.67400002 4289572001
-0.14971775 0.074849993 0.54100001 4293978088
-0.14344098 0.078145437 0.565 4291218389
-0.14261661 0.078281648 0.56599998 4294967295
-0.14153838 0.078279555 0.56599998 4294967295
-0.14070833 0.078415737 0.56699997 4294967295
-0.14036705 0.078828521 0.56999999 4293721343
-0.14001437 0.079241283 0.57300001 4288392120
-0.13916537 0.079377443 0.574 4278213003
-0.13879372 0.079790182 0.57700002 4278197326
-0.13793339 0.079926319 0.57800001 4278190080
-0.1370693 0.080062456 0.579 4278190080
-0.13596658 0.080060318 0.579 4286860544
-0.13509686 0.080196448 0.57999998 4294295135
-0.13376132 0.080056049 0.579 4294963677
-0.13265875 0.080053918 0.579 4294965734
-0.12290952 0.088029861 0.63700002 4289437855
-0.12188858 0.088165872 0.63800001 4289569441
-0.1128773 0.092699446 0.671 4289571501
-0.11160137 0.092697315 0.671 4289637031
-0.14868881 0.075877085 0.54100001 4294967295
-0.14236675 0.079217933 0.565 4294967295
-0.1415405 0.079356037 0.56599998 4294967295
-0.14046228 0.079353906 0.56599998 4294967292
-0.13938411 0.079351798 0.56599998 4294967295
-0.13977213 0.080190852 0.57200003 4294967295
-0.13868262 0.080188721 0.57200003 4292470009
-0.13793555 0.081025556 0.57800001 4278795861
-0.13707143 0.081163578 0.579 4278190874
-0.13596874 0.081161425 0.579 4278190080
-0.13509899 0.081299439 0.57999998 4279505427
-0.13376346 0.081157126 0.579 4289167667
-0.13266088 0.081154995 0.579 4294959764
-0.13155834 0.081152849 0.579 4294964466
-0.12891552 0.081566907 0.58200002 4292136660
-0.12780744 0.081564777 0.58200002 4290493371
-0.1264817 0.081422515 0.58099997 4289374890
-0.12537561 0.081420399 0.58099997 4289242800
-0.12426959 0.081418276 0.58099997 4289440435
-0.12316359 0.081416175 0.58099997 4289703087
-0.12205765 0.081414096 0.58099997 4289703087
-0.12095174 0.081412002 0.58099997 4289440935
-0.1216997 0.089238733 0.63700002 4289634982
-0.1206769 0.089376628 0.63800001 4289701293
-0.11271123 0.093834907 0.67000002 4289636013
-0.11176982 0.094112866 0.67199999 4289899435
-0.11082087 0.094390817 0.67400002 4289833642
-0.14765987 0.076904178 0.54100001 4294967295
-0.14046441 0.080430433 0.56599998 4294967037
-0.13938624 0.08042831 0.56599998 4294967286
-0.13879684 0.080710374 0.56800002 4294967293
-0.13844229 0.08113452 0.57099998 4294967295
-0.13769907 0.081982754 0.57700002 4283207622
-0.13683686 0.082122676 0.57800001 4278201700
-0.13597092 0.082262591 0.579 4278190107
-0.13486823 0.082260415 0.579 4278190101
-0.13376561 0.082258269 0.579 4282449920
-0.13266303 0.082256101 0.579 4292187265
-0.13156047 0.082253955 0.579 4294959041
-0.1306833 0.08239387 0.57999998 4294966494
-0.13002576 0.082675822 0.58200002 4294967295
-0.12891765 0.082673684 0.58200002 4293650152
-0.12780957 0.082671545 0.58200002 4291350238
-0.12648381 0.082527347 0.58099997 4289705670
-0.12537774 0.082525238 0.58099997 4289244587
-0.1242717 0.082523108 0.58099997 4289705138
-0.12316569 0.082520984 0.58099997 4290097332
-0.12205975 0.082518883 0.58099997 4290097332
-0.12095384 0.082516775 0.58099997 4289506478
-0.1206791 0.090589643 0.63800001 4289438888
-0.11946528 0.090587437 0.63800001 4289372839
-0.11049416 0.095388174 0.67199999 4289834157
-0.10970397 0.095811851 0.67500001 4290096560
-0.14738895 0.077789254 0.54000002 4294967295
-0.14021836 0.081362993 0.565 4290098097
-0.13914211 0.081360854 0.565 4289965423
-0.1385546 0.081646718 0.56699997 4292333971
-0.138202 0.082076557 0.56999999 4293846761
-0.1366023 0.083077997 0.57700002 4290493121
-0.13573822 0.083219804 0.57800001 4284251290
-0.1348704 0.083361603 0.579 4278191138
-0.13376778 0.083359443 0.579 4278190080
-0.13266519 0.083357267 0.579 4278190080
-0.13156265 0.083355106 0.579 4286930432
-0.13068548 0.083496921 0.57999998 4293904472
-0.12980449 0.083638683 0.58099997 4294633183
-0.12869827 0.083636537 0.58099997 4294967287
-0.12759209 0.083634384 0.58099997 4294768637
-0.12648596 0.083632246 0.58099997 4292794591
-0.12537988 0.083630107 0.58099997 4291218881
-0.12427381 0.083627969 0.58099997 4289837228
-0.12316781 0.083625838 0.58099997 4289901999
-0.12206185 0.083623707 0.58099997 4289836206
-0.12095596 0.083621606 0.58099997 4289702574
-0.11946748 0.091800489 0.63800001 4289307298
-0.11825371 0.091798283 0.63800001 4289504682
-0.10842271 0.097092919 0.67500001 4290886335
-0.14560215 0.078958437 0.54100001 4294967295
-0.13914424 0.082435541 0.565 4285025024
-0.13831238 0.082579292 0.56599998 4288512294
-0.13771921 0.082868941 0.56800002 4293051294
-0.13735902 0.083304465 0.57099998 4294966230
-0.13574041 0.084319159 0.57800001 4288202727
-0.13487257 0.084462829 0.579 4280702325
-0.13376994 0.084460653 0.579 4278190141
-0.13266736 0.08445847 0.579 4278190129
-0.13156481 0.084456302 0.579 4279500800
-0.13068761 0.084599994 0.57999998 4287193697
-0.12980667 0.084743671 0.58099997 4293441166
-0.12870044 0.084741496 0.58099997 4294960831
-0.12759426 0.08473935 0.58099997 4294967295
-0.1264881 0.084737174 0.58099997 4294307564
-0.12538202 0.084735021 0.58099997 4292141028
-0.12448987 0.084878728 0.58200002 4290561740
-0.12316995 0.084730744 0.58099997 4289049782
-0.12206398 0.084728599 0.58099997 4289181624
-0.11807056 0.092865594 0.63700002 4289965233
-0.11358342 0.095184781 0.653 4290096560
-0.11234147 0.09518259 0.653 4289965231
-0.10984076 0.097360253 0.66799998 4289899437
-0.10889564 0.097649574 0.67000002 4290228148
-0.10778233 0.097793184 0.671 4290886335
-0.10666528 0.097936802 0.67199999 4291017403
-0.13807017 0.083508104 0.565 4278190118
-0.13688007 0.084094986 0.56900001 4291663229
-0.136035 0.084240586 0.56999999 4293645764
-0.13377213 0.085561909 0.579 4286488266
-0.13266955 0.085559726 0.579 4278196549
-0.131567 0.085557535 0.579 4278190080
-0.13068981 0.08570312 0.57999998 4278190080
-0.12980886 0.085848689 0.58099997 4281794560
-0.12870263 0.085846506 0.58099997 4290673524
-0.12781604 0.085992076 0.58200002 4292921261
-0.126708 0.085989907 0.58200002 4294967012
-0.12559998 0.085987739 0.58200002 4294966526
-0.12449201 0.085985571 0.58200002 4293387236
-0.1231721 0.085835673 0.58099997 4291087571
-0.12206611 0.08583352 0.58099997 4289442745
-0.1227823 0.091286138 0.61799997 4289899951
-0.11686095 0.094074614 0.63700002 4290162355
-0.11482547 0.095397107 0.64600003 4290358957
-0.1135967 0.095394894 0.64600003 4290029992
-0.112368 0.095392697 0.64600003 4290227887
-0.11234367 0.096424177 0.653 4290293680
-0.10857273 0.098628119 0.66799998 4290425784
-0.10762384 0.098921239 0.67000002 4290820541
-0.10634995 0.098919109 0.67000002 4290820539
-0.10507613 0.098916978 0.67000002 4291017662
-0.14430815 0.08086504 0.54000002 4290624693
-0.14327922 0.080862984 0.54000002 4283924665
-0.14225034 0.08086092 0.54000002 4278190908
-0.13640109 0.084877916 0.56699997 4284894025
-0.13532114 0.084875748 0.56699997 4291007854
-0.13447803 0.085023269 0.56800002 4294959546
-0.1335433 0.086513542 0.57800001 4292208116
-0.13244261 0.086511359 0.57800001 4286220953
-0.13156918 0.086658828 0.579 4278202727
-0.13046667 0.08665663 0.579 4278190135
-0.12958762 0.086804107 0.57999998 4278190080
-0.1287048 0.086951569 0.58099997 4280952354
-0.12781824 0.087099038 0.58200002 4291003197
-0.12671018 0.087096848 0.58200002 4294956945
-0.12560216 0.087094657 0.58200002 4294967289
-0.1244942 0.087092482 0.58200002 4294766309
-0.12338626 0.087090313 0.58200002 4293060843
-0.12227836 0.087088145 0.58200002 4290889930
-0.11941806 0.09349972 0.625 4289834157
-0.11583292 0.095433272 0.63800001 4290358705
-0.11359891 0.096623234 0.64600003 4290817972
-0.11237019 0.096621051 0.64600003 4290621109
-0.11165767 0.097067542 0.64899999 4290555316
-0.11042337 0.097065359 0.64899999 4290228148
-0.1063521 0.10019296 0.67000002 4291215810
-0.10507825 0.10019081 0.67000002 4291281604
-0.10380445 0.10018868 0.67000002 4290624691
-0.10268375 0.1003361 0.671 4289111452
-0.1401552 0.083697408 0.55199999 4294967258
-0.13910361 0.083695285 0.55199999 4294967273
-0.13805205 0.083693154 0.55199999 4294967295
-0.13532335 0.085954331 0.56699997 4282913024
-0.13424343 0.085952148 0.56699997 4287913016
-0.13316357 0.085949965 0.56699997 4293051005
-0.13244481 0.087610811 0.57800001 4294636795
-0.13134415 0.087608591 0.57800001 4290498023
-0.13046888 0.087757953 0.579 4281879396
-0.12958983 0.087907329 0.57999998 4278199825
-0.12848549 0.087905116 0.57999998 4278190080
-0.1276008 0.088054471 0.58099997 4281270272
-0.12671237 0.088203825 0.58200002 4287583052
-0.12560435 0.088201635 0.58200002 4291866754
-0.12449638 0.088199444 0.58200002 4294965193
-0.12338843 0.088197269 0.58200002 4294964990
-0.12228053 0.088195093 0.58200002 4294240754
-0.12179729 0.088647522 0.58499998 4291941092
-0.12121715 0.093331464 0.616 4290031537
-0.11237239 0.097849444 0.64600003 4290556098
-0.11165987 0.098301634 0.64899999 4290424511
-0.11042554 0.098299436 0.64899999 4290228148
-0.10935952 0.098448709 0.64999998 4290228148
-0.10812341 0.098446548 0.64999998 4290490806
-0.10688735 0.09844438 0.64999998 4290688186
-0.10603678 0.10116399 0.66799998 4291347647
-0.10476672 0.10116185 0.66799998 4291216060
-0.10349672 0.10115971 0.66799998 4290296233
-0.10222676 0.10115761 0.66799998 4288914580
-0.10095685 0.1011555 0.66799998 4289178542
-0.14225447 0.082915634 0.54000002 4292465108
-0.13910575 0.084745429 0.55199999 4294965428
-0.13780409 0.084589787 0.551 4294967295
-0.13675447 0.084587649 0.551 4291085756
-0.1342456 0.087030753 0.56699997 4280229147
-0.13316576 0.087028585 0.56699997 4288372234
-0.13255183 0.087333359 0.56900001 4294954104
-0.13134636 0.08870808 0.57800001 4294639615
-0.13047107 0.088859327 0.579 4290166471
-0.12959203 0.089010581 0.57999998 4278216358
-0.12848768 0.089008354 0.57999998 4278197082
-0.12760299 0.0891596 0.58099997 4278190080
-0.12671459 0.089310877 0.58200002 4278191616
-0.12560654 0.089308657 0.58200002 4287514624
-0.12449855 0.089306451 0.58200002 4294028113
-0.12339061 0.089304261 0.58200002 4294963942
-0.12228272 0.08930207 0.58200002 4294964714
-0.12138307 0.089453332 0.583 4294374906
-0.12027337 0.089451149 0.583 4292137944
-0.11272405 0.098313257 0.64099997 4290490804
-0.10936171 0.099684745 0.64999998 4290294195
-0.10812558 0.099682562 0.64999998 4290885049
-0.10688951 0.099680386 0.64999998 4290950842
-0.10540399 0.10182081 0.66399997 4291282374
-0.1041415 0.10181865 0.66399997 4291018945
-0.10318898 0.1021232 0.66600001 4289442469
-0.10192279 0.10212106 0.66600001 4288850331
-0.10080783 0.1022723 0.667 4289638578
-0.099539854 0.1022702 0.667 4285493619
-0.094551995 0.10517094 0.68599999 4294967284
-0.0932483 0.10516893 0.68599999 4294967295
-0.09194465 0.10516692 0.68599999 4291283400
-0.14020094 0.084558539 0.54400003 4286353057
-0.13780621 0.085638069 0.551 4292858560
-0.1367566 0.085635915 0.551 4294967291
-0.13316795 0.088107221 0.56699997 4281466880
-0.13232107 0.088260412 0.56800002 4284159765
-0.12959425 0.090113886 0.57999998 4294572285
-0.12871142 0.09026701 0.58099997 4282992973
-0.12782484 0.090420164 0.58200002 4278190080
-0.12693451 0.090573296 0.583 4278190080
-0.12582457 0.090571083 0.583 4278190080
-0.12471468 0.090568863 0.583 4283515715
-0.12360483 0.090566665 0.583 4290160002
-0.12249503 0.090564445 0.583 4294967260
-0.12138526 0.090562254 0.583 4294967295
-0.12068816 0.090870731 0.58499998 4294637560
-0.10812777 0.10091864 0.64999998 4290819256
-0.10689168 0.10091646 0.64999998 4291016635
-0.10524742 0.10292821 0.66299999 4291743429
-0.10414366 0.10308129 0.66399997 4291414207
-0.10288122 0.10307914 0.66399997 4290625459
-0.10192491 0.10338749 0.66600001 4288914841
-0.10065877 0.10338537 0.66600001 4289310639
-0.099392705 0.10338326 0.66600001 4285429109
-0.097460769 0.10539495 0.67900002 4278779904
-0.09617018 0.10539287 0.67900002 4278190080
-0.095438614 0.10601168 0.68300003 4286600448
-0.094140522 0.10600964 0.68300003 4292456265
-0.093250312 0.10647324 0.68599999 4294830807
-0.091946647 0.10647124 0.68599999 4294967294
-0.13755825 0.086529046 0.55000001 4290544973
-0.13651052 0.086526893 0.55000001 4294960813
-0.13546285 0.086524762 0.55000001 4294967295
-0.13185737 0.089026414 0.56599998 4278190080
-0.13077949 0.089024201 0.56599998 4283176960
-0.1291496 0.090902686 0.57800001 4294967295
-0.12849213 0.091215 0.57999998 4282726215
-0.12760745 0.091370031 0.58099997 4278190080
-0.12671901 0.091525063 0.58200002 4278190080
-0.12561096 0.091522835 0.58200002 4278190080
-0.1247169 0.091677867 0.583 4281878583
-0.12360703 0.091675639 0.583 4287926649
-0.12249722 0.091673426 0.583 4294967272
-0.12159567 0.091828458 0.58399999 4294967295
-0.12069034 0.09198349 0.58499998 4294967295
-0.11957686 0.091981292 0.58499998 4294507257
-0.11770733 0.09683954 0.616 4290557115
-0.11653523 0.09683729 0.616 4290557883
-0.110118 0.10058974 0.63999999 4290624441
-0.10689385 0.10215258 0.64999998 4291017403
-0.10398897 0.10418683 0.66299999 4292006096
-0.10288337 0.10434182 0.66399997 4290823099
-0.10162096 0.10433968 0.66399997 4289244324
-0.10035861 0.10433757 0.66399997 4289837238
-0.099394806 0.10464971 0.66600001 4285692279
-0.098128766 0.10464762 0.66600001 4281218109
-0.098608054 0.10653105 0.67799997 4279046684
-0.097319297 0.10652895 0.67799997 4279440395
-0.096030608 0.10652685 0.67799997 4278190080
-0.09530092 0.10715327 0.68199998 4279173120
-0.094004728 0.1071512 0.68199998 4284102966
-0.093252331 0.10777763 0.68599999 4291857519
-0.091948658 0.10777561 0.68599999 4294959041
-0.091173574 0.10840203 0.69 4294967295
-0.089862384 0.10840003 0.69 4291478983
-0.088679604 0.10855518 0.69099998 4278219711
-0.13601625 0.087254882 0.54799998 4285421132
-0.13497239 0.087252744 0.54799998 4291210879
-0.13392857 0.08725062 0.54799998 4294967251
-0.13162661 0.089944027 0.565 4278190080
-0.13055059 0.089941822 0.565 4280025088
-0.1297038 0.090098806 0.56599998 4280221696
-0.12672123 0.092632249 0.58200002 4278190080
-0.1256132 0.092629999 0.58200002 4278190080
-0.12450521 0.092627779 0.58200002 4287666323
-0.12360927 0.09278471 0.583 4289177807
-0.12249943 0.09278246 0.583 4294638591
-0.12159786 0.092939384 0.58399999 4294967295
-0.12069256 0.093096308 0.58499998 4294967295
-0.11957906 0.093094103 0.58499998 4294967291
-0.11887063 0.093410164 0.58700001 4294967291
-0.11653749 0.098008983 0.616 4290688699
-0.10977609 0.10148882 0.63800001 4290756278
-0.10856264 0.10148662 0.63800001 4290690487
-0.10673159 0.10322972 0.64899999 4291610051
-0.10549743 0.10322752 0.64899999 4291346886
-0.1016231 0.10560242 0.66399997 4289112224
-0.10036074 0.10560028 0.66399997 4289508273
-0.099396907 0.10591622 0.66600001 4285626486
-0.09872023 0.10655025 0.67000002 4279182890
-0.097592056 0.10670716 0.671 4278190597
-0.096890755 0.10734116 0.67500001 4278390025
-0.09560775 0.10733909 0.67500001 4278191875
-0.094883762 0.1079731 0.67900002 4279173120
-0.094006769 0.1084481 0.68199998 4278779904
-0.09325438 0.10908209 0.68599999 4281466880
-0.092084706 0.10923906 0.68699998 4289291619
-0.090911292 0.10939608 0.68800002 4292395930
-0.089864358 0.10971206 0.69 4294967271
-0.088681564 0.10986909 0.69099998 4294965759
-0.13601841 0.088297576 0.54799998 4278924923
-0.13497454 0.088295422 0.54799998 4286074624
-0.13393068 0.088293262 0.54799998 4294364523
-0.13055281 0.091016777 0.565 4278190080
-0.12970601 0.091175631 0.56599998 4278190080
-0.12885547 0.091334529 0.56699997 4280811520
-0.12761043 0.092777558 0.57599998 4280287232
-0.12650576 0.093578406 0.58099997 4278190080
-0.12561545 0.093737222 0.58200002 4278190080
-0.12450743 0.093734972 0.58200002 4291218377
-0.12361148 0.093893796 0.583 4291812577
-0.12250167 0.093891554 0.583 4294443007
-0.12139187 0.093889326 0.583 4294966783
-0.12069477 0.094209187 0.58499998 4294966783
-0.11958127 0.094206966 0.58499998 4294967295
-0.11887284 0.09452682 0.58700001 4294967295
-0.11775563 0.094524607 0.58700001 4294967295
-0.11536766 0.099178448 0.616 4290753979
-0.11029597 0.10206062 0.634 4290756280
-0.10856484 0.10270008 0.63800001 4291216060
-0.10533707 0.10430092 0.648 4291281604
-0.10410484 0.10429873 0.648 4292268499
-0.10255516 0.10397466 0.64600003 4292400598
-0.10036287 0.10686306 0.66399997 4290099642
-0.099399045 0.10718283 0.66600001 4285559925
-0.098427646 0.10750256 0.66799998 4278198272
-0.097448722 0.10782231 0.67000002 4278527488
-0.096892856 0.10862484 0.67500001 4279770952
-0.095609836 0.10862274 0.67500001 4278323506
-0.094885856 0.10926437 0.67900002 4278190080
-0.093595304 0.10926228 0.67900002 4278190080
-0.093528301 0.11070846 0.68800002 4278190080
-0.092220783 0.11070642 0.68800002 4279305735
-0.090913318 0.11070437 0.68800002 4290078976
-0.089996614 0.11118507 0.69099998 4294958949
-0.088940233 0.1115049 0.69300002 4294967295
-0.087749846 0.11166381 0.69400001 4292861403
-0.13577236 0.089177281 0.54699999 4283849577
-0.1347304 0.089175127 0.54699999 4282729216
-0.13368843 0.089172959 0.54699999 4280294912
-0.12970823 0.09225253 0.56599998 4278193664
-0.12885766 0.092413299 0.56699997 4280549376
-0.12800334 0.092574075 0.56800002 4281073920
-0.12759213 0.093060777 0.57099998 4280614912
-0.12540185 0.094681524 0.58099997 4278190080
-0.12429573 0.094679274 0.58099997 4292402136
-0.1234017 0.094839975 0.58200002 4294967287
-0.12250391 0.095000699 0.583 4294967287
-0.12139411 0.094998449 0.583 4294966783
-0.1204907 0.095159166 0.58399999 4294966269
-0.11958349 0.095319867 0.58499998 4294967295
-0.11887507 0.09564352 0.58700001 4293519849
-0.11775785 0.0956413 0.58700001 4294835180
-0.11683937 0.095802024 0.588 4294967288
-0.11499534 0.10002444 0.61400002 4290623678
-0.10909227 0.10326432 0.634 4290427832
-0.10501414 0.1052077 0.64600003 4292202444
-0.1037857 0.10520552 0.64600003 4292334031
-0.10255731 0.10520335 0.64600003 4292728270
-0.099401169 0.10844947 0.66600001 4285954937
-0.098429769 0.108773 0.66799998 4278200354
-0.09745083 0.10909655 0.67000002 4284320645
-0.096464336 0.10942011 0.67199999 4287465378
-0.095186971 0.109418 0.67199999 4286017676
-0.094189174 0.10974157 0.67400002 4285754410
-0.093045987 0.10990231 0.67500001 4287728200
-0.09325847 0.11169124 0.68599999 4281813140
-0.091954738 0.11168919 0.68599999 4278190146
-0.090651043 0.11168715 0.68599999 4278255616
-0.089998648 0.11249917 0.69099998 4285689437
-0.08894223 0.11282276 0.69300002 4293384083
-0.087751836 0.11298358 0.69400001 4294967251
-0.13448626 0.09005104 0.546 4278218143
-0.13369061 0.090213805 0.54699999 4278198097
-0.13264869 0.090211637 0.54699999 4280549376
-0.13160682 0.090209469 0.54699999 4290808456
-0.12800556 0.093654789 0.56800002 4278190080
-0.12692401 0.093652561 0.56800002 4278714627
-0.12606405 0.093815207 0.56900001 4279372301
-0.12429798 0.095784672 0.58099997 4294306551
-0.12340396 0.095947288 0.58200002 4294967295
-0.12250614 0.096109882 0.583 4294967295
-0.12139635 0.096107632 0.583 4294966270
