# .PCD v0.7 - Point Cloud Data file format
VERSION 0.7
FIELDS x y z rgba
SIZE 4 4 4 4
TYPE F F F U
COUNT 1 1 1 1
WIDTH 1081
HEIGHT 1
VIEWPOINT 0 0 0 1 0 0 0
POINTS 1081
DATA ascii
0.022468546 0.17780146 0.76899999 4278190080
0.023928827 0.17780185 0.76899999 4282385737
0.025389109 0.17780228 0.76899999 4294963199
0.026919236 0.17826518 0.77100003 4294967295
-0.18266597 0.16065739 0.68800002 4282529338
-0.032080378 0.17415097 0.74699998 4288716192
-0.030661562 0.17414995 0.74699998 4289045155
-0.029242769 0.17414899 0.74699998 4289045155
-0.013764978 0.17577247 0.75400001 4291150534
-0.012333082 0.17577191 0.75400001 4291150534
-0.0109012 0.1757714 0.75400001 4291610305
-0.0094693275 0.17577092 0.75400001 4291610305
-0.0080374647 0.17577048 0.75400001 4289308845
-0.0066143712 0.17600319 0.755 4278650379
-0.005180629 0.17600283 0.755 4278190080
-0.003746894 0.17600249 0.755 4278190080
-0.0023192936 0.17646848 0.75700003 4278190080
-0.00088410347 0.17693442 0.759 4278192387
0.00055720872 0.17693421 0.759 4278321666
0.001998516 0.17693403 0.759 4278190080
0.0048939814 0.17740004 0.76099998 4278190080
0.0063474062 0.17763308 0.76200002 4278190080
0.0077943997 0.17763306 0.76200002 4278190080
0.00924139 0.17763308 0.76200002 4278190080
0.010688382 0.17763312 0.76200002 4278190080
0.012135372 0.17763321 0.76200002 4278190080
0.013582364 0.17763332 0.76200002 4278190080
0.015029361 0.17763348 0.76200002 4278190080
0.016476357 0.17763369 0.76200002 4278190080
0.017970402 0.17810014 0.764 4278190080
0.019421205 0.17810041 0.764 4278849557
0.020926649 0.17856695 0.76599997 4279571483
0.022410478 0.17880042 0.76700002 4278190080
0.023866998 0.17880081 0.76700002 4281794816
0.025323523 0.17880124 0.76700002 4294963420
0.026849881 0.17926791 0.76899999 4294967295
-0.18812051 0.16103861 0.68400002 4286676846
-0.18681775 0.16103619 0.68400002 4286809992
-0.17873727 0.16196038 0.68800002 4288584345
-0.013729029 0.17673913 0.75199997 4291545032
-0.012300897 0.17673859 0.75199997 4292597463
-0.010872776 0.17673808 0.75199997 4291347395
-0.0094697829 0.17720765 0.75400001 4291215808
-0.0080378838 0.17720722 0.75400001 4289114816
-0.006605994 0.17720681 0.75400001 4279640368
-0.0051741125 0.17720647 0.75400001 4278190099
-0.0037422387 0.17720613 0.75400001 4278190095
-0.002310372 0.17720582 0.75400001 4278190080
-0.00087967695 0.1774406 0.755 4278190080
0.00055407657 0.17744039 0.755 4278190080
0.0019878251 0.17744021 0.755 4278190080
0.0034396977 0.17838016 0.759 4278190080
0.0048810351 0.17838003 0.759 4278190080
0.0092292903 0.17885 0.76099998 4278190080
0.01067442 0.17885002 0.76099998 4278190080
0.012119548 0.17885011 0.76099998 4278190082
0.013564683 0.17885026 0.76099998 4278190085
0.015009812 0.17885041 0.76099998 4278190341
0.01645495 0.17885059 0.76099998 4278389519
0.01792361 0.17908585 0.76200002 4278849820
0.019370651 0.17908613 0.76200002 4279310371
0.020872338 0.17955646 0.764 4279310119
0.022381626 0.18002686 0.76599997 4278190080
0.023836283 0.18002725 0.76599997 4279304192
0.025290946 0.18002766 0.76599997 4292918972
0.026780531 0.18026315 0.76700002 4294967288
-0.18421456 0.16233426 0.68400002 4290426326
-0.17952679 0.16279894 0.68599999 4282005041
-0.17822023 0.16279641 0.68599999 4288913305
-0.010844351 0.17769721 0.75 4291020998
-0.0094200019 0.17769676 0.75 4291020998
-0.0079956595 0.17769632 0.75 4290432711
-0.0065713292 0.17769592 0.75 4284247913
-0.0051607327 0.1781694 0.75199997 4283192915
-0.0037326205 0.17816907 0.75199997 4279903265
-0.0023045144 0.17816877 0.75199997 4278190125
-0.00087874621 0.17864239 0.75400001 4278190118
0.0005531456 0.17864217 0.75400001 4278190093
0.0019876652 0.17887893 0.755 4278190093
0.003421447 0.17887877 0.755 4278190102
0.0048552258 0.17887866 0.755 4278190101
0.006289002 0.17887859 0.755 4278190093
0.0077432357 0.17935243 0.75700003 4278190092
0.0091808066 0.17935245 0.75700003 4278190080
0.010646431 0.17982633 0.759 4278190081
0.012087799 0.17982641 0.759 4278190107
0.013529169 0.17982651 0.759 4278190109
0.015009989 0.18030052 0.76099998 4278190111
0.016455162 0.18030073 0.76099998 4278190117
0.01790034 0.18030097 0.76099998 4278190886
0.019345518 0.18030123 0.76099998 4278190629
0.020790705 0.18030152 0.76099998 4278190361
0.022265114 0.1805388 0.76200002 4278190084
0.023774451 0.18101306 0.764 4278190080
0.025225351 0.18101346 0.764 4290360754
0.026676258 0.18101391 0.764 4294111455
-0.1803087 0.16362987 0.68400002 4282597434
-0.17900592 0.16362737 0.68400002 4282530090
-0.17744334 0.16338564 0.68300003 4289569941
-0.17614251 0.16338313 0.68300003 4293450429
-0.0094204582 0.17912602 0.75 4291019199
-0.0079854187 0.17888676 0.74900001 4290824900
-0.0065629501 0.17888634 0.74900001 4292469725
-0.0051473537 0.17912483 0.75 4292470241
-0.0037180383 0.17888565 0.74900001 4292141276
-0.0022955926 0.17888537 0.74900001 4291285467
-0.00087431923 0.17912394 0.75 4290298572
0.00055148016 0.17960137 0.75199997 4289902783
0.0019848715 0.18007888 0.75400001 4289508025
0.0034167911 0.18007872 0.75400001 4289179837
0.0048551392 0.18031746 0.755 4288982714
0.0062889527 0.18031739 0.755 4288457654
0.0077227647 0.18031737 0.755 4288128432
0.0091565736 0.18031736 0.755 4287537313
0.013529306 0.18127292 0.759 4285035650
0.014970717 0.1812731 0.759 4279116661
0.01641213 0.18127327 0.759 4278392937
0.017853543 0.18127351 0.759 4278192942
0.019294964 0.18127377 0.759 4278190111
0.020736387 0.18127407 0.759 4278190085
0.022177815 0.1812744 0.759 4278190085
0.023681492 0.18175244 0.76099998 4278190080
0.025126731 0.18175286 0.76099998 4286283396
0.026571978 0.18175332 0.76099998 4292861862
0.028127687 0.18247032 0.764 4294967259
-0.17874672 0.16468933 0.68300003 4282857771
-0.17744589 0.16468684 0.68300003 4290818724
-0.17614503 0.16468433 0.68300003 4293386201
-0.17510021 0.16492291 0.68400002 4294966261
-0.0079858396 0.1803142 0.74900001 4291150786
-0.0065633347 0.18031381 0.74900001 4292992989
-0.0051408377 0.18031341 0.74900001 4293323751
-0.0037183487 0.18031311 0.74900001 4293389544
-0.0022958657 0.18031281 0.74900001 4293324271
-0.0008733896 0.18031256 0.74900001 4293587187
0.00054981414 0.18055306 0.75 4293850867
0.0019794435 0.18103434 0.75199997 4293982196
0.0048486204 0.1815156 0.75400001 4293324784
0.0062805717 0.18151551 0.75400001 4292799983
0.0077125211 0.18151549 0.75400001 4292471274
0.0091444701 0.1815155 0.75400001 4290960602
0.010590445 0.18175629 0.755 4290500051
0.012024293 0.18175636 0.755 4289249475
0.013458139 0.18175645 0.755 4287604907
0.014891991 0.18175662 0.755 4287929259
0.016325846 0.18175682 0.755 4287271072
0.017806744 0.1822385 0.75700003 4286156955
0.019244403 0.18223877 0.75700003 4284972937
0.020682067 0.18223906 0.75700003 4283134840
0.022119733 0.18223941 0.75700003 4281687394
0.023619646 0.18272126 0.759 4279521869
0.025061127 0.18272166 0.759 4283996050
0.026432777 0.18224065 0.75700003 4290558889
0.027870473 0.18224113 0.75700003 4294967288
-0.0079649379 0.18125643 0.74699998 4291084992
-0.0065461942 0.18125601 0.74699998 4292137681
-0.0051274579 0.18125565 0.74699998 4293125078
-0.0037087307 0.18125533 0.74699998 4293585629
-0.0022900095 0.18125503 0.74699998 4293914353
-0.0008712947 0.18125477 0.74699998 4294835455
0.0005488802 0.18173984 0.74900001 4294704375
0.0019740148 0.18198229 0.75 4294967295
0.0048356685 0.18246733 0.75199997 4294967295
0.0062638582 0.18246724 0.75199997 4294967295
0.010576476 0.18295257 0.75400001 4294967295
0.012008461 0.18295263 0.75400001 4294967295
0.013440448 0.18295273 0.75400001 4294967295
0.014892162 0.18319553 0.755 4294967295
0.016326049 0.18319571 0.755 4294967295
0.017759943 0.18319595 0.755 4294967295
0.019193839 0.18319619 0.755 4294967295
0.020627741 0.18319651 0.755 4294967295
0.02212009 0.18368214 0.75700003 4294967295
0.023557799 0.1836825 0.75700003 4294967295
0.024995515 0.18368292 0.75700003 4294374904
0.026433239 0.18368335 0.75700003 4294506744
0.027870974 0.18368384 0.75700003 4294967295
-0.0051209433 0.1824349 0.74599999 4291610040
-0.0037040778 0.18243456 0.74599999 4292531142
-0.0022872193 0.18243426 0.74599999 4293714652
-0.00087153359 0.18267857 0.74699998 4294635754
0.00054721261 0.18267834 0.74699998 4294965485
0.0019712178 0.18316726 0.74900001 4294967027
0.0048227161 0.18341154 0.75 4294967295
0.0062471461 0.18341148 0.75 4294967295
0.010548477 0.18390055 0.75199997 4294967295
0.014872603 0.18438999 0.75400001 4294967295
0.016304633 0.18439019 0.75400001 4294967295
0.017736662 0.18439043 0.75400001 4294967295
0.019168695 0.18439068 0.75400001 4294967295
0.020600734 0.18439096 0.75400001 4294967295
0.022061996 0.18463583 0.755 4294967295
0.02349595 0.18463624 0.755 4294967295
0.024929903 0.18463662 0.755 4294967295
0.026363865 0.18463707 0.755 4294967295
0.027797839 0.18463755 0.755 4294967295
0.029309254 0.18512715 0.75700003 4294967295
-0.17873675 0.16736116 0.67799997 4282731319
-0.17744547 0.16735876 0.67799997 4284104763
-0.17615418 0.16735633 0.67799997 4293183940
-0.17434713 0.16686024 0.676 4294965753
-0.17305966 0.16685778 0.676 4294701810
-0.0050938339 0.18287101 0.74199998 4287203721
-0.0036845291 0.1828707 0.74199998 4278190080
-0.0022813638 0.18336332 0.74400002 4280947200
-0.00087060721 0.18385598 0.74599999 4284500259
0.006238759 0.18459457 0.74900001 4290489760
0.0090960162 0.18484101 0.75 4290753450
0.010520479 0.18484105 0.75 4290950572
0.01194494 0.1848411 0.75 4291214000
0.013369404 0.18484119 0.75 4291608758
0.014833317 0.18533428 0.75199997 4292530625
0.016261585 0.18533446 0.75199997 4292991176
0.017689854 0.1853347 0.75199997 4294504664
0.020601049 0.18582816 0.75400001 4294899440
0.022033127 0.18582846 0.75400001 4294833647
0.023465214 0.18582882 0.75400001 4294965487
0.024897309 0.18582924 0.75400001 4294966259
0.026329407 0.18582968 0.75400001 4294967038
0.027761512 0.18583018 0.75400001 4294967295
0.029232349 0.18607712 0.755 4294967293
0.030747609 0.18657061 0.75700003 4294243056
-0.2091864 0.16522318 0.66399997 4291546558
-0.20792244 0.16522168 0.66399997 4280032784
-0.1794993 0.16815771 0.676 4281019392
-0.17821188 0.16815536 0.676 4283256352
-0.17692444 0.16815299 0.676 4283910212
-0.17563701 0.1681506 0.676 4293120975
-0.17409164 0.16789944 0.67500001 4294967295
-0.17280611 0.16789703 0.67500001 4293979633
-0.0064772395 0.18354073 0.73900002 4290824646
-0.0050735883 0.18354036 0.73900002 4285961097
-0.0036798771 0.18403675 0.741 4278190080
-0.002272442 0.18403646 0.741 4278190080
-0.00086501217 0.18403618 0.741 4278190080
0.0005431436 0.18428434 0.74199998 4278714368
0.0019524618 0.18428414 0.74199998 4279697408
0.0062220427 0.18552561 0.74699998 4284561198
0.0076408456 0.18552558 0.74699998 4285613886
0.011929104 0.1860224 0.74900001 4289167476
0.013351704 0.18602251 0.74900001 4290088578
0.014774306 0.18602267 0.74900001 4290159765
0.01619691 0.18602282 0.74900001 4290488474
0.017643038 0.18627138 0.75 4291147176
0.01906755 0.18627164 0.75 4291607727
0.020546714 0.18676867 0.75199997 4292198067
0.023403354 0.18676935 0.75199997 4292330680
0.024831686 0.18676977 0.75199997 4292594109
0.026329862 0.18726693 0.75400001 4292989616
0.027762003 0.18726741 0.75400001 4294239683
0.029232878 0.18751627 0.755 4294967290
0.030666938 0.18751682 0.755 4294834162
-0.21107788 0.16598886 0.662 4294966009
-0.20981784 0.16598746 0.662 4293321441
-0.20887281 0.16623676 0.66299999 4291084459
-0.20761082 0.16623528 0.66299999 4280031491
-0.20665996 0.16648448 0.66399997 4280163618
-0.17795059 0.16919263 0.67500001 4282469439
-0.17666507 0.16919027 0.67500001 4284106308
-0.17537956 0.16918792 0.67500001 4294041051
-0.17409404 0.1691855 0.67500001 4294967295
-0.17280853 0.16918312 0.67500001 4293782251
-0.0064688604 0.18469922 0.73799998 4292400850
-0.0050670733 0.18469885 0.73799998 4290428582
-0.0036652922 0.18469851 0.73799998 4278190080
-0.0022665858 0.1849485 0.73900002 4278190080
-0.00086291891 0.18494824 0.73900002 4278190080
0.00054220617 0.18544856 0.741 4278517760
0.0019496618 0.18544835 0.741 4278517760
0.0033571133 0.1854482 0.741 4279435264
0.0047709914 0.18569833 0.74199998 4279500800
0.0061803367 0.18569827 0.74199998 4279762944
0.0076101371 0.18619876 0.74400002 4279828480
0.0090475315 0.18669927 0.74599999 4279566336
0.010464471 0.18669932 0.74599999 4279369728
0.01188141 0.18669941 0.74599999 4279959552
0.013316175 0.18694976 0.74699998 4278976512
0.014735014 0.18694991 0.74699998 4278190080
0.016153855 0.18695007 0.74699998 4278190080
0.017572703 0.1869503 0.74699998 4278190080
0.018991549 0.18695053 0.74699998 4278190080
0.020465052 0.18745139 0.74900001 4279500800
0.024832102 0.18820326 0.75199997 4279369728
0.026260471 0.18820369 0.75199997 4278779904
0.027688855 0.18820418 0.75199997 4291210153
-0.20729916 0.16724505 0.662 4280360202
-0.18100131 0.16972773 0.67199999 4290428623
-0.17972155 0.16972549 0.67199999 4279770157
-0.17844178 0.16972321 0.67199999 4279705088
-0.17716201 0.16972093 0.67199999 4281876244
-0.17512211 0.17022139 0.67400002 4294960617
-0.17281094 0.17046921 0.67500001 4293716460
-0.0092477929 0.18560265 0.736 4293188317
-0.0078497501 0.1856022 0.736 4293123294
-0.0064517166 0.18560179 0.736 4292728537
-0.0050536916 0.18560141 0.736 4290953152
-0.0036556739 0.18560109 0.736 4278190080
-0.0022576628 0.18560083 0.736 4278190080
-0.0008619937 0.18610488 0.73799998 4278716939
0.00053980475 0.18610466 0.73799998 4278979596
0.0019442294 0.18635668 0.73900002 4279045389
0.0033569788 0.18686084 0.741 4279504143
0.0047644638 0.18686073 0.741 4279635729
0.0061719459 0.18686067 0.741 4279438350
0.007589655 0.18711279 0.74199998 4279240972
0.008999032 0.18711276 0.74199998 4278452224
0.010436464 0.18761714 0.74400002 4278190080
0.011849641 0.18761721 0.74400002 4279832382
0.013298472 0.18812166 0.74599999 4279569466
0.014715448 0.1881218 0.74599999 4278193508
0.016132429 0.18812197 0.74599999 4278190154
0.017549409 0.18812217 0.74599999 4278190127
0.018991817 0.18837459 0.74699998 4278190123
0.020465355 0.18887928 0.74900001 4278190080
0.021888047 0.18887956 0.74900001 4278190080
0.02334187 0.18913209 0.75 4278190080
0.024766473 0.18913251 0.75 4278190080
0.026191082 0.18913293 0.75 4279304192
-0.17945637 0.1707513 0.671 4279963392
-0.1781785 0.17074907 0.671 4280428046
-0.17716429 0.17100124 0.67199999 4281546527
-0.17588453 0.17099899 0.67199999 4284500561
-0.17460477 0.17099664 0.67199999 4294962676
-0.0078501748 0.1870054 0.736 4293254112
-0.006452105 0.18700498 0.736 4292596183
-0.0050540441 0.18700464 0.736 4291545807
-0.0036559899 0.18700425 0.736 4278979344
-0.0022579425 0.18700397 0.736 4278190080
-0.000862238 0.18751186 0.73799998 4278191116
0.00053959672 0.18751165 0.73799998 4278518539
0.0019414265 0.18751144 0.73799998 4278190080
0.0033477829 0.1877654 0.73900002 4278190080
0.0047515053 0.1877653 0.73900002 4278190080
0.0061718831 0.18827334 0.741 4278190080
0.0075793988 0.18827333 0.741 4278190080
0.0089869136 0.18827333 0.741 4278190080
0.010394428 0.18827334 0.741 4278190080
0.011817868 0.18852748 0.74199998 4283322505
0.013227283 0.18852755 0.74199998 4294046719
0.014676152 0.18903586 0.74400002 4294242303
0.016089369 0.18903603 0.74400002 4292531687
0.017502589 0.18903628 0.74400002 4289246622
0.020411009 0.18979903 0.74699998 4278190080
0.021829935 0.18979931 0.74699998 4279116313
-0.20980637 0.16874418 0.65799999 4294310135
-0.17562509 0.17202294 0.671 4283650381
-0.0092235832 0.18789715 0.73400003 4293649641
-0.0078292675 0.18789671 0.73400003 4293123044
-0.0064349612 0.1878963 0.73400003 4292596700
-0.0050406633 0.18789594 0.73400003 4292467677
-0.0036463717 0.1878956 0.73400003 4282269762
-0.0022520872 0.18789528 0.73400003 4278190080
-0.00086014671 0.18840699 0.736 4278190080
0.0019412533 0.18891856 0.73799998 4278255616
0.0033431158 0.18891841 0.73799998 4278190125
0.0047449744 0.18891826 0.73799998 4278190118
0.0061551603 0.18917419 0.73900002 4278190097
0.0075589139 0.18917413 0.73900002 4278190098
0.0089626657 0.18917413 0.73900002 4278190101
0.010394472 0.18968609 0.741 4278190097
0.01180202 0.18968616 0.741 4285029749
0.013209574 0.1896863 0.741 4294967039
0.014617126 0.18968637 0.741 4294967295
0.016046306 0.18994254 0.74199998 4294966783
0.017455762 0.18994276 0.74199998 4288791254
0.01886522 0.189943 0.74199998 4278190357
0.020274682 0.18994327 0.74199998 4278190093
-0.0050410167 0.18929544 0.73400003 4292205021
-0.0036417223 0.18903722 0.73299998 4285099376
-0.0022493009 0.18903692 0.73299998 4278190080
-0.00085805549 0.18929456 0.73400003 4278190080
0.00053771457 0.1898101 0.736 4278255616
0.001935818 0.18980992 0.736 4290554803
0.0061467635 0.1903253 0.73799998 4290034871
0.007548654 0.19032526 0.73799998 4288850340
0.0089505427 0.19032526 0.73799998 4287669678
0.010352431 0.19032529 0.73799998 4286551453
0.011770245 0.19058324 0.73900002 4287207348
0.013174036 0.19058333 0.73900002 4293983743
0.014577824 0.19058348 0.73900002 4294967295
0.016024867 0.19109944 0.741 4294900989
0.017432461 0.19109964 0.741 4291812073
0.018865481 0.19135778 0.74199998 4283982962
0.02027498 0.19135806 0.74199998 4278472831
0.021655258 0.19110043 0.741 4280381084
0.023062866 0.19110079 0.741 4280895845
-0.0022495845 0.1904346 0.73299998 4280288542
0.00053604157 0.19069391 0.73400003 4280745984
0.0019303818 0.19069375 0.73400003 4293110697
0.0061300378 0.19121292 0.736 4293917172
0.0075281654 0.19121291 0.736 4293259241
0.0089262901 0.19121288 0.736 4292273380
0.010324416 0.19121291 0.736 4291680986
0.011754395 0.19173254 0.73799998 4291351510
0.013156318 0.19173265 0.73799998 4294180607
0.014577969 0.19199257 0.73900002 4294967295
0.015981797 0.19199274 0.73900002 4294835707
0.017385628 0.19199292 0.73900002 4293916922
0.018840307 0.19251277 0.741 4289574583
0.020247947 0.19251305 0.741 4287669164
0.021655584 0.19251333 0.741 4287866544
0.023063229 0.19251369 0.741 4286553291
0.024470882 0.19251406 0.741 4281947781
0.025878536 0.19251448 0.741 4278193162
0.027323021 0.19277474 0.74199998 4278190080
0.028732592 0.19277519 0.74199998 4283575808
-0.18138608 0.17403635 0.66399997 4293124589
0.0047189449 0.19209309 0.73400003 4294964929
0.0061133099 0.192093 0.73400003 4294768367
0.0075076749 0.19209297 0.73400003 4294967293
0.0089020347 0.19209291 0.73400003 4294967295
0.010296397 0.19209296 0.73400003 4294967295
0.011722613 0.1926164 0.736 4294967295
0.013120774 0.19261651 0.736 4294967295
0.014518935 0.19261663 0.736 4294967034
0.015917098 0.19261678 0.736 4294901241
0.017362315 0.19314036 0.73799998 4294835709
0.018764282 0.1931406 0.73799998 4294901502
0.020166257 0.19314091 0.73799998 4294901759
0.021568231 0.19314119 0.73799998 4294967295
0.022970214 0.19314155 0.73799998 4294967295
0.024405226 0.19340365 0.73900002 4287007627
0.02580912 0.19340406 0.73900002 4278190123
0.027213017 0.19340448 0.73900002 4278190113
0.028616922 0.19340496 0.73900002 4280614912
0.03002084 0.19340546 0.73900002 4293377710
0.031424757 0.193406 0.73900002 4294965487
0.032828692 0.19340661 0.73900002 4294570472
-0.18210231 0.17477532 0.662 4294967039
-0.0063839154 0.1919131 0.72799999 4292794591
-0.0050008711 0.19191273 0.72799999 4291875278
0.0074974089 0.19322902 0.73299998 4293119919
0.0088899061 0.19322903 0.73299998 4294832615
0.010282404 0.19322903 0.73299998 4294967292
0.011674901 0.19322909 0.73299998 4294967295
0.013085227 0.19349279 0.73400003 4294572287
0.014479623 0.19349292 0.73400003 4293124309
0.015874024 0.19349308 0.73400003 4293058516
0.017315475 0.19402045 0.736 4293649859
0.018713681 0.19402072 0.736 4294899925
0.020111889 0.19402096 0.736 4294967289
0.021510102 0.19402128 0.736 4294967295
0.022908317 0.1940216 0.736 4294967295
0.024306538 0.19402198 0.736 4288716974
0.025774619 0.19454961 0.73799998 4281351256
0.02717665 0.19455007 0.73799998 4278190091
0.028578691 0.19455053 0.73799998 4278910976
0.029980745 0.19455107 0.73799998 4292065716
0.031382799 0.19455162 0.73799998 4293519584
0.032829288 0.1948158 0.73900002 4294243306
-0.0022350927 0.19330043 0.72799999 4288259225
-0.00085203402 0.19330017 0.72799999 4278190080
0.00053101929 0.19329995 0.72799999 4278190080
0.0033061714 0.19383065 0.73000002 4280287232
0.0046930118 0.19383051 0.73000002 4279697408
0.0060798489 0.19383039 0.73000002 4279959552
0.007466686 0.19383036 0.73000002 4288376429
0.0088535203 0.19383036 0.73000002 4292724143
0.010240352 0.19383036 0.73000002 4294967280
0.011643111 0.19409591 0.73100001 4294967295
0.013067501 0.19462702 0.73299998 4291346884
0.014460035 0.19462714 0.73299998 4288055950
0.015874196 0.19489282 0.73400003 4278190080
0.017268633 0.19489303 0.73400003 4278190080
0.018663077 0.19489327 0.73400003 4287071624
0.020057516 0.19489351 0.73400003 4291149239
0.021451965 0.19489381 0.73400003 4294967293
0.022908669 0.19542518 0.736 4294967295
0.024306927 0.19542553 0.736 4290032820
0.025705189 0.19542594 0.736 4282601889
0.027103454 0.19542636 0.736 4278190148
0.028579187 0.19595791 0.73799998 4278190080
0.02998127 0.19595841 0.73799998 4289306785
0.031383358 0.19595894 0.73799998 4292465851
0.03278546 0.19595954 0.73799998 4294966498
0.034233894 0.19622567 0.73900002 4294638330
0.0032969667 0.19468796 0.72799999 4278190080
0.0046800426 0.19468783 0.72799999 4278190080
0.0060631176 0.19468777 0.72799999 4278321152
0.0074461885 0.19468768 0.72799999 4282527019
0.0088292575 0.19468765 0.72799999 4292520323
0.010212325 0.19468765 0.72799999 4294966743
0.011595394 0.19468772 0.72799999 4294967295
0.01301412 0.19522268 0.73000002 4291413190
0.014400992 0.19522278 0.73000002 4287993730
0.01578786 0.19522293 0.73000002 4278190080
0.017198261 0.19549055 0.73100001 4278190080
0.018637888 0.19602562 0.73299998 4281080859
0.020057796 0.19629331 0.73400003 4291078787
0.021452276 0.19629364 0.73400003 4294966999
0.022846766 0.19629394 0.73400003 4294967295
0.024241256 0.19629429 0.73400003 4292204504
0.025635755 0.19629472 0.73400003 4287142316
0.027030258 0.19629513 0.73400003 4278190095
0.028502217 0.19683044 0.736 4278190080
0.02990054 0.19683096 0.736 4286871410
0.031383913 0.19736636 0.73799998 4290884515
0.032786049 0.19736691 0.73799998 4294964966
0.034188189 0.19736749 0.73799998 4294967295
-0.17751846 0.17774376 0.65899998 4291081129
-0.1762637 0.17774184 0.65899998 4291344557
-0.15911342 0.17959741 0.66600001 4294967295
-0.14497636 0.18091705 0.671 4294967295
-0.0008490269 0.19526908 0.72500002 4278190080
0.00052839756 0.19526884 0.72500002 4278190080
0.0019058171 0.19526862 0.72500002 4279506721
0.0032832327 0.19526842 0.72500002 4279703069
0.004660645 0.19526829 0.72500002 4279505690
0.0060380548 0.19526823 0.72500002 4280025610
0.0074359169 0.1958068 0.727 4280946712
0.0088171214 0.19580679 0.727 4289564955
0.010198326 0.19580676 0.727 4292130625
0.01157953 0.19580683 0.727 4291601590
0.012978563 0.19607627 0.72799999 4290943917
0.014361665 0.19607635 0.72799999 4289372008
0.015744772 0.19607651 0.72799999 4279700224
0.017127881 0.19607671 0.72799999 4278779904
0.018561844 0.19661561 0.73000002 4280620306
0.01994876 0.19661584 0.73000002 4285752193
0.021423357 0.19742414 0.73299998 4294966271
0.022815978 0.19742446 0.73299998 4294967295
0.024241634 0.19769417 0.73400003 4293914607
0.025636161 0.19769454 0.73400003 4290690998
0.027030703 0.19769499 0.73400003 4278190080
0.02842525 0.19769546 0.73400003 4278190080
0.029901052 0.19823462 0.736 4284241752
0.031299412 0.19823514 0.736 4288583078
0.032697786 0.19823574 0.736 4294833151
0.034096163 0.19823633 0.736 4294835193
-0.17599818 0.17872575 0.65799999 4288903800
-0.17375609 0.17899342 0.65899998 4289959027
-0.17250127 0.17899141 0.65899998 4293250987
-0.15990219 0.18032578 0.66399997 4294306791
-0.15863784 0.18032353 0.66399997 4294767856
-0.13623922 0.18245059 0.67199999 4294967295
-0.13495991 0.18244813 0.67199999 4294967295
-0.13279542 0.18298618 0.67400002 4294967287
-0.00084693823 0.19610938 0.72299999 4278190083
0.00052599271 0.19583793 0.722 4278190080
0.0018977473 0.19583769 0.722 4279835934
0.003269498 0.19583751 0.722 4280294677
0.0046476736 0.19610861 0.72299999 4280360470
0.0060213176 0.19610849 0.72299999 4279503893
0.0073949606 0.19610848 0.72299999 4279503893
0.0087685995 0.19610843 0.72299999 4283048704
0.010170297 0.19665092 0.72500002 4285022742
0.01157959 0.19719344 0.727 4287189350
0.012960831 0.19719353 0.727 4287123557
0.014342067 0.19719362 0.727 4285616978
0.015723309 0.1971938 0.727 4281209104
0.017104555 0.19719397 0.727 4278847761
0.018511225 0.19746542 0.72799999 4278190084
0.019894373 0.19746566 0.72799999 4285292855
0.021277526 0.19746597 0.72799999 4294965454
0.022722937 0.19800878 0.73000002 4294967295
0.025531789 0.19828075 0.73100001 4290822866
0.026920661 0.19828118 0.73100001 4279045918
0.028386999 0.19882414 0.73299998 4278190080
0.029820314 0.19909588 0.73400003 4280362528
0.031214908 0.1990964 0.73400003 4288909951
0.032609511 0.19909699 0.73400003 4294963678
0.034004118 0.19909753 0.73400003 4294768887
-0.17224151 0.17997353 0.65799999 4289635218
-0.15840118 0.18131551 0.66299999 4282852894
-0.14433299 0.18265493 0.66799998 4291081629
-0.13731632 0.18346074 0.671 4291938754
-0.13603891 0.18345834 0.671 4292267719
-0.13368307 0.18372685 0.67199999 4292465351
-0.13240382 0.18372439 0.67199999 4292530642
-0.13112462 0.18372197 0.67199999 4294438639
-0.12032466 0.18479356 0.676 4294967294
-0.11903806 0.1847911 0.676 4294967295
-0.11775152 0.1847887 0.676 4294967288
-0.11517849 0.18478388 0.676 4294967295
-0.11389202 0.18478149 0.676 4294967294
-0.11293873 0.1853258 0.67799997 4294967292
-0.11164854 0.18532343 0.67799997 4294967295
-0.11052113 0.18559439 0.67900002 4294967290
-0.1090682 0.18531871 0.67799997 4294834932
-0.10777806 0.18531632 0.67799997 4294966011
-0.10664505 0.18558732 0.67900002 4294966269
-0.10535308 0.18558495 0.67900002 4294637814
-0.10360139 0.1847627 0.676 4294308849
-0.074678317 0.1896304 0.69400001 4291545030
-0.072724432 0.18798909 0.68800002 4290887111
-0.071416207 0.18798724 0.68800002 4290558146
-0.070107996 0.18798536 0.68800002 4290361796
-0.060154054 0.18551417 0.67900002 4289574322
-0.058863197 0.18551254 0.67900002 4289966775
0.00052431616 0.19666876 0.72000003 4278190080
0.0018923059 0.19666857 0.72000003 4279638810
0.0032693476 0.19721469 0.722 4280096784
0.0046411296 0.19721453 0.722 4280754458
0.0060129082 0.19721441 0.722 4280293153
0.0073949131 0.1974875 0.72299999 4279503893
0.0087685883 0.19748747 0.72299999 4281405717
0.010142262 0.19748747 0.72299999 4281010959
0.011515936 0.19748753 0.72299999 4281466886
0.012889611 0.19748762 0.72299999 4281860107
0.014263284 0.19748773 0.72299999 4281405717
0.015680216 0.19803417 0.72500002 4281537303
0.017057694 0.19803436 0.72500002 4280426288
0.018435173 0.19803455 0.72500002 4278255631
0.019894639 0.19885424 0.72799999 4284301056
0.021277824 0.19885452 0.72799999 4294962077
0.022723272 0.19940116 0.73000002 4294967294
0.025532195 0.19967501 0.73100001 4294044907
0.026921103 0.19967546 0.73100001 4282465340
0.02978019 0.2002227 0.73299998 4278981913
0.032610085 0.20049696 0.73400003 4294960127
0.034004726 0.20049751 0.73400003 4294966265
-0.17519952 0.18040669 0.65499997 4278255619
-0.17395245 0.18040483 0.65499997 4278190080
-0.15082905 0.18256558 0.66299999 4282193152
-0.14956668 0.18256329 0.66299999 4282719748
-0.14852799 0.18283631 0.66399997 4283377412
-0.14726375 0.18283398 0.66399997 4283903756
-0.14599954 0.18283169 0.66399997 4285017643
-0.14473531 0.18282931 0.66399997 4286201660
-0.14052001 0.1839212 0.66799998 4288048228
-0.13924825 0.1839188 0.66799998 4289167740
-0.13797651 0.18391642 0.66799998 4289233533
-0.1358386 0.18446226 0.67000002 4290880411
-0.1345631 0.18445985 0.67000002 4290555555
-0.13328764 0.18445741 0.67000002 4290555555
-0.1320122 0.18445502 0.67000002 4291280003
-0.1309319 0.18472789 0.671 4293516964
-0.12984782 0.18500078 0.67199999 4294967030
-0.12582284 0.18471824 0.671 4294967295
-0.12436004 0.18444054 0.67000002 4294967295
-0.12308476 0.18443814 0.67000002 4292992989
-0.12199131 0.18471099 0.671 4293582549
-0.12125389 0.18553443 0.67400002 4293779671
-0.11997109 0.18553202 0.67400002 4293713369
-0.1186883 0.18552962 0.67400002 4294173920
-0.11740555 0.18552722 0.67400002 4294175201
-0.1162951 0.18580008 0.67500001 4294701545
-0.11501051 0.18579771 0.67500001 4294966519
-0.11372593 0.18579534 0.67500001 4294966776
-0.1124414 0.18579294 0.67500001 4294967287
-0.11132154 0.18606582 0.676 4294967289
-0.11003517 0.1860635 0.676 4294967290
-0.10874881 0.18606116 0.676 4294967031
-0.10746248 0.18605877 0.676 4294967290
-0.10617618 0.18605644 0.676 4294966776
-0.10488992 0.18605414 0.676 4294967030
-0.10360368 0.18605185 0.676 4294834930
-0.10262019 0.1866 0.67799997 4294834932
-0.10133021 0.18659775 0.67799997 4294769139
-0.10004025 0.18659544 0.67799997 4294965748
-0.098895997 0.18686841 0.67900002 4294505197
-0.097747959 0.18714137 0.68000001 4294701806
-0.096737973 0.18768953 0.68199998 4294307305
-0.095440529 0.18768729 0.68199998 4294110439
-0.094143137 0.18768512 0.68199998 4293913060
-0.092981905 0.18795815 0.68300003 4293913060
-0.091682665 0.18795596 0.68300003 4293649888
-0.090780444 0.18877935 0.68599999 4293913056
-0.088953838 0.18767646 0.68199998 4293650140
-0.087656587 0.18767434 0.68199998 4293256931
-0.086612642 0.18822262 0.68400002 4293125089
-0.085561097 0.18877088 0.68599999 4293125089
-0.076651253 0.18930706 0.68800002 4292071890
-0.075342923 0.18930516 0.68800002 4291939536
-0.074034594 0.18930323 0.68800002 4291939536
-0.072726317 0.18930134 0.68800002 4291611089
-0.071418062 0.18929948 0.68800002 4291676882
-0.070007928 0.18902248 0.68699998 4291415504
-0.068701625 0.18902065 0.68699998 4291152332
-0.064782917 0.18901534 0.68699998 4291020998
-0.062829956 0.18708773 0.68000001 4290823620
-0.061537109 0.18708608 0.68000001 4290626238
-0.06015569 0.18680927 0.67900002 4290560445
-0.05886481 0.18680768 0.67900002 4290756543
-0.057573948 0.1868061 0.67900002 4290690750
-0.039395802 0.19256234 0.69999999 4290163125
-0.0380654 0.19256112 0.69999999 4290360504
-0.0022088953 0.19776757 0.71899998 4292599526
-0.0008427616 0.19776732 0.71899998 4280690993
0.00052336708 0.19776706 0.71899998 4278190080
0.0018894909 0.19776687 0.71899998 4279504141
0.0032601394 0.1980418 0.72000003 4279833356
0.0046281558 0.19804163 0.72000003 4280557335
0.0059961695 0.19804153 0.72000003 4280623392
0.0073846364 0.19859158 0.722 4280557343
0.0087564467 0.19859156 0.722 4280491551
0.010128256 0.19859153 0.722 4280096794
0.011500061 0.19859156 0.722 4279703319
0.0128897 0.1988667 0.72299999 4279900698
0.014263408 0.19886683 0.72299999 4280361249
0.015637118 0.19886695 0.72299999 4280427042
0.01701083 0.19886713 0.72299999 4280558126
0.018384542 0.19886734 0.72299999 4279176473
0.019812915 0.19941768 0.72500002 4284157696
0.02119044 0.19941799 0.72500002 4294953126
0.022567965 0.19941829 0.72500002 4294308586
0.024044573 0.20024379 0.72799999 4294703344
0.026884707 0.20079471 0.73000002 4284043093
0.028271755 0.20079516 0.73000002 4280162074
0.029699437 0.20107071 0.73100001 4278977799
0.031088399 0.20107122 0.73100001 4283971083
0.032477364 0.20107178 0.73100001 4294960312
0.033866342 0.20107235 0.73100001 4294834932
-0.16896583 0.1816451 0.65499997 4294966000
-0.16771871 0.18164313 0.65499997 4294637036
-0.16572893 0.18219376 0.65700001 4294966521
-0.16347541 0.18246691 0.65799999 4278255616
-0.16222252 0.18246482 0.65799999 4278190080
-0.16121428 0.18274 0.65899998 4280359970
-0.1599595 0.18273787 0.65899998 4280162825
-0.1554106 0.18328378 0.66100001 4279115557
-0.15312476 0.18355659 0.662 4279442962
-0.15186429 0.18355434 0.662 4279509011
-0.15060385 0.18355209 0.662 4280948759
-0.1493434 0.18354979 0.662 4280816917
-0.14830664 0.18382476 0.66299999 4281469963
-0.1470443 0.1838225 0.66299999 4280745984
-0.14578199 0.18382017 0.66299999 4281467396
-0.14451967 0.18381785 0.66299999 4281401347
-0.14325736 0.18381551 0.66299999 4281401353
-0.13904217 0.18491507 0.667 4280614912
-0.13670719 0.18518756 0.66799998 4280221696
-0.13543548 0.18518518 0.66799998 4280221696
-0.13416381 0.18518278 0.66799998 4279304192
-0.13073917 0.18573004 0.67000002 4293119949
-0.12946378 0.18572764 0.67000002 4294967284
-0.1281884 0.18572526 0.67000002 4294966770
-0.12691306 0.18572286 0.67000002 4294834678
-0.12582524 0.18599764 0.671 4294966521
-0.12436243 0.18571804 0.67000002 4294966778
-0.12308716 0.18571566 0.67000002 4288650136
-0.12199371 0.18599045 0.671 4282397528
-0.12089647 0.18626525 0.67199999 4279831600
-0.11961747 0.18626286 0.67199999 4281996821
-0.11833849 0.18626048 0.67199999 4283180838
-0.11740792 0.18681245 0.67400002 4283051557
-0.1161252 0.18681009 0.67400002 4283314729
-0.11484249 0.18680772 0.67400002 4282924335
-0.11372829 0.18708251 0.67500001 4283384886
-0.11244375 0.18708017 0.67500001 4283978040
-0.11115921 0.18707781 0.67500001 4284701507
-0.11003751 0.18735261 0.676 4286211920
-0.10859027 0.18707316 0.67500001 4287067229
-0.10730584 0.18707085 0.67500001 4287659877
-0.10602143 0.18706851 0.67500001 4288383857
-0.10473706 0.18706624 0.67500001 4288779128
-0.10360598 0.18734105 0.676 4289371265
-0.10231974 0.18733878 0.676 4289568919
-0.10103355 0.1873365 0.676 4289568919
-0.099747404 0.18733427 0.676 4290291613
-0.098898247 0.18816338 0.67900002 4290884006
-0.097606435 0.18816115 0.67900002 4290884004
-0.096456505 0.18843605 0.68000001 4290949797
-0.095162876 0.18843384 0.68000001 4290753200
-0.093869254 0.18843165 0.68000001 4290687406
-0.092847936 0.18898365 0.68199998 4291016619
-0.091282114 0.18842731 0.68000001 4291148205
-0.089988597 0.18842517 0.68000001 4291017149
-0.088955969 0.18897723 0.68199998 4293451746
-0.087401636 0.18842095 0.68000001 4293978853
-0.086108215 0.18841887 0.68000001 4293913060
-0.084814817 0.18841678 0.68000001 4293716710
-0.083521448 0.18841471 0.68000001 4293782503
-0.082469963 0.18896687 0.68199998 4293848548
-0.081291877 0.1892419 0.68300003 4292993239
-0.080461375 0.19034819 0.68699998 4293124059
-0.079154812 0.19034617 0.68699998 4293518561
-0.077848285 0.19034421 0.68699998 4293584095
-0.076541781 0.19034228 0.68699998 4293715682
-0.075235322 0.19034036 0.68699998 4293649636
-0.073928885 0.19033845 0.68699998 4293715686
-0.072622471 0.19033657 0.68699998 4293387495
-0.071316101 0.19033471 0.68699998 4293255909
-0.070009746 0.19033289 0.68699998 4293059296
-0.068703428 0.19033109 0.68699998 4293322724
-0.06739714 0.19032928 0.68699998 4293322470
-0.066090874 0.19032754 0.68699998 4292796126
-0.064784639 0.19032578 0.68699998 4293387745
-0.063478433 0.19032407 0.68699998 4293453538
-0.061538771 0.18838315 0.68000001 4293256157
-0.060157325 0.18810448 0.67900002 4293124828
-0.058866408 0.18810284 0.67900002 4293059035
-0.058253869 0.19031745 0.68699998 4292993241
-0.056947805 0.19031589 0.68699998 4292861142
-0.047109287 0.19279729 0.69599998 4291216077
-0.045786336 0.19279596 0.69599998 4291150284
-0.04205792 0.19390006 0.69999999 4291413703
-0.040611088 0.19334483 0.69800001 4291413703
-0.039284434 0.19334364 0.69800001 4291281606
-0.037957806 0.19334245 0.69800001 4291018434
-0.036578711 0.19306432 0.69700003 4291084227
-0.03525402 0.1930632 0.69700003 4291215556
-0.033929348 0.19306211 0.69700003 4290624189
-0.0022030417 0.19858523 0.71700001 4292140513
-0.00084067346 0.19858493 0.71700001 4284903026
0.00052168936 0.19858469 0.71700001 4278190080
0.0018840476 0.1985845 0.71700001 4278190080
0.0032554574 0.19913825 0.71899998 4278190080
0.0046280366 0.1994151 0.72000003 4278190080
0.0059960843 0.19941497 0.72000003 4278190081
0.0073641306 0.19941491 0.72000003 4278389006
0.0087321745 0.19941486 0.72000003 4278390025
0.010100218 0.19941489 0.72000003 4278390025
0.011500115 0.19996883 0.722 4278521362
0.012871957 0.1999689 0.722 4279244828
0.0142438 0.19996901 0.722 4279311127
0.015637271 0.20024608 0.72299999 4279771678
0.017011017 0.20024627 0.72299999 4280034081
0.018384766 0.20024648 0.72299999 4279771165
0.019758517 0.20024672 0.72299999 4281797888
0.02113227 0.200247 0.72299999 4285416494
0.02250603 0.20024729 0.72299999 4286538573
0.023879794 0.20024768 0.72299999 4288512363
0.025393274 0.2013559 0.727 4286476934
0.026811479 0.20163324 0.72799999 4284108386
0.028194761 0.20163371 0.72799999 4281150263
0.031046404 0.20218866 0.73000002 4282394125
0.032433499 0.20218918 0.73000002 4292460710
0.033820614 0.20218976 0.73000002 4294964953
0.035207734 0.20219037 0.73000002 4294967010
-0.16772072 0.18289123 0.65499997 4294637551
-0.16647354 0.18288925 0.65499997 4294967295
-0.16522643 0.18288724 0.65499997 4294637301
-0.16197807 0.18343957 0.65700001 4278452224
-0.16072713 0.18343751 0.65700001 4280555283
-0.15971887 0.18371458 0.65799999 4279504896
-0.15846601 0.18371247 0.65799999 4285689437
-0.15619734 0.18398741 0.65899998 4284644249
-0.15494254 0.18398519 0.65899998 4284643211
-0.15163714 0.18453698 0.66100001 4278199350
-0.14808522 0.1848094 0.662 4280688931
-0.14578427 0.18508399 0.66299999 4280294677
-0.14452197 0.18508169 0.66299999 4280228884
-0.14325969 0.18507941 0.66299999 4280097825
-0.1422116 0.18535623 0.66399997 4279900446
-0.13523512 0.18617959 0.667 4278452224
-0.13396536 0.18617727 0.667 4278255616
-0.13269559 0.18617488 0.667 4278190080
-0.1316229 0.18645164 0.66799998 4278386688
-0.13035129 0.18644927 0.66799998 4293119949
-0.12907968 0.18644688 0.66799998 4294967025
-0.12780812 0.18644451 0.66799998 4294965483
-0.12653659 0.18644217 0.66799998 4294637301
-0.12564012 0.18699801 0.67000002 4294966780
-0.12436481 0.18699561 0.67000002 4294967293
-0.12327325 0.18727234 0.671 4288057999
-0.1219961 0.18726996 0.671 4281481486
-0.12089887 0.18754667 0.67199999 4278190080
-0.11961985 0.1875443 0.67199999 4278517760
-0.11834086 0.18754192 0.67199999 4279175936
-0.1170619 0.18753958 0.67199999 4279633920
-0.11612756 0.18809539 0.67400002 4279831296
-0.11484485 0.18809302 0.67400002 4279831296
-0.11356216 0.18809068 0.67400002 4279699712
-0.11227951 0.18808834 0.67400002 4280487680
-0.11099689 0.18808599 0.67400002 4280487680
-0.10987706 0.18836273 0.67500001 4281272320
-0.10859259 0.18836042 0.67500001 4282061834
-0.10730814 0.1883581 0.67500001 4282916105
-0.10602371 0.18835582 0.67500001 4283442449
-0.10473934 0.18835352 0.67500001 4283641368
-0.10345499 0.18835129 0.67500001 4284693800
-0.10217065 0.18834898 0.67500001 4284827977
-0.10088637 0.18834674 0.67500001 4284893771
-0.099749632 0.18862352 0.676 4286602067
-0.098463491 0.1886213 0.676 4287193947
-0.097464897 0.18917714 0.67799997 4287985515
-0.096316867 0.18945394 0.67900002 4287985515
-0.0950251 0.18945175 0.67900002 4288842372
-0.093733385 0.18944958 0.67900002 4289302923
-0.09257783 0.18972644 0.68000001 4289238925
-0.091284245 0.18972428 0.68000001 4288976009
-0.089990713 0.18972214 0.68000001 4289634916
-0.088697195 0.18972 0.68000001 4293779619
-0.087403722 0.18971792 0.68000001 4294373098
-0.086110294 0.18971586 0.68000001 4294175462
-0.084816866 0.18971381 0.68000001 4293847013
-0.08352349 0.18971175 0.68000001 4294044648
-0.082230128 0.18970969 0.68000001 4294176748
-0.081174858 0.19026569 0.68199998 4291281856
-0.07999488 0.19054267 0.68300003 4292263342
-0.078580692 0.19026175 0.68199998 4292723893
-0.077283651 0.1902598 0.68199998 4292331202
-0.076098055 0.19053683 0.68300003 4292791753
-0.075127721 0.1913718 0.68599999 4292728535
-0.073823161 0.19136992 0.68599999 4293057499
-0.072518624 0.19136804 0.68599999 4293321952
-0.071317933 0.19164518 0.68699998 4293124830
-0.070011564 0.19164331 0.68699998 4293058262
-0.068705216 0.19164151 0.68699998 4293387484
-0.067398913 0.19163977 0.68699998 4293782240
-0.066092618 0.19163799 0.68699998 4293387482
-0.064786367 0.19163625 0.68699998 4293978851
-0.063480124 0.19163454 0.68699998 4293978851
-0.061540425 0.18968026 0.68000001 4293847263
-0.060247548 0.18967865 0.68000001 4293584347
-0.058954708 0.18967704 0.68000001 4293650140
-0.058255471 0.19162799 0.68699998 4293452761
-0.056949373 0.1916264 0.68699998 4293255898
-0.056129269 0.19329844 0.69300002 4293124055
-0.054811813 0.19329689 0.69300002 4293584095
-0.053494379 0.19329539 0.69300002 4293386716
-0.052176978 0.19329391 0.69300002 4293255646
-0.050859597 0.19329247 0.69300002 4293058010
-0.049613733 0.19356996 0.69400001 4292861651
-0.048294496 0.19356853 0.69400001 4292795858
-0.047110651 0.19412497 0.69599998 4292598234
-0.04578767 0.19412363 0.69599998 4292532441
-0.044464704 0.19412231 0.69599998 4292466647
-0.04314176 0.19412103 0.69599998 4292400598
-0.041878927 0.1943987 0.69700003 4292005844
-0.040612303 0.19467638 0.69800001 4291742673
-0.039285623 0.19467518 0.69800001 4291675594
-0.037958961 0.19467402 0.69800001 4291675594
-0.03657984 0.19439398 0.69700003 4291675594
-0.035255115 0.19439285 0.69700003 4291807437
-0.033930417 0.19439179 0.69700003 4291414475
-0.032605723 0.19439073 0.69700003 4291348682
-0.0022002605 0.19967411 0.71600002 4291879135
-0.00083975832 0.19967386 0.71600002 4286089352
0.00052073866 0.19967365 0.71600002 4278193199
0.0018838583 0.19995229 0.71700001 4278190110
0.0032462468 0.1999521 0.71700001 4278190089
0.0046086316 0.19995196 0.71700001 4278190100
0.0059876693 0.20050959 0.71899998 4278192660
0.0073538483 0.20050953 0.71899998 4278192660
0.0087200254 0.20050949 0.71899998 4278191878
0.010086202 0.20050949 0.71899998 4278192135
0.011468305 0.20078841 0.72000003 4278192667
0.012836384 0.20078845 0.72000003 4278260002
0.014204462 0.20078857 0.72000003 4278981157
0.015615797 0.20134646 0.722 4279310121
0.016987676 0.20134661 0.722 4280098368
0.018359557 0.20134681 0.722 4279966782
0.019731442 0.20134705 0.722 4278192922
0.021103332 0.20134734 0.722 4278195235
0.022475222 0.20134762 0.722 4278191875
0.023847116 0.20134793 0.722 4280232229
0.025253946 0.20162715 0.72299999 4280953931
0.026627751 0.20162758 0.72299999 4281808984
0.028156487 0.20274353 0.727 4281218109
0.030961862 0.20302337 0.72799999 4280751362
0.032345198 0.20302393 0.72799999 4291409828
0.03372854 0.20302448 0.72799999 4292796110
-0.1797778 0.18247187 0.64899999 4278191627
-0.16622135 0.18385626 0.65399998 4294834680
-0.16497616 0.1838543 0.65399998 4293650150
-0.16273415 0.18413141 0.65499997 4278190080
-0.16148704 0.18412942 0.65499997 4278255616
-0.16023989 0.18412735 0.65499997 4279043590
-0.15822729 0.18468541 0.65700001 4292786093
-0.15470961 0.18496016 0.65799999 4292270568
-0.15345678 0.184958 0.65799999 4292072932
-0.15243526 0.1852369 0.65899998 4289506712
-0.15118054 0.18523471 0.65899998 4279308800
-0.1499258 0.18523252 0.65899998 4278195211
-0.14867106 0.18523028 0.65899998 4279774243
-0.14660527 0.18578798 0.66100001 4280690218
-0.14430629 0.18606453 0.662 4280821023
-0.1430459 0.18606226 0.662 4280887341
-0.13842146 0.18661515 0.66399997 4280296476
-0.13376684 0.18716793 0.66600001 4280557093
-0.13249899 0.18716559 0.66600001 4278190080
-0.13015853 0.18744192 0.667 4294298562
-0.12781049 0.18771823 0.66799998 4294832867
-0.12653895 0.18771587 0.66799998 4294505458
-0.12526743 0.1877135 0.66799998 4294703094
-0.12309189 0.18827082 0.67000002 4287794829
-0.12181665 0.18826848 0.67000002 4281084470
-0.11944419 0.18854474 0.671 4278784527
-0.11816711 0.18854241 0.671 4279639836
-0.11689005 0.18854007 0.671 4280558348
-0.11578529 0.18881874 0.67199999 4279703040
-0.11450639 0.18881641 0.67199999 4279373056
-0.11322751 0.18881406 0.67199999 4278715392
-0.11228183 0.18937367 0.67400002 4279833356
-0.11099921 0.18937138 0.67400002 4280162578
-0.10971659 0.18936907 0.67400002 4280884513
-0.10843401 0.18936679 0.67400002 4280489755
-0.10715146 0.18936445 0.67400002 4280750360
-0.10602601 0.18964314 0.67500001 4280289809
-0.10474162 0.18964088 0.67500001 4280418304
-0.10345723 0.1896386 0.67500001 4279500800
-0.1021729 0.18963635 0.67500001 4279500800
-0.10088858 0.1896341 0.67500001 4280090625
-0.099604309 0.18963188 0.67500001 4280549376
-0.098465718 0.18991062 0.676 4280943617
-0.097179592 0.18990843 0.676 4280355843
-0.096319072 0.19074903 0.67900002 4279895296
-0.09502729 0.19074681 0.67900002 4281008135
-0.093735561 0.19074467 0.67900002 4281402381
-0.092443839 0.19074252 0.67900002 4281598983
-0.091286384 0.19102128 0.68000001 4279369728
-0.089992829 0.19101916 0.68000001 4280025088
-0.088699318 0.19101708 0.68000001 4293970883
-0.087405831 0.19101498 0.68000001 4294373611
-0.085985713 0.190732 0.67900002 4294439404
-0.084694184 0.19072995 0.67900002 4293913060
-0.083525524 0.19100882 0.68000001 4294110439
-0.08223214 0.19100681 0.68000001 4294045159
-0.08117684 0.19156656 0.68199998 4285623655
-0.079879723 0.19156459 0.68199998 4278386688
-0.078582644 0.19156264 0.68199998 4279962392
-0.077285588 0.19156069 0.68199998 4281273874
-0.076099977 0.19183967 0.68300003 4281076752
-0.074801065 0.19183776 0.68300003 4281475616
-0.073609799 0.19211675 0.68400002 4282265389
-0.07252048 0.1926766 0.68599999 4282465842
-0.071215965 0.19267479 0.68599999 4282926393
-0.069911472 0.19267298 0.68599999 4283913782
-0.068607002 0.19267116 0.68599999 4285032007
-0.067302562 0.19266941 0.68599999 4286148927
-0.065998159 0.19266768 0.68599999 4286938700
-0.064788073 0.19294679 0.68699998 4288186744
-0.063481823 0.19294508 0.68699998 4289042052
-0.062175594 0.19294341 0.68699998 4289238412
-0.060869381 0.19294176 0.68699998 4289369998
-0.059563208 0.19294013 0.68699998 4289699474
-0.058257055 0.19293851 0.68699998 4290160025
-0.057033829 0.19321778 0.68800002 4290029724
-0.055725828 0.19321628 0.68800002 4290029724
-0.054655142 0.19405726 0.69099998 4290359455
-0.053341486 0.19405571 0.69099998 4290886055
-0.052178446 0.19461593 0.69300002 4291609269
-0.050861038 0.19461447 0.69300002 4291346354
-0.049543649 0.19461304 0.69300002 4292661678
-0.04829587 0.19489247 0.69400001 4293385658
-0.046976637 0.19489111 0.69400001 4292926165
-0.045657422 0.19488975 0.69400001 4293584095
-0.044466004 0.1954501 0.69599998 4293255907
-0.043143034 0.19544882 0.69599998 4293124578
-0.041880172 0.19572838 0.69700003 4293453291
-0.040613521 0.19600797 0.69800001 4293716206
-0.039286807 0.19600676 0.69800001 4293716197
-0.037960112 0.1960056 0.69800001 4293847783
-0.036580961 0.19572364 0.69700003 4294044907
-0.035256207 0.19572257 0.69700003 4294374129
-0.033931475 0.19572146 0.69700003 4293716458
-0.032606754 0.1957204 0.69700003 4293585129
-0.031326938 0.19600019 0.69800001 4293519597
-0.030000355 0.19599921 0.69800001 4293453804
-0.028673794 0.19599827 0.69800001 4293585131
-0.0021944062 0.20047848 0.71399999 4291022029
-0.00083767093 0.20047824 0.71399999 4291482580
0.00051905971 0.20047799 0.71399999 4288785611
0.0018757855 0.20047776 0.71399999 4288193473
0.0032325075 0.20047761 0.71399999 4287931819
0.0046020816 0.20103905 0.71600002 4287668903
0.0059625963 0.20103893 0.71600002 4287734174
0.0073231105 0.20103887 0.71600002 4287734174
0.0086957486 0.20131959 0.71700001 4287076499
0.01005816 0.20131959 0.71700001 4286418568
0.01142057 0.20131962 0.71700001 4286286217
0.012818635 0.20188121 0.71899998 4286154374
0.014184845 0.2018813 0.71899998 4284573573
0.015572689 0.20216224 0.72000003 4284376451
0.016940802 0.20216241 0.72000003 4283390852
0.018308915 0.20216261 0.72000003 4283193217
0.019677032 0.20216282 0.72000003 4280762726
0.021045154 0.20216309 0.72000003 4280170589
0.02241328 0.20216338 0.72000003 4278595636
0.023781409 0.20216374 0.72000003 4278200621
0.025149541 0.20216408 0.72000003 4278200363
0.026591342 0.20272605 0.722 4278198821
0.02800202 0.20300727 0.72299999 4278198825
-0.17607288 0.18370333 0.64899999 4280033610
-0.17483735 0.18370163 0.64899999 4280163870
-0.17360181 0.18369995 0.64899999 4278716424
-0.1726318 0.18398125 0.64999998 4279238656
-0.1624877 0.18509659 0.65399998 4278190080
-0.16124251 0.18509464 0.65399998 4278780421
-0.15999728 0.18509261 0.65399998 4278714627
-0.15875208 0.18509057 0.65399998 4282844416
-0.1577477 0.18537155 0.65499997 4294292134
-0.15650059 0.18536946 0.65499997 4294704127
-0.15095329 0.18620786 0.65799999 4279176975
-0.14970051 0.18620569 0.65799999 4278190853
-0.14844768 0.18620348 0.65799999 4278722337
-0.14741859 0.18648425 0.65899998 4279442464
-0.14616391 0.18648204 0.65899998 4279771172
-0.12399828 0.18898495 0.66799998 4294966007
