# .PCD v0.7 - Point Cloud Data file format
VERSION 0.7
FIELDS x y z rgba
SIZE 4 4 4 4
TYPE F F F U
COUNT 1 1 1 1
WIDTH 1099
HEIGHT 1
VIEWPOINT 0 0 0 1 0 0 0
POINTS 1099
DATA ascii
0.23504069 -0.12498074 0.66399997 4293387495
0.23630184 -0.12497985 0.66399997 4293519082
0.23756291 -0.12497889 0.66399997 4293650154
0.23882383 -0.12497787 0.66399997 4293518311
0.24008472 -0.12497681 0.66399997 4293124580
0.24098203 -0.12478749 0.66299999 4293255909
0.24187541 -0.12459811 0.662 4293255909
0.2431322 -0.12459688 0.662 4293321702
0.24438886 -0.1245956 0.662 4293125093
0.24712968 -0.12534708 0.66600001 4293059044
0.24839373 -0.12534569 0.66600001 4293124839
0.24965769 -0.12534423 0.66600001 4293124839
0.25129822 -0.12553091 0.667 4293125093
0.2525638 -0.12552932 0.667 4293059044
0.25382924 -0.12552765 0.667 4292927458
0.25509459 -0.12552594 0.667 4293059044
0.25751281 -0.12608872 0.67000002 4292993251
0.25801104 -0.12571049 0.66799998 4292993251
0.25927782 -0.12570855 0.66799998 4292993253
0.26054454 -0.12570658 0.66799998 4292927460
0.26181105 -0.12570454 0.66799998 4292993253
0.26307741 -0.12570241 0.66799998 4292927460
0.26434359 -0.12570024 0.66799998 4292598495
0.26640493 -0.12607431 0.67000002 4292796130
0.26767457 -0.12607199 0.67000002 4292796130
0.26894411 -0.12606958 0.67000002 4292730081
0.27182668 -0.12681974 0.67400002 4292598493
0.27310342 -0.12681717 0.67400002 4292664542
0.27437997 -0.12681451 0.67400002 4292269530
0.27565637 -0.12681179 0.67400002 4292269530
0.27775434 -0.12718529 0.676 4292335579
0.27985966 -0.12755868 0.67799997 4292335579
0.28114304 -0.1275557 0.67799997 4292269530
0.2865918 -0.12943394 0.68800002 4292269530
0.28789374 -0.12943077 0.68800002 4292072153
0.28919536 -0.12942749 0.68800002 4292137946
0.29049686 -0.12942415 0.68800002 4292006356
0.29179811 -0.12942073 0.68800002 4292269784
0.17400137 -0.13097507 0.70300001 4293518052
0.17483924 -0.13060343 0.70099998 4293583845
0.17541824 -0.13004547 0.69800001 4293583843
0.17649226 -0.1298601 0.69700003 4293583843
0.17705229 -0.12930208 0.69400001 4293518050
0.17811495 -0.12911667 0.69300002 4293649636
0.17891486 -0.12874492 0.69099998 4293649890
0.18022892 -0.12874581 0.69099998 4293649890
0.18128018 -0.1285603 0.69 4293715686
0.1815338 -0.12781584 0.68599999 4294176237
0.18230531 -0.12744401 0.68400002 4293978603
0.18360601 -0.12744479 0.68400002 4293846761
0.18463644 -0.12725921 0.68300003 4293715684
0.18593529 -0.12725995 0.68300003 4293847013
0.18723415 -0.12726066 0.68300003 4293518052
0.18825695 -0.127075 0.68199998 4293649638
0.18899804 -0.12670302 0.68000001 4293715684
0.18973151 -0.12633099 0.67799997 4293847013
0.19102085 -0.12633158 0.67799997 4293649636
0.19174291 -0.1259595 0.676 4293847015
0.19274293 -0.12577374 0.67500001 4293650150
0.19402654 -0.12577425 0.67500001 4293650150
0.19531018 -0.12577474 0.67500001 4293847015
0.19659379 -0.12577522 0.67500001 4293912808
0.19787741 -0.12577567 0.67500001 4293847785
0.19916101 -0.12577608 0.67500001 4293847785
0.20044453 -0.12577644 0.67500001 4293715945
0.20172814 -0.1257768 0.67500001 4293979116
0.20301169 -0.12577713 0.67500001 4293847785
0.20429523 -0.12577741 0.67500001 4294044907
0.20527415 -0.12559132 0.67400002 4293847785
0.20563635 -0.12503253 0.671 4293584356
0.2069122 -0.12503272 0.671 4293715945
0.20818806 -0.12503287 0.671 4293781738
0.20946379 -0.12503298 0.671 4293715945
0.21042551 -0.12484673 0.67000002 4293715945
0.21106739 -0.12447409 0.66799998 4293715945
0.21201955 -0.12428777 0.667 4293715945
0.21328756 -0.12428774 0.667 4293650152
0.21423395 -0.12410133 0.66600001 4293584358
0.21549997 -0.12410121 0.66600001 4293518311
0.21676601 -0.12410107 0.66600001 4293584105
0.21737723 -0.12372819 0.66399997 4293453542
0.21863936 -0.12372795 0.66399997 4293387749
0.21990144 -0.1237277 0.66399997 4293321954
0.22116348 -0.1237274 0.66399997 4293387747
0.22242549 -0.12372705 0.66399997 4293519336
0.22335047 -0.1235403 0.66299999 4293321700
0.22461045 -0.12353986 0.66299999 4293387749
0.22587034 -0.12353937 0.66299999 4293519336
0.22747275 -0.12372518 0.66399997 4293255655
0.22873437 -0.12372457 0.66399997 4293519084
0.22999597 -0.12372394 0.66399997 4293519336
0.23125748 -0.12372328 0.66399997 4293387749
0.23251894 -0.12372255 0.66399997 4293453542
0.23378026 -0.12372176 0.66399997 4293782251
0.23504159 -0.12372096 0.66399997 4293387495
0.23630275 -0.12372006 0.66399997 4293387495
0.23756388 -0.12371915 0.66399997 4293518313
0.23882487 -0.12371815 0.66399997 4293386984
0.24008581 -0.12371711 0.66399997 4293255142
0.24098314 -0.12352971 0.66299999 4293321191
0.24187665 -0.12334225 0.662 4293124326
0.24313343 -0.12334105 0.662 4293255655
0.24439019 -0.12333981 0.662 4293124326
0.24713103 -0.12408372 0.66600001 4293124326
0.24839516 -0.12408236 0.66600001 4293255909
0.24965912 -0.12408092 0.66600001 4293321702
0.25092301 -0.12407943 0.66600001 4293059046
0.25256541 -0.12426417 0.667 4292993253
0.25383091 -0.12426254 0.667 4292927458
0.25509632 -0.12426087 0.667 4292993251
0.2567459 -0.12444541 0.66799998 4292993251
0.25801292 -0.12444358 0.66799998 4293059044
0.25889164 -0.12425542 0.667 4292796130
0.26015651 -0.12425348 0.667 4292796130
0.2618131 -0.12443775 0.66799998 4292730081
0.26268575 -0.12424941 0.667 4292664288
0.26395008 -0.12424725 0.667 4292664288
0.26561192 -0.1244313 0.66799998 4292927460
0.26687792 -0.12442901 0.66799998 4292730081
0.26814374 -0.12442666 0.66799998 4292598495
0.27182919 -0.12554181 0.67400002 4292664542
0.27229559 -0.12516676 0.67199999 4292993251
0.27356842 -0.12516415 0.67199999 4292466141
0.27565908 -0.125534 0.67400002 4292400348
0.27775717 -0.12590373 0.676 4292400602
0.27986258 -0.12627338 0.67799997 4292400602
0.28156069 -0.12645669 0.67900002 4292334553
0.28451213 -0.12719865 0.68300003 4292334553
0.28705999 -0.12775423 0.68599999 4292400348
0.28919864 -0.12812346 0.68800002 4292334555
0.29050019 -0.12812017 0.68800002 4292006356
0.29180151 -0.12811679 0.68800002 4292203991
0.17132698 -0.12963867 0.70300001 4293583843
0.17266366 -0.12963969 0.70300001 4293583843
0.17400037 -0.12964067 0.70300001 4293583843
0.17458884 -0.12908842 0.69999999 4293583843
0.17516598 -0.12853616 0.69700003 4293584097
0.17623812 -0.12835267 0.69599998 4293518304
0.17705137 -0.12798476 0.69400001 4293452257
0.17811404 -0.12780125 0.69300002 4293649636
0.178914 -0.1274333 0.69099998 4293649636
0.17996719 -0.12724976 0.69 4293715686
0.1807539 -0.12688176 0.68800002 4293847015
0.18153298 -0.12651373 0.68599999 4294110187
0.18230449 -0.12614571 0.68400002 4293714661
0.18333684 -0.12596206 0.68300003 4293648868
0.18463571 -0.12596281 0.68300003 4293517537
0.18593456 -0.12596354 0.68300003 4293780708
0.18723345 -0.12596425 0.68300003 4293452259
0.18825628 -0.12578052 0.68199998 4293518052
0.18871947 -0.12522788 0.67900002 4293649890
0.18973088 -0.12504409 0.67799997 4293649890
0.19045679 -0.12467585 0.676 4293452257
0.19174238 -0.12467642 0.676 4293518050
0.19274239 -0.12449256 0.67500001 4293518302
0.19402602 -0.12449308 0.67500001 4293518302
0.19530968 -0.12449358 0.67500001 4293583843
0.1963021 -0.12430964 0.67400002 4293715686
0.19758381 -0.12431006 0.67400002 4293715686
0.19886553 -0.12431049 0.67400002 4293847015
0.20014724 -0.12431087 0.67400002 4293715686
0.20142895 -0.12431124 0.67400002 4293912808
0.20301139 -0.12449601 0.67500001 4293912810
0.20399228 -0.12431185 0.67400002 4293978603
0.20466478 -0.12394323 0.67199999 4293585129
0.20563614 -0.12375902 0.671 4293585129
0.20691203 -0.12375923 0.671 4293781738
0.20818789 -0.12375938 0.671 4293781738
0.20946372 -0.12375952 0.671 4293650154
0.20979731 -0.1232063 0.66799998 4293650154
0.2107514 -0.1230219 0.667 4293517798
0.21170166 -0.12283748 0.66600001 4293649641
0.21296784 -0.12283746 0.66600001 4293649638
0.21423401 -0.12283742 0.66600001 4293649638
0.21485293 -0.12246843 0.66399997 4293649638
0.21611524 -0.12246831 0.66399997 4293649638
0.21705005 -0.12228368 0.66299999 4293387749
0.21831036 -0.12228347 0.66299999 4293387749
0.21957056 -0.12228321 0.66299999 4293256161
0.22083071 -0.12228291 0.66299999 4293453540
0.22209087 -0.12228258 0.66299999 4293453542
0.2233509 -0.12228221 0.66299999 4293321700
0.22427213 -0.12209735 0.662 4293255907
0.22553018 -0.12209687 0.662 4293453542
0.22747329 -0.12246522 0.66399997 4293321702
0.228735 -0.12246466 0.66399997 4293453289
0.22999662 -0.12246405 0.66399997 4293519336
0.23125815 -0.12246338 0.66399997 4293453542
0.23251969 -0.12246268 0.66399997 4293387749
0.23378104 -0.12246193 0.66399997 4293585129
0.23504239 -0.12246113 0.66399997 4293387749
0.23630367 -0.12246027 0.66399997 4293453542
0.23756483 -0.12245937 0.66399997 4293518313
0.2388259 -0.12245842 0.66399997 4293386984
0.24008684 -0.12245739 0.66399997 4293321187
0.24098428 -0.12227193 0.66299999 4293321187
0.24187778 -0.12208638 0.662 4293321187
0.24313463 -0.12208521 0.662 4293255394
0.24439146 -0.12208398 0.662 4293321189
0.24713242 -0.12282037 0.66600001 4293386982
0.24765058 -0.12245016 0.66399997 4293321191
0.24891086 -0.12244879 0.66399997 4293255142
0.2509245 -0.12281613 0.66600001 4292926944
0.25256696 -0.122999 0.667 4293058531
0.25383255 -0.12299741 0.667 4293059298
0.25509802 -0.12299578 0.667 4292993505
0.25636333 -0.12299406 0.667 4292993505
0.25762853 -0.12299228 0.667 4292993505
0.25889352 -0.12299042 0.667 4292796128
0.26015848 -0.12298852 0.667 4292730335
0.2614232 -0.12298655 0.667 4292598495
0.26268783 -0.12298451 0.667 4292664288
0.26395226 -0.1229824 0.667 4292730081
0.26521656 -0.12298022 0.667 4292730081
0.26648071 -0.12297798 0.667 4292598495
0.26774466 -0.12297565 0.667 4292664288
0.27062172 -0.12371073 0.671 4292730333
0.27189294 -0.12370828 0.671 4292730333
0.27316394 -0.12370571 0.671 4292335325
0.27566183 -0.12425617 0.67400002 4292335325
0.27775991 -0.12462215 0.676 4292400600
0.27986541 -0.12498805 0.67799997 4292400600
0.28156367 -0.12516953 0.67900002 4292071638
0.2840986 -0.12571958 0.68199998 4292400602
0.28622621 -0.12608519 0.68400002 4292466395
0.28920186 -0.12681936 0.68800002 4292203224
0.29050353 -0.12681614 0.68800002 4291875028
0.29180494 -0.1268128 0.68800002 4291875028
0.29523626 -0.12773095 0.69300002 4291939797
0.16565609 -0.13121675 0.71899998 4292794604
0.16702305 -0.13121791 0.71899998 4293517798
0.16792159 -0.130854 0.71700001 4293715434
0.16928478 -0.13085513 0.71700001 4293452509
0.169934 -0.13030869 0.71399999 4293584095
0.17057182 -0.12976223 0.71100003 4293518302
0.17095649 -0.12903328 0.70700002 4293584095
0.17132594 -0.12830426 0.70300001 4293584095
0.17266265 -0.12830527 0.70300001 4293452509
0.17350434 -0.12794124 0.70099998 4293518304
0.17408907 -0.12739471 0.69800001 4293452255
0.175165 -0.12721315 0.69700003 4293452509
0.17623721 -0.12703158 0.69599998 4293452509
0.17705046 -0.12666747 0.69400001 4293452257
0.17811316 -0.12648587 0.69300002 4293518050
0.17865424 -0.12593919 0.69 4293583843
0.17996638 -0.12594005 0.69 4293715686
0.18075308 -0.12557586 0.68800002 4293715686
0.18153219 -0.12521161 0.68599999 4294044394
0.18230371 -0.12484737 0.68400002 4293649638
0.18333606 -0.12466563 0.68300003 4293583845
0.18463495 -0.12466641 0.68300003 4293583845
0.18593384 -0.12466714 0.68300003 4293912810
0.18723275 -0.12466785 0.68300003 4293583845
0.18825556 -0.124486 0.68199998 4293518052
0.1887188 -0.12393907 0.67900002 4293584097
0.18973026 -0.12375719 0.67799997 4293584097
0.19045618 -0.12339274 0.676 4293386210
0.19174176 -0.12339331 0.676 4293583845
0.19274184 -0.12321135 0.67500001 4293584095
0.1940255 -0.12321188 0.67500001 4293584095
0.19501986 -0.12302987 0.67400002 4293715432
0.19630162 -0.12303035 0.67400002 4293846761
0.19758341 -0.1230308 0.67400002 4293847015
0.1976849 -0.12230106 0.67000002 4293912808
0.19895905 -0.12230147 0.67000002 4293715686
0.20083086 -0.1226669 0.67199999 4293715686
0.2027103 -0.12303232 0.67400002 4293912556
0.20399199 -0.12303261 0.67400002 4293912556
0.20435998 -0.12248527 0.671 4293715945
0.20563592 -0.1224855 0.671 4293781738
0.20691183 -0.12248572 0.671 4293781738
0.20818771 -0.12248587 0.671 4293781738
0.20915145 -0.12230349 0.67000002 4293846765
0.20979719 -0.12193849 0.66799998 4293912558
0.21075135 -0.12175602 0.667 4293583593
0.21170163 -0.12157351 0.66600001 4293517800
0.21296786 -0.12157351 0.66600001 4293583591
0.21359071 -0.12120836 0.66399997 4293649641
0.21485305 -0.1212083 0.66399997 4293518565
0.21611536 -0.12120817 0.66399997 4293518565
0.21705025 -0.12102548 0.66299999 4293584105
0.21831055 -0.12102527 0.66299999 4293518311
0.21957082 -0.12102503 0.66299999 4293518565
0.22083107 -0.12102477 0.66299999 4293650152
0.22209118 -0.12102443 0.66299999 4293649636
0.22335131 -0.12102409 0.66299999 4293518050
0.22427256 -0.12084112 0.662 4293321702
0.22553064 -0.12084066 0.662 4293716460
0.22678867 -0.12084018 0.662 4293585131
0.22839107 -0.12102216 0.66299999 4293453289
0.22999726 -0.12120412 0.66399997 4293453540
0.23125885 -0.12120347 0.66399997 4293519334
0.2325204 -0.12120278 0.66399997 4293584358
0.23378183 -0.12120205 0.66399997 4293650152
0.23504321 -0.12120127 0.66399997 4293583845
0.23630452 -0.12120045 0.66399997 4293649638
0.23756573 -0.12119956 0.66399997 4293518565
0.23882684 -0.12119862 0.66399997 4293255394
0.24008787 -0.12119764 0.66399997 4293255907
0.24134882 -0.1211966 0.66399997 4293585129
0.24260966 -0.1211955 0.66399997 4293255907
0.24387035 -0.12119433 0.66399997 4293124578
0.24513103 -0.12119314 0.66399997 4293255396
0.24639156 -0.12119189 0.66399997 4293321189
0.24765198 -0.12119058 0.66399997 4293255396
0.24891229 -0.12118921 0.66399997 4293255396
0.25017244 -0.12118775 0.66399997 4293124578
0.25143251 -0.12118627 0.66399997 4293453542
0.25383413 -0.12173223 0.667 4292993505
0.25509965 -0.12173061 0.667 4292927712
0.25636503 -0.12172893 0.667 4292927709
0.25763029 -0.12172719 0.667 4292927709
0.2588954 -0.12172537 0.667 4292796126
0.26016039 -0.12172352 0.667 4292664540
0.2614252 -0.12172158 0.667 4292664542
0.26268983 -0.12171955 0.667 4292730335
0.26395437 -0.12171749 0.667 4292795356
0.2652187 -0.12171534 0.667 4292861149
0.26648295 -0.12171315 0.667 4292663775
0.26774698 -0.12171085 0.667 4292795104
0.27022082 -0.12225593 0.67000002 4292730333
0.27149022 -0.12225351 0.67000002 4292730333
0.27316651 -0.12243345 0.671 4292335579
0.27484646 -0.12261335 0.67199999 4292203737
0.27776268 -0.12334051 0.676 4292269782
0.27986822 -0.12370267 0.67799997 4292335575
0.28115186 -0.12369984 0.67799997 4292203226
0.28285187 -0.12387938 0.67900002 4292203226
0.2858108 -0.12460614 0.68300003 4292203478
0.28836435 -0.12515034 0.68599999 4292137429
0.28966227 -0.12514713 0.68599999 4291808983
0.29180825 -0.12550874 0.68800002 4291677141
0.29523972 -0.12641749 0.69300002 4291742673
0.29655018 -0.126414 0.69300002 4292005844
0.16428806 -0.12985089 0.71899998 4289303714
0.16565496 -0.12985203 0.71899998 4293777895
0.16655731 -0.12949196 0.71700001 4293451492
0.16768628 -0.12931247 0.71600002 4293648870
0.16857539 -0.12895234 0.71399999 4293255131
0.1696949 -0.12877283 0.713 4293518302
0.17057078 -0.12841268 0.71100003 4293386462
0.17095545 -0.1276913 0.70700002 4293584097
0.17132492 -0.1269699 0.70300001 4293517791
0.17266165 -0.12697092 0.70300001 4293649120
0.17350337 -0.12661068 0.70099998 4293452255
0.17408811 -0.12606981 0.69800001 4293452255
0.17516409 -0.12589018 0.69700003 4293452509
0.17572981 -0.12534925 0.69400001 4293518302
0.17679444 -0.12516956 0.69300002 4293320155
0.17759819 -0.12480921 0.69099998 4293649120
0.17865334 -0.12462948 0.69 4293583843
0.17944388 -0.12426912 0.68800002 4293649636
0.18075226 -0.12426995 0.68800002 4293649636
0.18153137 -0.12390953 0.68599999 4293847015
0.18230292 -0.12354907 0.68400002 4293650150
0.18333532 -0.12336925 0.68300003 4293584356
0.18463421 -0.12336999 0.68300003 4293584358
0.1859331 -0.12337072 0.68300003 4293650152
0.18723205 -0.12337145 0.68300003 4293583845
0.18825492 -0.12319151 0.68199998 4293583845
0.18871816 -0.12265027 0.67900002 4293584097
0.18972965 -0.12247029 0.67799997 4293584097
0.19101906 -0.1224709 0.67799997 4293255135
0.1917412 -0.12211022 0.676 4293649636
0.19245574 -0.12174954 0.67400002 4293715684
0.19373752 -0.12175006 0.67400002 4293847013
0.19501936 -0.12175057 0.67400002 4293846761
0.19630116 -0.12175106 0.67400002 4293912810
0.19641033 -0.12102896 0.67000002 4293716199
0.19768453 -0.12102939 0.67000002 4293781992
0.19895865 -0.12102979 0.67000002 4293716199
0.20023283 -0.12103016 0.67000002 4293716199
0.20271 -0.12175308 0.67400002 4293781738
0.20399171 -0.12175339 0.67400002 4293715945
0.20435971 -0.12121174 0.671 4293518052
0.2056357 -0.12121199 0.671 4293715432
0.20691162 -0.1212122 0.671 4293715432
0.20787732 -0.12103174 0.67000002 4293649638
0.20915128 -0.12103187 0.67000002 4293583591
0.20979711 -0.12067069 0.66799998 4293715434
0.2107513 -0.12049013 0.667 4293583591
0.21170163 -0.12030953 0.66600001 4293583591
0.21232834 -0.11994825 0.66399997 4293387236
0.21359077 -0.11994822 0.66399997 4293584358
0.21485315 -0.11994815 0.66399997 4293584358
0.21611547 -0.11994803 0.66399997 4293518565
0.2170504 -0.11976725 0.66299999 4293518565
0.21831077 -0.11976706 0.66299999 4293584358
0.21957107 -0.11976683 0.66299999 4293583845
0.22083133 -0.11976658 0.66299999 4293518052
0.22209154 -0.11976627 0.66299999 4293518052
0.22335167 -0.11976591 0.66299999 4293518052
0.22427298 -0.11958489 0.662 4293386982
0.22553112 -0.11958446 0.662 4293650154
0.22678918 -0.11958399 0.662 4293256679
0.22839162 -0.11976409 0.66299999 4293059044
0.22965148 -0.11976351 0.66299999 4293123808
0.23091123 -0.11976291 0.66299999 4293255394
0.23217094 -0.11976224 0.66299999 4293452259
0.2334305 -0.11976153 0.66299999 4293649638
0.23504402 -0.11994139 0.66399997 4293452259
0.23630534 -0.11994059 0.66399997 4293452259
0.23756664 -0.11993974 0.66399997 4293321187
0.23882776 -0.11993881 0.66399997 4293255394
0.24008888 -0.11993785 0.66399997 4292861149
0.24134986 -0.11993683 0.66399997 4293124578
0.24261078 -0.11993578 0.66399997 4293255907
0.243137 -0.11957339 0.662 4293124578
0.24439391 -0.11957224 0.662 4292926944
0.24565066 -0.11957097 0.662 4293058531
0.24690737 -0.11956971 0.662 4292992738
0.24891365 -0.11992957 0.66399997 4292992738
0.25017393 -0.1199282 0.66399997 4292796126
0.25421628 -0.12064765 0.66799998 4292927712
0.25548378 -0.12064607 0.66799998 4292796126
0.25675112 -0.12064439 0.66799998 4292861149
0.25763205 -0.12046209 0.667 4292861149
0.25889722 -0.12046029 0.667 4292664540
0.26016223 -0.12045846 0.667 4292598747
0.26142713 -0.12045655 0.667 4292598234
0.26269192 -0.1204546 0.667 4292598234
0.26395649 -0.12045257 0.667 4292465880
0.26522091 -0.12045046 0.667 4292729052
0.26648518 -0.12044828 0.667 4292729052
0.26774931 -0.12044604 0.667 4292729052
0.2702232 -0.12098547 0.67000002 4292664027
0.27149266 -0.12098306 0.67000002 4292664027
0.27276194 -0.12098061 0.67000002 4292335579
0.27444002 -0.12115861 0.671 4292269530
0.27776536 -0.12205882 0.676 4292400600
0.27904546 -0.12205612 0.676 4292400600
0.28115472 -0.12241443 0.67799997 4292203224
0.2828548 -0.12259214 0.67900002 4292334553
0.28581384 -0.12331135 0.68300003 4292203478
0.28752673 -0.12348885 0.68400002 4292137429
0.28882098 -0.12348572 0.68400002 4291808981
0.29181159 -0.12420463 0.68800002 4291743188
0.29524314 -0.12510395 0.69300002 4291676882
0.16292003 -0.12848505 0.71899998 4289703341
0.16428691 -0.12848619 0.71899998 4290623690
0.16519305 -0.12812991 0.71700001 4293518582
0.16632393 -0.12795234 0.71600002 4293649888
0.1676852 -0.12795345 0.71600002 4293649888
0.1685743 -0.12759712 0.71399999 4293584095
0.16969386 -0.1274195 0.713 4293649888
0.17104951 -0.12742056 0.713 4293649888
0.17192161 -0.1270642 0.71100003 4293715682
0.17229871 -0.12635039 0.70700002 4293714911
0.17290623 -0.12581526 0.704 4293978340
0.17350237 -0.1252801 0.70099998 4293518304
0.17383774 -0.12456623 0.69700003 4293452255
0.17440918 -0.12403103 0.69400001 4293518050
0.1757289 -0.12403198 0.69400001 4293847015
0.1767935 -0.12385417 0.69300002 4293649890
0.17759733 -0.12349763 0.69099998 4293847013
0.17865247 -0.1233198 0.69 4293847267
0.17944302 -0.1229632 0.68800002 4293847267
0.18075141 -0.12296405 0.68800002 4293715686
0.18153052 -0.12260742 0.68599999 4293715686
0.18230213 -0.12225076 0.68400002 4293847013
0.1833345 -0.12207284 0.68300003 4293978599
0.18463348 -0.12207361 0.68300003 4293649636
0.18593237 -0.12207434 0.68300003 4293518050
0.18723133 -0.12207504 0.68300003 4293583843
0.18770219 -0.12153956 0.68000001 4293649636
0.1887175 -0.12136149 0.67900002 4293583843
0.19000883 -0.12136213 0.67900002 4293649636
0.19017327 -0.12064781 0.67500001 4293583843
0.19145696 -0.1206484 0.67500001 4293715686
0.1924552 -0.12047023 0.67400002 4293715686
0.19373702 -0.12047077 0.67400002 4293715686
0.19501886 -0.12047128 0.67400002 4293715945
0.19630066 -0.12047178 0.67400002 4293715945
0.19640987 -0.11975728 0.67000002 4293781992
0.19709396 -0.11940022 0.66799998 4293781992
0.19836438 -0.11940064 0.66799998 4293716199
0.19963476 -0.119401 0.66799998 4293716199
0.20270966 -0.12047382 0.67400002 4293715945
0.20338608 -0.12011665 0.67199999 4293715945
0.20435944 -0.11993819 0.671 4293650152
0.2056355 -0.11993846 0.671 4293650152
0.20660305 -0.11975992 0.67000002 4293649638
0.20787717 -0.11976013 0.67000002 4293583845
0.20915115 -0.11976027 0.67000002 4293518052
0.20979705 -0.1194029 0.66799998 4293518052
0.21075124 -0.11922425 0.667 4293583845
0.21170162 -0.11904554 0.66600001 4293846761
0.21232833 -0.11868806 0.66399997 4293584610
0.21359077 -0.11868804 0.66399997 4293650404
0.21485323 -0.118688 0.66399997 4293518563
0.21611559 -0.11868789 0.66399997 4293387234
0.21737796 -0.11868776 0.66399997 4293387236
0.21831095 -0.11850885 0.66299999 4293584358
0.21957131 -0.11850864 0.66299999 4293518052
0.2208316 -0.11850839 0.66299999 4293254881
0.22209188 -0.1185081 0.66299999 4293452259
0.22335204 -0.11850776 0.66299999 4293518052
0.2242734 -0.11832864 0.662 4293387236
0.22553155 -0.11832822 0.662 4293650152
0.22678965 -0.11832776 0.662 4293321700
0.22839218 -0.118506 0.66299999 4293124578
0.22965206 -0.11850543 0.66299999 4293255394
0.23091188 -0.11850486 0.66299999 4293387236
0.23217157 -0.1185042 0.66299999 4293452259
0.23343121 -0.1185035 0.66299999 4293518052
0.23504481 -0.11868151 0.66399997 4293386210
0.23630619 -0.11868072 0.66399997 4293254881
0.2375675 -0.11867987 0.66399997 4293255394
0.23882873 -0.11867898 0.66399997 4293321187
0.24008985 -0.11867804 0.66399997 4292992738
0.24098742 -0.11849832 0.66299999 4292926944
0.24224648 -0.11849728 0.66299999 4293189601
0.24313813 -0.11831746 0.662 4293255394
0.24439508 -0.1183163 0.662 4292992738
0.24565193 -0.11831509 0.662 4292992738
0.24765459 -0.11867128 0.66399997 4292926946
0.24891502 -0.11866994 0.66399997 4292926946
0.25017533 -0.11866857 0.66399997 4292927198
0.25383732 -0.11920182 0.667 4292927196
0.2551029 -0.11920024 0.667 4292927196
0.25636843 -0.11919861 0.667 4292861403
0.25763378 -0.11919694 0.667 4292795610
0.258899 -0.11919519 0.667 4292664027
0.26016411 -0.11919338 0.667 4292532441
0.26142907 -0.11919151 0.667 4292597463
0.26269385 -0.11918957 0.667 4292597463
0.26395851 -0.11918757 0.667 4292597211
0.26522303 -0.11918551 0.667 4292728798
0.26648736 -0.11918337 0.667 4292794332
0.26815298 -0.11935985 0.66799998 4292794332
0.26941884 -0.11935756 0.66799998 4292532441
0.27068463 -0.11935523 0.66799998 4292532441
0.27195019 -0.11935282 0.66799998 4292400602
0.27321556 -0.11935033 0.66799998 4292400602
0.27776799 -0.12077709 0.676 4292400600
0.27904814 -0.12077442 0.676 4292334807
0.28032815 -0.12077168 0.676 4292137431
0.28160793 -0.12076887 0.676 4292137431
0.2853983 -0.12183787 0.68199998 4292137429
0.28752983 -0.12219217 0.68400002 4292203478
0.28882411 -0.12218908 0.68400002 4292005842
0.29435968 -0.12397226 0.69400001 4292005842
0.29567248 -0.12396897 0.69400001 4291676882
0.16291887 -0.12712036 0.71899998 4291348932
0.16428576 -0.12712149 0.71899998 4291482328
0.16519192 -0.12676902 0.71700001 4292929775
0.1663228 -0.12659334 0.71600002 4293583843
0.16721569 -0.12624082 0.71399999 4293583843
0.1685732 -0.12624191 0.71399999 4293386464
0.16969278 -0.12606619 0.713 4293452257
0.17104845 -0.12606725 0.713 4293518302
0.17192058 -0.12571469 0.71100003 4293584095
0.17229769 -0.12500846 0.70700002 4293189085
0.17364202 -0.12500945 0.70700002 4293452257
0.17498641 -0.12501046 0.70700002 4293386464
0.17358735 -0.12306644 0.69599998 4293255135
0.1741569 -0.12253693 0.69300002 4293386210
0.17547476 -0.12253788 0.69300002 4293649638
0.17628236 -0.12218516 0.69099998 4293518304
0.17759645 -0.12218606 0.69099998 4293715684
0.17865159 -0.12201011 0.69 4293518050
0.17996377 -0.12201097 0.69 4293649636
0.18075058 -0.12165817 0.68800002 4293583843
0.18152973 -0.12130532 0.68599999 4293583843
0.18230131 -0.12095248 0.68400002 4293518050
0.18333374 -0.12077644 0.68300003 4293715686
0.18463272 -0.1207772 0.68300003 4293387234
0.18620388 -0.12095477 0.68400002 4293584356
0.18723063 -0.12077866 0.68300003 4293649636
0.18770148 -0.12024885 0.68000001 4293649636
0.18871681 -0.12007269 0.67900002 4293452257
0.19000822 -0.12007335 0.67900002 4293518050
0.19017261 -0.11936662 0.67500001 4293649636
0.19145636 -0.1193672 0.67500001 4293847015
0.19245462 -0.11919093 0.67400002 4293650152
0.19316161 -0.1188378 0.67199999 4293650152
0.19443963 -0.11883832 0.67199999 4293519336
0.1945527 -0.11813144 0.66799998 4293519336
0.19582316 -0.11813192 0.66799998 4293585129
0.19650346 -0.11777866 0.66600001 4293585129
0.19777007 -0.11777907 0.66600001 4293716199
0.1990367 -0.11777945 0.66600001 4293716199
0.20030327 -0.11777981 0.66600001 4293650152
0.20156986 -0.11778012 0.66600001 4293715945
0.20314093 -0.11795726 0.667 4293716199
0.20532876 -0.11848806 0.67000002 4293650150
0.20660287 -0.1184883 0.67000002 4293584356
0.20725644 -0.11813479 0.66799998 4293518563
0.20852669 -0.11813497 0.66799998 4293387749
0.20948286 -0.11795825 0.667 4293453542
0.2104352 -0.1177815 0.66600001 4293518563
0.2110658 -0.11742785 0.66399997 4293584356
0.21232833 -0.11742788 0.66399997 4293518563
0.21359085 -0.11742788 0.66399997 4293518563
0.21485332 -0.11742783 0.66399997 4293518563
0.21611573 -0.11742774 0.66399997 4293387234
0.21737808 -0.11742762 0.66399997 4293058014
0.2186404 -0.11742746 0.66399997 4293518565
0.21957152 -0.11725041 0.66299999 4293518563
0.2208319 -0.11725019 0.66299999 4293387234
0.22209215 -0.1172499 0.66299999 4293387236
0.22301553 -0.11707274 0.662 4293387236
0.22427377 -0.11707237 0.662 4293387236
0.2251913 -0.11689512 0.66100001 4293518565
0.22644757 -0.11689469 0.66100001 4293321700
0.22770371 -0.11689419 0.66100001 4293255907
0.22965264 -0.11724735 0.66299999 4293255907
0.23091249 -0.11724678 0.66299999 4293321700
0.23217222 -0.11724613 0.66299999 4293256161
0.23343194 -0.11724547 0.66299999 4293321954
0.23504554 -0.11742157 0.66399997 4293255394
0.236307 -0.11742081 0.66399997 4293255394
0.23756835 -0.11741999 0.66399997 4293255648
0.23882964 -0.11741914 0.66399997 4293255648
0.24009082 -0.11741821 0.66399997 4293255394
0.24098842 -0.1172404 0.66299999 4293255394
0.24188213 -0.11706254 0.662 4293058014
0.24313925 -0.11706149 0.662 4293123808
0.24439625 -0.11706035 0.662 4292992992
0.24565315 -0.11705916 0.662 4292992992
0.24765588 -0.11741159 0.66399997 4292927198
0.24891636 -0.11741029 0.66399997 4292927198
0.2501767 -0.11740895 0.66399997 4292861149
0.25510448 -0.11793499 0.667 4292925913
0.25637007 -0.1179334 0.667 4292795097
0.2576355 -0.11793174 0.667 4292795097
0.25890079 -0.11793004 0.667 4292532441
0.26016593 -0.11792825 0.667 4292532441
0.26143095 -0.11792643 0.667 4292466647
0.26269585 -0.11792453 0.667 4292532441
0.26396054 -0.11792256 0.667 4292728798
0.26522508 -0.11792052 0.667 4292663005
0.26648954 -0.11791842 0.667 4292663259
0.26775381 -0.11791626 0.667 4292729052
0.26901782 -0.11791401 0.667 4292663257
0.27028173 -0.11791171 0.667 4292663257
0.2715455 -0.11790933 0.667 4292334807
0.27280909 -0.11790691 0.667 4292203478
0.27448335 -0.11808116 0.66799998 4292203737
0.27905083 -0.11949268 0.676 4292203737
0.28033093 -0.11948999 0.676 4292072151
0.28161073 -0.1194872 0.676 4292072151
0.28540125 -0.12054488 0.68199998 4291874002
0.28711247 -0.12071869 0.68300003 4292005844
0.28840494 -0.12071565 0.68300003 4292005844
0.16291773 -0.12575571 0.71899998 4292073938
0.16428463 -0.12575683 0.71899998 4293386982
0.16519082 -0.12540817 0.71700001 4293518311
0.16632171 -0.12523438 0.71600002 4293386462
0.1672146 -0.12488564 0.71399999 4293584097
0.16857211 -0.12488672 0.71399999 4293452259
0.16969173 -0.12471291 0.713 4293386210
0.17056759 -0.12436412 0.71100003 4293452257
0.16998513 -0.12296586 0.70300001 4293715686
0.17132184 -0.12296685 0.70300001 4293452259
0.17364103 -0.12366755 0.70700002 4293518052
0.17498541 -0.12366854 0.70700002 4293518050
0.17308758 -0.12139556 0.69400001 4293452257
0.17415597 -0.12122158 0.69300002 4293583591
0.17547384 -0.12122253 0.69300002 4293715434
0.17628145 -0.12087359 0.69099998 4293649636
0.17759553 -0.12087449 0.69099998 4293912808
0.17865069 -0.12070045 0.69 4293649890
0.17996295 -0.12070132 0.69 4293847013
0.18074976 -0.12035232 0.68800002 4293649636
0.18152891 -0.12000327 0.68599999 4293518050
0.18230054 -0.11965422 0.68400002 4293518052
0.18333295 -0.11948006 0.68300003 4293715432
0.18463196 -0.11948083 0.68300003 4293583843
0.18593089 -0.11948156 0.68300003 4293715686
0.18695579 -0.11930735 0.68199998 4293715686
0.18770079 -0.11895815 0.68000001 4293715686
0.18788235 -0.11825908 0.676 4293518565
0.18916805 -0.11825974 0.676 4293387236
0.19017202 -0.11808542 0.67500001 4293518565
0.19145578 -0.11808602 0.67500001 4293781738
0.19245405 -0.11791166 0.67400002 4293715432
0.1928736 -0.11738738 0.671 4293715432
0.19414979 -0.11738791 0.671 4293649638
0.19455223 -0.11686356 0.66799998 4293649638
0.19552955 -0.11668908 0.667 4293715686
0.19650303 -0.11651458 0.66600001 4293847015
0.19776969 -0.116515 0.66600001 4293715686
0.19903633 -0.11651538 0.66600001 4293649636
0.20030293 -0.11651573 0.66600001 4293650150
0.20156953 -0.11651607 0.66600001 4293979114
0.20314066 -0.11669131 0.667 4293715686
0.20471561 -0.11686654 0.66799998 4293715686
0.20598592 -0.11686676 0.66799998 4293649636
0.206946 -0.11669202 0.667 4293649636
0.20821439 -0.11669221 0.667 4293649636
0.20948274 -0.11669233 0.667 4293649636
0.21043511 -0.1165175 0.66600001 4293583843
0.21106577 -0.11616765 0.66399997 4293583843
0.21232833 -0.11616769 0.66399997 4293518050
0.21359086 -0.11616768 0.66399997 4293518050
0.21485338 -0.11616767 0.66399997 4293518563
0.21611582 -0.11616759 0.66399997 4293387234
0.21737823 -0.11616748 0.66399997 4293255394
0.2186406 -0.11616731 0.66399997 4293518565
0.2199029 -0.11616714 0.66399997 4293518563
0.22083212 -0.11599198 0.66299999 4293584356
0.22209243 -0.1159917 0.66299999 4293255907
0.22301584 -0.11581646 0.662 4293255907
0.22393537 -0.11564115 0.66100001 4293321700
0.22519171 -0.11564077 0.66100001 4293387749
0.22644801 -0.11564034 0.66100001 4293255907
0.22770423 -0.11563987 0.66100001 4293124578
0.22965318 -0.11598925 0.66299999 4293256161
0.23091306 -0.11598868 0.66299999 4293321954
0.23217285 -0.11598805 0.66299999 4293321439
0.23343261 -0.11598741 0.66299999 4293321439
0.23469228 -0.1159867 0.66299999 4293189599
0.23595189 -0.11598596 0.66299999 4293123805
0.23721142 -0.11598517 0.66299999 4293189853
0.23811115 -0.11580939 0.662 4293189853
0.23900701 -0.11563354 0.66100001 4293189599
0.24026248 -0.11563261 0.66100001 4293255648
0.2415178 -0.1156316 0.66100001 4293058014
0.24277307 -0.11563057 0.66100001 4293058014
0.24402821 -0.11562946 0.66100001 4293058014
0.24528326 -0.1156283 0.66100001 4293123808
0.24653822 -0.11562711 0.66100001 4293058012
0.24891767 -0.11615061 0.66399997 4292926683
0.25017807 -0.11614928 0.66399997 4292860636
0.25510603 -0.11666971 0.667 4292794843
0.25637162 -0.11666814 0.667 4292795097
0.25763714 -0.11666653 0.667 4292729048
0.25890249 -0.11666486 0.667 4292597463
0.26016772 -0.1166631 0.667 4292663257
0.26182476 -0.11683621 0.66799998 4292597463
0.26269776 -0.11665944 0.667 4292663257
0.26396251 -0.1166575 0.667 4292597982
0.26522714 -0.11665549 0.667 4292466395
0.26649162 -0.11665344 0.667 4292728537
0.26775596 -0.11665132 0.667 4292794330
0.26902008 -0.11664911 0.667 4292662743
0.27028406 -0.11664683 0.667 4292596950
0.27154788 -0.11664452 0.667 4292203226
0.27281153 -0.1166421 0.667 4292203226
0.27448589 -0.1168145 0.66799998 4292334807
0.27905345 -0.1182109 0.676 4292203478
0.28033361 -0.11820825 0.676 4292203478
0.28161353 -0.11820552 0.676 4292203478
0.28582266 -0.11942672 0.68300003 4291939797
0.28711542 -0.11942382 0.68300003 4291939797
0.28840801 -0.11942083 0.68300003 4291940049
0.1629166 -0.12439106 0.71899998 4292795358
0.16382654 -0.12404618 0.71700001 4293517800
0.16518968 -0.1240473 0.71700001 4293517800
0.16632059 -0.12387542 0.71600002 4293386462
0.16721351 -0.12353048 0.71399999 4293584097
0.16857105 -0.12353156 0.71399999 4293518050
0.16969064 -0.12335961 0.713 4293452257
0.17056654 -0.12301463 0.71100003 4293517789
0.1699841 -0.12163153 0.70300001 4293714911
0.17083345 -0.12128652 0.70099998 4293518050
0.17216639 -0.12128751 0.70099998 4293518050
0.1725094 -0.12059643 0.69700003 4293518050
0.17308661 -0.12007833 0.69400001 4293583843
0.17415504 -0.11990625 0.69300002 4293649638
0.17547292 -0.11990719 0.69300002 4293649638
0.17628054 -0.11956203 0.69099998 4293255135
0.17759463 -0.11956294 0.69099998 4293518050
0.17864981 -0.11939079 0.69 4293386464
0.17996205 -0.11939165 0.69 4293715686
0.18127434 -0.11939251 0.69 4293715686
0.18099889 -0.11835515 0.68400002 4293649636
0.18203323 -0.1181829 0.68300003 4293452257
0.18306376 -0.11801065 0.68199998 4293649636
0.18436088 -0.11801142 0.68199998 4293584097
0.18565793 -0.11801215 0.68199998 4293715684
0.18640684 -0.1176668 0.68000001 4293715686
0.18742409 -0.11749445 0.67900002 4293649636
0.18788171 -0.116976 0.676 4293650152
0.18916743 -0.11697664 0.676 4293584358
0.18988965 -0.11663119 0.67400002 4293387236
0.19117157 -0.11663181 0.67400002 4293715945
0.1918824 -0.11628629 0.67199999 4293846761
0.19287306 -0.11611378 0.671 4293715432
0.19414926 -0.1161143 0.671 4293386210
0.19455175 -0.11559567 0.66799998 4293649638
0.19552909 -0.1154231 0.667 4293715432
0.19650258 -0.11525049 0.66600001 4293715432
0.1977693 -0.11525092 0.66600001 4293715686
0.19903594 -0.1152513 0.66600001 4293847015
0.20030257 -0.11525167 0.66600001 4293716197
0.20156921 -0.115252 0.66600001 4293716197
0.2034449 -0.1155984 0.66799998 4293650404
0.20440887 -0.11542563 0.667 4293650404
0.20567735 -0.11542588 0.667 4293452509
0.20663556 -0.11525305 0.66600001 4293518302
0.20790204 -0.11525321 0.66600001 4293452259
0.20916855 -0.11525336 0.66600001 4293452259
0.20980306 -0.11490735 0.66399997 4293189085
0.21106571 -0.11490744 0.66399997 4293386464
0.21232827 -0.11490748 0.66399997 4293386464
0.21359091 -0.1149075 0.66399997 4293518050
0.21485341 -0.11490748 0.66399997 4293518563
0.21611589 -0.11490741 0.66399997 4293387234
0.21737835 -0.11490732 0.66399997 4293387234
0.21864077 -0.11490718 0.66399997 4293518563
0.21990313 -0.114907 0.66399997 4293321954
0.22083235 -0.11473374 0.66299999 4293321954
0.22209273 -0.11473348 0.66299999 4293255907
0.22301617 -0.11456016 0.662 4293255907
0.22393572 -0.11438676 0.66100001 4293255907
0.22519213 -0.11438639 0.66100001 4293255907
0.22644845 -0.11438598 0.66100001 4293058785
0.22770472 -0.11438553 0.66100001 4293124578
0.22896095 -0.11438502 0.66100001 4293255394
0.2302171 -0.11438448 0.66100001 4293255394
0.23217352 -0.11472999 0.66299999 4293123805
0.23343332 -0.11472933 0.66299999 4293123805
0.23469305 -0.11472866 0.66299999 4293058014
0.23559676 -0.11455488 0.662 4292926685
0.23685445 -0.11455411 0.662 4293058014
0.23811203 -0.11455327 0.662 4292926685
0.23900791 -0.11437935 0.66100001 4292926683
0.2402634 -0.11437843 0.66100001 4292926683
0.2415188 -0.11437746 0.66100001 4292927198
0.24203955 -0.11403036 0.65899998 4292861149
0.24329095 -0.1140293 0.65899998 4292664027
0.24528442 -0.11437422 0.66100001 4292795356
0.24653943 -0.11437304 0.66100001 4292860636
0.2477943 -0.1143718 0.66100001 4292729050
0.24942587 -0.11454353 0.662 4292728537
0.25106111 -0.1147152 0.66299999 4292794330
0.25598887 -0.11522985 0.66600001 4292663257
0.25725254 -0.11522828 0.66600001 4292597463
0.25890419 -0.11539962 0.667 4292531157
0.26016951 -0.11539792 0.667 4292531157
0.26182655 -0.11556914 0.66799998 4292268499
0.2626996 -0.11539432 0.667 4292597463
0.26396444 -0.11539239 0.667 4292532189
0.26522917 -0.11539045 0.667 4292466395
0.26649371 -0.11538842 0.667 4292662745
0.2677581 -0.11538631 0.667 4292794332
0.26902235 -0.11538417 0.667 4292466134
0.2706916 -0.11555491 0.66799998 4292466134
0.27155024 -0.11537963 0.667 4292334555
0.27281395 -0.11537726 0.667 4292334555
0.27448839 -0.1155478 0.66799998 4292334807
0.27905607 -0.11692907 0.676 4292137429
0.28033626 -0.11692646 0.676 4292137429
0.28161624 -0.11692377 0.676 4292137429
0.28540701 -0.11795878 0.68199998 4291874004
0.28669798 -0.11795592 0.68199998 4291939797
0.28798875 -0.117953 0.68199998 4291938514
0.16382542 -0.12268536 0.71700001 4293452259
0.16518858 -0.12268646 0.71700001 4293452259
0.16631949 -0.12251644 0.71600002 4293386462
0.16721243 -0.12217531 0.71399999 4293518304
0.16833389 -0.12200528 0.713 4293386462
0.16968957 -0.12200634 0.713 4293255133
0.16864635 -0.12029622 0.70300001 4293451742
0.16949947 -0.119955 0.70099998 4293649120
0.17058875 -0.1197849 0.69999999 4293517789
0.17191982 -0.11978589 0.69999999 4293451996
0.17250842 -0.11927351 0.69700003 4293452257
0.17308564 -0.11876108 0.69400001 4293583843
0.17415409 -0.11859091 0.69300002 4293583843
0.17547196 -0.11859185 0.69300002 4293649636
0.1762796 -0.11825049 0.69099998 4293451746
0.17759375 -0.11825138 0.69099998 4293648868
0.17864895 -0.11808113 0.69 4293518052
0.17996122 -0.118082 0.69 4293846761
0.18127351 -0.11808284 0.69 4293649636
0.18099806 -0.11705686 0.68400002 4293649636
0.18203245 -0.11688655 0.68300003 4293518050
0.18306302 -0.11671618 0.68199998 4293583843
0.1843601 -0.11671693 0.68199998 4293584097
0.18565723 -0.11671769 0.68199998 4293649890
0.18640611 -0.11637612 0.68000001 4293583845
0.18742341 -0.11620567 0.67900002 4293583845
0.1884369 -0.11603519 0.67799997 4293584358
0.18916675 -0.11569357 0.676 4293650152
0.18988904 -0.11535189 0.67400002 4293649636
0.19117098 -0.1153525 0.67400002 4293847015
0.19188187 -0.11501081 0.67199999 4293716199
0.19287254 -0.1148402 0.671 4293584356
0.19414879 -0.11484074 0.671 4293583845
0.19513375 -0.11467009 0.67000002 4293583845
0.19552861 -0.11415711 0.667 4293649638
0.19650216 -0.11398641 0.66600001 4293583845
0.19776891 -0.11398685 0.66600001 4293715686
0.19963329 -0.11432954 0.66799998 4293847015
0.20090376 -0.1143299 0.66799998 4293847013
0.2021742 -0.11433025 0.66799998 4293715684
0.2034446 -0.11433055 0.66799998 4293715682
0.20440862 -0.11415967 0.667 4293847267
0.20567711 -0.11415991 0.667 4293518302
0.20663537 -0.113989 0.66600001 4293518302
0.20790187 -0.11398917 0.66600001 4293517800
0.20854031 -0.11364702 0.66399997 4293452007
0.20980294 -0.11364713 0.66399997 4293386210
0.21106565 -0.11364722 0.66399997 4293452259
0.21232828 -0.11364727 0.66399997 4293452259
0.21359086 -0.1136473 0.66399997 4293715432
0.21452987 -0.11347613 0.66299999 4293518561
0.21579053 -0.11347608 0.66299999 4293255646
0.2170511 -0.11347599 0.66299999 4293386716
0.21831164 -0.11347587 0.66299999 4293518302
0.21990331 -0.11364684 0.66399997 4293387234
0.22083259 -0.11347549 0.66299999 4293321441
0.222093 -0.11347527 0.66299999 4293256161
0.22301646 -0.11330382 0.662 4293124576
0.22393608 -0.11313235 0.66100001 4293255394
0.2251925 -0.11313199 0.66100001 4293321187
0.22644891 -0.11313161 0.66100001 4293189601
0.2277052 -0.11313114 0.66100001 4293058014
0.22896148 -0.11313067 0.66100001 4293189599
0.23021765 -0.11313013 0.66100001 4293189599
0.23147376 -0.11312956 0.66100001 4292926685
0.23308186 -0.11330009 0.662 4292926685
0.23433973 -0.11329941 0.662 4292991708
0.23559751 -0.11329871 0.662 4292991708
0.23685525 -0.11329795 0.662 4292926685
0.2377532 -0.113126 0.66100001 4292860636
0.23900881 -0.11312514 0.66100001 4292860636
0.24026434 -0.11312424 0.66100001 4292860636
0.24151982 -0.11312331 0.66100001 4292926685
0.24204057 -0.11278 0.65899998 4293123808
0.24329205 -0.11277895 0.65899998 4292664027
0.24528557 -0.11312012 0.66100001 4292664027
0.24654061 -0.11311896 0.66100001 4292860636
0.24817047 -0.11328888 0.662 4292729050
0.24942718 -0.11328761 0.662 4292663257
0.25106248 -0.1134574 0.66299999 4292663257
0.25232086 -0.11345602 0.66299999 4292597461
0.25599042 -0.11396646 0.66600001 4292466134
0.25725409 -0.11396489 0.66600001 4292400085
0.25851768 -0.11396325 0.66600001 4292530903
0.25978115 -0.11396158 0.66600001 4292530903
0.26182836 -0.11430205 0.66799998 4292268247
0.26270145 -0.11412914 0.667 4292465882
0.26396635 -0.11412728 0.667 4292400600
0.26562881 -0.11429644 0.66799998 4292400600
0.26689526 -0.11429443 0.66799998 4292466134
0.26816165 -0.11429238 0.66799998 4292597463
0.26942781 -0.11429026 0.66799998 4292334294
0.27069381 -0.11428805 0.66799998 4292400087
0.27155256 -0.1141147 0.667 4292400348
0.27281633 -0.11411237 0.667 4292400348
0.27449083 -0.11428105 0.66799998 4292203476
0.27699462 -0.11479182 0.671 4292137683
0.27826542 -0.11478928 0.671 4292071636
0.27953601 -0.11478664 0.671 4292005842
0.28540978 -0.11666564 0.68199998 4291874004
0.28670079 -0.11666282 0.68199998 4291939797
0.28799167 -0.11665994 0.68199998 4292005592
0.2897065 -0.11682803 0.68300003 4291939799
0.29099879 -0.11682498 0.68300003 4291545807
0.16585381 -0.1208191 0.71399999 4293255133
0.16721135 -0.12082019 0.71399999 4293386462
0.16833283 -0.12065204 0.713 4293123546
0.16968854 -0.12065311 0.713 4293255133
0.16816552 -0.11862351 0.70099998 4293386203
0.16949847 -0.11862451 0.70099998 4293451996
0.17010036 -0.11811786 0.69800001 4293582812
0.17118204 -0.11794963 0.69700003 4293648605
0.17225999 -0.11778137 0.69599998 4293451744
0.17308469 -0.11744388 0.69400001 4293714659
0.17415313 -0.11727557 0.69300002 4293649638
0.17547102 -0.11727652 0.69300002 4293583845
0.17678896 -0.11727744 0.69300002 4293451744
0.17759286 -0.11693987 0.69099998 4293780708
0.17890701 -0.11694074 0.69099998 4293780454
0.17996036 -0.11677236 0.69 4293846248
0.18127269 -0.11677321 0.69 4293715686
0.18152648 -0.11609709 0.68599999 4293649636
0.18203166 -0.11559018 0.68300003 4293584097
0.18306223 -0.1154217 0.68199998 4293584097
0.18435936 -0.11542246 0.68199998 4293518302
0.18565649 -0.11542321 0.68199998 4293715682
0.18640539 -0.11508545 0.68000001 4293649636
0.18742272 -0.11491691 0.67900002 4293583843
0.18843624 -0.11474833 0.67799997 4293387236
0.18916616 -0.11441049 0.676 4293518565
0.19017017 -0.11424188 0.67500001 4293583843
0.19117039 -0.11407324 0.67400002 4293649636
0.19188127 -0.11373532 0.67199999 4293649636
0.19315942 -0.11373587 0.67199999 4293649636
0.19414826 -0.11356716 0.671 4293584097
0.19513322 -0.1133984 0.67000002 4293649890
0.19640762 -0.11339889 0.67000002 4293583845
0.19768192 -0.11339933 0.67000002 4293649638
0.19895625 -0.11339976 0.67000002 4293715686
0.19963287 -0.11306165 0.66799998 4293583843
0.20090336 -0.11306202 0.66799998 4293452257
0.20217387 -0.11306238 0.66799998 4293715686
0.20344433 -0.11306268 0.66799998 4293518561
0.20440836 -0.11289373 0.667 4293518561
0.20567688 -0.11289396 0.667 4293518304
0.20663515 -0.11272495 0.66600001 4293518304
0.2079017 -0.11272512 0.66600001 4293517798
0.20854013 -0.11238676 0.66399997 4293452005
0.20980287 -0.11238691 0.66399997 4293517537
0.21106555 -0.11238699 0.66399997 4293648866
0.21232823 -0.11238706 0.66399997 4293452257
0.21359086 -0.11238708 0.66399997 4293649636
0.21452992 -0.11221782 0.66299999 4293321954
0.21579055 -0.11221776 0.66299999 4293124576
0.21705122 -0.11221772 0.66299999 4293057499
0.21831176 -0.11221759 0.66299999 4293386464
0.21990347 -0.1123867 0.66399997 4293386210
0.22083282 -0.11221725 0.66299999 4293386210
0.22209327 -0.11221702 0.66299999 4293255394
0.22301677 -0.1120475 0.662 4293123808
0.22393641 -0.11187793 0.66100001 4293058014
0.22519289 -0.11187759 0.66100001 4293189601
0.2264493 -0.11187719 0.66100001 4293058014
0.22770564 -0.11187678 0.66100001 4293123808
0.22896194 -0.11187629 0.66100001 4293123805
0.23021817 -0.11187579 0.66100001 4293123805
0.23147433 -0.11187521 0.66100001 4292860890
0.23273042 -0.11187462 0.66100001 4292926683
0.23434044 -0.11204322 0.662 4292926685
0.23559825 -0.11204253 0.662 4292926685
0.23685601 -0.11204177 0.662 4292926685
0.23775397 -0.11187176 0.66100001 4292926685
0.23900968 -0.11187091 0.66100001 4292795610
0.24026525 -0.11187003 0.66100001 4292861403
0.24078998 -0.1115306 0.65899998 4292795356
0.2420416 -0.11152963 0.65899998 4292795356
0.2440315 -0.11186709 0.66100001 4292664027
0.24528667 -0.11186598 0.66100001 4292664027
0.24654183 -0.11186485 0.66100001 4292795356
0.24817167 -0.11203288 0.662 4292598234
0.24942847 -0.11203165 0.662 4292334553
0.25068516 -0.11203035 0.662 4292400602
0.25599191 -0.112703 0.66600001 4292466134
0.25725573 -0.11270148 0.66600001 4292466134
0.25851935 -0.11269987 0.66600001 4292466134
0.25978285 -0.11269823 0.66600001 4292466134
0.26183009 -0.11303493 0.66799998 4292203476
0.2627033 -0.11286394 0.667 4292400598
0.26396823 -0.1128621 0.667 4292400600
0.26563075 -0.11302943 0.66799998 4292400600
0.26689732 -0.11302744 0.66799998 4292400600
0.26816371 -0.11302542 0.66799998 4292400600
0.26942998 -0.11302333 0.66799998 4292334805
0.27069604 -0.11302117 0.66799998 4292334805
0.27155483 -0.11284974 0.667 4292334555
0.27281865 -0.11284745 0.667 4292071640
0.27449328 -0.11301428 0.66799998 4292202454
0.27699709 -0.11351938 0.671 4292202454
0.27826795 -0.11351687 0.671 4291940049
0.27953863 -0.11351428 0.671 4291940049
0.28457561 -0.11503415 0.68000001 4291940049
0.28586289 -0.11503137 0.68000001 4291940049
0.28715003 -0.11502853 0.68000001 4291808981
0.28928527 -0.11536393 0.68199998 4291743188
0.29100183 -0.1155301 0.68300003 4291545807
0.29272193 -0.11569615 0.68400002 4291545807
0.29401579 -0.115693 0.68400002 4291479246
0.16562046 -0.11929668 0.713 4293386716
0.16650772 -0.11896312 0.71100003 4293386716
0.16785957 -0.11896418 0.71100003 4293255133
0.1668316 -0.11729202 0.70099998 4293189339
0.16816451 -0.11729304 0.70099998 4293189339
0.16949746 -0.11729405 0.70099998 4293255133
0.17009935 -0.11679308 0.69800001 4293517789
0.17118105 -0.11662674 0.69700003 4293517789
0.17225899 -0.11646038 0.69599998 4293517537
0.17283437 -0.11595936 0.69300002 4293714659
0.17415223 -0.11596029 0.69300002 4293714661
0.17547014 -0.11596122 0.69300002 4293517539
0.17627779 -0.11562745 0.69099998 4293648868
0.17759196 -0.11562833 0.69099998 4294109419
0.17890614 -0.11562923 0.69099998 4293780454
0.17995954 -0.11546273 0.69 4293648868
0.18127184 -0.11546359 0.69 4293583843
0.18099646 -0.11446036 0.68400002 4293649636
0.18176433 -0.11412647 0.68199998 4293649636
0.18252462 -0.11379258 0.68000001 4293847015
0.18381797 -0.11379334 0.68000001 4293715936
0.18511131 -0.11379407 0.68000001 4293847265
0.18613058 -0.11362745 0.67900002 4293649636
0.18742204 -0.11362813 0.67900002 4293518050
0.18843555 -0.11346145 0.67799997 4293518052
0.18916549 -0.11312743 0.676 4293583845
0.19016956 -0.1129607 0.67500001 4293518050
0.19116981 -0.11279396 0.67400002 4293583843
0.19188072 -0.11245982 0.67199999 4293649636
0.19287147 -0.11229305 0.671 4293518050
0.19414774 -0.11229358 0.671 4293518302
0.19513276 -0.11212674 0.67000002 4293584095
0.19640714 -0.11212721 0.67000002 4293649638
0.19768149 -0.11212766 0.67000002 4293715432
0.19895585 -0.11212809 0.67000002 4293583843
0.20023021 -0.1121285 0.67000002 4293452257
0.20150453 -0.11212888 0.67000002 4293452259
0.20277886 -0.11212922 0.67000002 4293912810
0.20405315 -0.11212954 0.67000002 4293387234
0.20440803 -0.11162774 0.667 4293321441
0.2056766 -0.11162801 0.667 4293518050
0.20663491 -0.11146087 0.66600001 4293518050
0.20790151 -0.11146108 0.66600001 4293386210
