# .PCD v0.7 - Point Cloud Data file format
VERSION 0.7
FIELDS x y z rgba
SIZE 4 4 4 4
TYPE F F F U
COUNT 1 1 1 1
WIDTH 1047
HEIGHT 1
VIEWPOINT 0 0 0 1 0 0 0
POINTS 1047
DATA ascii
0.12406555 -0.080820531 0.708 4291349184
0.12576461 -0.081049621 0.70999998 4291349184
0.12711328 -0.081050418 0.70999998 4291414205
0.12900479 -0.081393689 0.713 4291217083
0.13035926 -0.081394494 0.713 4291151549
0.13282219 -0.082080252 0.71899998 4291151549
0.1343748 -0.082195222 0.72000003 4290690998
0.0088571804 -0.082018778 0.73100001 4294045161
0.010228514 -0.081906572 0.73000002 4294308334
0.011500618 -0.081121176 0.72299999 4294308588
0.012853007 -0.081009001 0.722 4294505710
0.014181911 -0.080784634 0.72000003 4294308588
0.015524834 -0.08067248 0.71899998 4294637297
0.016887458 -0.08067254 0.71899998 4294571506
0.018199325 -0.080448218 0.71700001 4294703092
0.019530898 -0.080336101 0.71600002 4294637810
0.020741999 -0.079775207 0.71100003 4294703603
0.021996293 -0.079438709 0.708 4294374642
0.023338113 -0.07943882 0.708 4294440436
0.02464509 -0.079326764 0.70700002 4294506483
0.025948286 -0.079214714 0.70599997 4294506483
0.027286362 -0.079214871 0.70599997 4294440688
0.028624447 -0.07921505 0.70599997 4294506481
0.029877668 -0.078990832 0.704 4294374640
0.031167658 -0.078878835 0.70300001 4294835191
0.032407645 -0.078654632 0.70099998 4294375158
0.033688195 -0.07854265 0.69999999 4294375158
0.034914952 -0.078318484 0.69800001 4294440690
0.036186069 -0.078206539 0.69700003 4294374640
0.037453402 -0.078094579 0.69599998 4294374894
0.038772687 -0.078094855 0.69599998 4294506481
0.039976783 -0.077870727 0.69400001 4294375154
0.041292317 -0.077871017 0.69400001 4294375154
0.04260787 -0.077871315 0.69400001 4294703605
0.043860167 -0.07775943 0.69300002 4294374640
0.04517388 -0.077759758 0.69300002 4294112236
0.046487622 -0.0777601 0.69300002 4294178029
0.047801387 -0.077760451 0.69300002 4294243824
0.049186047 -0.077873014 0.69400001 4294375154
0.050501771 -0.077873386 0.69400001 4294441201
0.051742852 -0.077761561 0.69300002 4294441201
0.053056736 -0.077761963 0.69300002 4294046445
0.054213729 -0.077537932 0.69099998 4294046445
0.055523891 -0.077538341 0.69099998 4294177259
0.056834072 -0.077538773 0.69099998 4294243052
0.058144286 -0.077539206 0.69099998 4294045930
0.05936851 -0.077427439 0.69 4294177259
0.060676903 -0.077427894 0.69 4294177259
0.061985329 -0.077428356 0.69 4294243052
0.0632938 -0.077428833 0.69 4294374894
0.064602301 -0.077429317 0.69 4294045930
0.065910831 -0.077429801 0.69 4293914089
0.067219406 -0.077430315 0.69 4293848296
0.068528034 -0.077430822 0.69 4293914089
0.069836691 -0.077431358 0.69 4293914089
0.071145378 -0.077431887 0.69 4293980139
0.072454117 -0.077432424 0.69 4293848296
0.073549092 -0.077208526 0.68800002 4293782757
0.074854113 -0.077209085 0.68800002 4293716708
0.076159194 -0.077209659 0.68800002 4293520099
0.077464297 -0.077210225 0.68800002 4293454306
0.07876946 -0.077210814 0.68800002 4293191134
0.07995826 -0.077099167 0.68699998 4293322976
0.081261605 -0.077099755 0.68699998 4293322206
0.082685187 -0.077212602 0.68800002 4293256157
0.083990522 -0.07721322 0.68800002 4293124576
0.085295901 -0.077213831 0.68800002 4293124576
0.086601324 -0.077214465 0.68800002 4293387486
0.08816234 -0.077439547 0.69 4293387486
0.089471668 -0.07744021 0.69 4293321693
0.090781026 -0.077440858 0.69 4293255644
0.09209045 -0.077441514 0.69 4292729554
0.093399912 -0.077442169 0.69 4293058262
0.095121205 -0.077779554 0.69300002 4292926935
0.096436463 -0.077780239 0.69300002 4292861142
0.097751766 -0.077780932 0.69300002 4292664277
0.099067129 -0.077781618 0.69300002 4292795606
0.10052739 -0.077894554 0.69400001 4293058264
0.10184474 -0.077895246 0.69400001 4292795093
0.10316216 -0.077895962 0.69400001 4292336081
0.10447964 -0.077896677 0.69400001 4292138446
0.10610202 -0.078121878 0.69599998 4292203987
0.10742337 -0.078122593 0.69599998 4292138194
0.10890107 -0.078235582 0.69700003 4292269003
0.11038256 -0.07834857 0.69800001 4292202953
0.11170789 -0.078349292 0.69800001 4292202953
0.11303326 -0.078350045 0.69800001 4292137160
0.11435869 -0.07835079 0.69800001 4291940038
0.1161814 -0.078688294 0.70099998 4291940038
0.11784793 -0.078913555 0.70300001 4291743429
0.11935252 -0.079026565 0.704 4291677380
0.12068958 -0.079027332 0.704 4291480002
0.12237333 -0.079252608 0.70599997 4291545795
0.12388953 -0.079365648 0.70700002 4291414207
0.12523244 -0.079366416 0.70700002 4291480000
0.12675442 -0.079479448 0.708 4291283139
0.12864214 -0.079817012 0.71100003 4291217346
0.13035847 -0.080042318 0.713 4291085756
0.13282138 -0.08071667 0.71899998 4291085756
0.13437398 -0.080829732 0.72000003 4290625977
0.13574192 -0.080830522 0.72000003 4290560184
0.008845075 -0.080523178 0.73000002 4294176748
0.010228513 -0.080523171 0.73000002 4294571506
0.011500604 -0.079751037 0.72299999 4294505708
0.01285298 -0.079640754 0.722 4294834930
0.014181871 -0.079420179 0.72000003 4294703090
0.015524779 -0.079309925 0.71899998 4294637297
0.016840417 -0.079089373 0.71700001 4294703092
0.01817386 -0.078979127 0.71600002 4294768885
0.01947625 -0.078758612 0.71399999 4294703605
0.020741893 -0.078427799 0.71100003 4294637812
0.021996176 -0.078096986 0.708 4294440436
0.023305023 -0.077986807 0.70700002 4294440436
0.024610089 -0.077876627 0.70599997 4294375154
0.025948133 -0.077876769 0.70599997 4294375154
0.027286191 -0.077876925 0.70599997 4294441203
0.028624268 -0.077877104 0.70599997 4294441203
0.029877475 -0.077656671 0.704 4294637299
0.031167453 -0.077546559 0.70300001 4294967292
0.032361198 -0.077215835 0.69999999 4294702840
0.033591721 -0.07699544 0.69800001 4294637047
0.034914717 -0.076995678 0.69800001 4294440690
0.03618582 -0.076885603 0.69700003 4294374640
0.037453141 -0.076775536 0.69599998 4294375154
0.038772404 -0.076775804 0.69599998 4294506996
0.0399765 -0.076555468 0.69400001 4294440949
0.041232523 -0.076445438 0.69300002 4294178033
0.042546172 -0.076445736 0.69300002 4294112238
0.043859851 -0.076446049 0.69300002 4294046445
0.045173556 -0.076446369 0.69300002 4294243052
0.046487276 -0.07644669 0.69300002 4294309101
0.047801036 -0.076447047 0.69300002 4294244078
0.049185686 -0.076557703 0.69400001 4294244078
0.050501391 -0.076558061 0.69400001 4294440688
0.051742464 -0.076448128 0.69300002 4294637810
0.053056348 -0.076448515 0.69300002 4294111986
0.054213326 -0.076228268 0.69099998 4293980400
0.05552347 -0.076228671 0.69099998 4294045932
0.056833658 -0.076229095 0.69099998 4294243054
0.058059718 -0.076119207 0.69 4293848296
0.059368066 -0.076119632 0.69 4293848296
0.06050057 -0.075899445 0.68800002 4294045161
0.061805207 -0.075899899 0.68800002 4294176748
0.06310986 -0.075900361 0.68800002 4294177259
0.064320929 -0.075790517 0.68699998 4294177259
0.065623768 -0.075790994 0.68699998 4293914343
0.066926651 -0.075791486 0.68699998 4293848550
0.068229571 -0.075791985 0.68699998 4293914343
0.069532529 -0.075792499 0.68699998 4294045930
0.070938632 -0.075903334 0.68800002 4293980139
0.072138563 -0.075793542 0.68699998 4293782503
0.07344164 -0.075794078 0.68699998 4293716708
0.074744761 -0.075794615 0.68699998 4293585379
0.07615862 -0.075905502 0.68800002 4293520099
0.077351131 -0.075795732 0.68699998 4293585892
0.078654379 -0.075796299 0.68699998 4293387745
0.079841278 -0.075686537 0.68599999 4293453538
0.081142724 -0.075687118 0.68599999 4293387484
0.082444213 -0.075687714 0.68599999 4293255898
0.083989918 -0.075908989 0.68800002 4293189853
0.085295282 -0.075909592 0.68800002 4293189853
0.086600699 -0.075910211 0.68800002 4293256157
0.087906174 -0.075910822 0.68800002 4293256157
0.089471027 -0.076132119 0.69 4293124828
0.090780385 -0.076132767 0.69 4293059035
0.092089795 -0.076133408 0.69 4292993491
0.093399242 -0.076134048 0.69 4293059285
0.09484601 -0.076245055 0.69099998 4292730583
0.096435778 -0.076466396 0.69300002 4292664790
0.097751088 -0.07646706 0.69300002 4292861142
0.099066436 -0.076467745 0.69300002 4292861142
0.10052671 -0.076578774 0.69400001 4292927187
0.10184406 -0.076579459 0.69400001 4292729552
0.10345874 -0.076800831 0.69599998 4292532690
0.10478 -0.076801531 0.69599998 4292401104
0.10610131 -0.076802239 0.69599998 4292138448
0.10742267 -0.076802947 0.69599998 4292138448
0.10890033 -0.076914012 0.69700003 4292137931
0.11038184 -0.077025086 0.69800001 4292072137
0.11170714 -0.077025801 0.69800001 4292202953
0.11303253 -0.077026531 0.69800001 4292137160
0.11435796 -0.077027261 0.69800001 4291940038
0.11618065 -0.077359058 0.70099998 4291940038
0.11784717 -0.077580519 0.70300001 4291874243
0.11935177 -0.077691607 0.704 4291676863
0.12068881 -0.077692352 0.704 4291676096
0.12237257 -0.077913821 0.70599997 4291742145
0.12388877 -0.078024946 0.70700002 4291545280
0.12523165 -0.078025691 0.70700002 4291545280
0.12675366 -0.078136824 0.708 4291348934
0.12846042 -0.078358307 0.70999998 4291217092
0.1298092 -0.078359067 0.70999998 4291086009
0.13282058 -0.079353131 0.71899998 4290822838
0.13437319 -0.079464272 0.72000003 4290887863
0.13574116 -0.079465054 0.72000003 4290887863
0.0074718874 -0.079248242 0.73100001 4294045932
0.0088208541 -0.078922987 0.72799999 4294308334
0.010200487 -0.078922987 0.72799999 4294374127
0.011500588 -0.078380927 0.72299999 4294374381
0.01285295 -0.078272536 0.722 4294703090
0.014181831 -0.078055754 0.72000003 4294637810
0.015524727 -0.077947393 0.71899998 4294637810
0.01684035 -0.077730626 0.71700001 4294835191
0.018173786 -0.077622294 0.71600002 4294637812
0.01947616 -0.07740555 0.71399999 4294178031
0.020712614 -0.076972 0.70999998 4294441203
0.02199606 -0.076755285 0.708 4294441203
0.023304895 -0.076646999 0.70700002 4294441203
0.024609949 -0.076538712 0.70599997 4294375154
0.025947984 -0.076538853 0.70599997 4294243824
0.027286027 -0.076539002 0.70599997 4294375154
0.028543005 -0.076322347 0.704 4294441203
0.029877288 -0.076322541 0.704 4294505710
0.031167258 -0.076214314 0.70300001 4294637297
0.03236099 -0.075889282 0.69999999 4294505197
0.033591498 -0.075672664 0.69800001 4294439404
0.034914482 -0.07567288 0.69800001 4294242795
0.036185574 -0.075564705 0.69700003 4294374381
0.037452891 -0.075456537 0.69599998 4294374640
0.038660735 -0.075239971 0.69400001 4294506483
0.039976221 -0.07524024 0.69400001 4294506483
0.041232236 -0.075132102 0.69300002 4294374640
0.04254587 -0.075132385 0.69300002 4294178031
0.043859538 -0.07513269 0.69300002 4294243824
0.045173228 -0.075133003 0.69300002 4294244078
0.046486948 -0.075133324 0.69300002 4294178029
0.047800694 -0.075133666 0.69300002 4294309101
0.049114462 -0.075134002 0.69300002 4294309101
0.050428268 -0.075134367 0.69300002 4293847783
0.051742088 -0.075134724 0.69300002 4294045161
0.05305595 -0.075135097 0.69300002 4294242541
0.054212935 -0.074918643 0.69099998 4294176748
0.055523075 -0.074919045 0.69099998 4293980137
0.056833241 -0.07491944 0.69099998 4293980137
0.058059294 -0.074811444 0.69 4294045159
0.059367634 -0.074811868 0.69 4294110953
0.060500134 -0.074595466 0.68800002 4293979366
0.061804753 -0.074595906 0.68800002 4294045159
0.063109398 -0.074596353 0.68800002 4294045159
0.064320467 -0.074488394 0.68699998 4294045159
0.065527774 -0.074380435 0.68599999 4293914343
0.06682875 -0.074380912 0.68599999 4293848550
0.068129763 -0.074381396 0.68599999 4293716708
0.069532022 -0.074490324 0.68699998 4293716708
0.070835009 -0.074490823 0.68699998 4293716710
0.072138034 -0.074491344 0.68699998 4293585381
0.073441103 -0.074491858 0.68699998 4293322722
0.074744217 -0.074492395 0.68699998 4293520101
0.076047368 -0.074492931 0.68699998 4293585892
0.077350564 -0.074493483 0.68699998 4293520099
0.078539319 -0.074385606 0.68599999 4293387486
0.079607949 -0.074169308 0.68400002 4293584608
0.080905594 -0.074169874 0.68400002 4293452509
0.082203284 -0.074170455 0.68400002 4293386716
0.083501011 -0.074171036 0.68400002 4293058783
0.085294679 -0.074605361 0.68800002 4293058783
0.086600095 -0.074605972 0.68800002 4293124828
0.087905563 -0.074606575 0.68800002 4293059035
0.089211069 -0.074607193 0.68800002 4292795606
0.090779752 -0.074824698 0.69 4292861655
0.092089146 -0.074825317 0.69 4293256157
0.093398616 -0.074825965 0.69 4292993241
0.094845362 -0.074935041 0.69099998 4292664790
0.09643513 -0.075152583 0.69300002 4292598997
0.097891472 -0.075261682 0.69400001 4292861142
0.099208727 -0.075262345 0.69400001 4292926935
0.10038118 -0.075154558 0.69300002 4292861140
0.10169663 -0.075155236 0.69300002 4292729554
0.10316077 -0.075264357 0.69400001 4292532688
0.10447822 -0.075265035 0.69400001 4292532688
0.10579573 -0.07526572 0.69400001 4292203726
0.10742197 -0.075483315 0.69599998 4292137933
0.10889963 -0.075592473 0.69700003 4292202953
0.11038113 -0.075701632 0.69800001 4292202953
0.11170644 -0.075702332 0.69800001 4292202953
0.11303182 -0.075703047 0.69800001 4292137160
0.11435724 -0.075703755 0.69800001 4291478715
0.11617991 -0.076029845 0.70099998 4291807936
0.11751115 -0.07603056 0.70099998 4291807936
0.11935104 -0.076356672 0.704 4291807936
0.12068809 -0.076357409 0.704 4291938752
0.12237182 -0.076575063 0.70599997 4292004546
0.12388801 -0.076684259 0.70700002 4291742143
0.12523091 -0.076684996 0.70700002 4291610557
0.12657389 -0.076685749 0.70700002 4291282626
0.12845968 -0.077011891 0.70999998 4291282626
0.12980843 -0.077012636 0.70999998 4291151549
0.13171145 -0.077338785 0.713 4290690998
0.13325265 -0.077448003 0.71399999 4290887350
0.13460919 -0.077448763 0.71399999 4290887350
0.13748923 -0.078317299 0.722 4290360238
0.0074616889 -0.077756487 0.73000002 4294309101
0.0088087488 -0.077436931 0.727 4294374381
0.010186473 -0.077436917 0.727 4294374381
0.011500575 -0.077010863 0.72299999 4294374127
0.012852926 -0.076904379 0.722 4294637299
0.014181791 -0.076691367 0.72000003 4294506481
0.015481492 -0.076371878 0.71700001 4294506481
0.0168168 -0.07626541 0.71600002 4294703603
0.018122943 -0.07605245 0.71399999 4294703603
0.019448793 -0.075946011 0.713 4294440690
0.020654172 -0.075413518 0.708 4294637812
0.021964882 -0.075307108 0.70700002 4294637297
0.023271807 -0.075200699 0.70599997 4294637297
0.024609812 -0.075200826 0.70599997 4294441201
0.025874326 -0.07498794 0.704 4294375408
0.027208576 -0.074988097 0.704 4294441201
0.028542832 -0.074988253 0.704 4294506994
0.029834669 -0.074881919 0.70300001 4294374381
0.031078393 -0.074669063 0.70099998 4294374381
0.032360788 -0.074562751 0.69999999 4294505195
0.033591278 -0.074349917 0.69800001 4294571244
0.034914263 -0.074350141 0.69800001 4294243052
0.036133416 -0.074137323 0.69599998 4294440688
0.037452638 -0.074137561 0.69599998 4294506481
0.038660474 -0.073924772 0.69400001 4294374894
0.039975952 -0.073925041 0.69400001 4294374894
0.041231956 -0.073818803 0.69300002 4294374894
0.042545583 -0.073819086 0.69300002 4294309101
0.043859232 -0.073819377 0.69300002 4294506481
0.045172919 -0.073819675 0.69300002 4294374894
0.046352457 -0.073606946 0.69099998 4294309101
0.0476624 -0.073607273 0.69099998 4294374381
0.049114119 -0.073820651 0.69300002 4294505710
0.050427906 -0.073821001 0.69300002 4294044394
0.051741734 -0.073821373 0.69300002 4293912808
0.052902456 -0.073608682 0.69099998 4293979366
0.054212548 -0.073609054 0.69099998 4294374381
0.055522677 -0.073609427 0.69099998 4293980137
0.056832839 -0.073609836 0.69099998 4293914343
0.05805888 -0.073503718 0.69 4294110953
0.059367206 -0.073504128 0.69 4294308588
0.060675573 -0.073504552 0.69 4294176746
0.061983962 -0.073504984 0.69 4294110953
0.063108951 -0.073292375 0.68800002 4294045159
0.064413629 -0.073292829 0.68800002 4294045159
0.065527298 -0.073080212 0.68599999 4293914343
0.066828266 -0.073080689 0.68599999 4293980137
0.068129271 -0.073081166 0.68599999 4293783527
0.069430307 -0.07308165 0.68599999 4293322976
0.070731401 -0.073082149 0.68599999 4293520101
0.072032519 -0.073082641 0.68599999 4293520101
0.073333681 -0.073083155 0.68599999 4293322722
0.074743681 -0.073190212 0.68699998 4293585894
0.076046832 -0.073190734 0.68699998 4293519586
0.077350028 -0.073191278 0.68699998 4293322206
0.078538768 -0.073085278 0.68599999 4293321952
0.07960739 -0.07287275 0.68400002 4293321952
0.080905013 -0.072873302 0.68400002 4293189599
0.082202703 -0.072873875 0.68400002 4293189599
0.083500423 -0.072874434 0.68400002 4293058783
0.084798194 -0.072875023 0.68400002 4293058783
0.086473599 -0.073195219 0.68699998 4293059035
0.087777182 -0.073195808 0.68699998 4293059035
0.089080788 -0.073196411 0.68699998 4292860890
0.090516008 -0.073303565 0.68800002 4292926683
0.092088543 -0.073517278 0.69 4293124828
0.093397982 -0.073517889 0.69 4292795606
0.094844736 -0.073625065 0.69099998 4292664790
0.096434489 -0.073838793 0.69300002 4292467410
0.097890832 -0.073945992 0.69400001 4292664277
0.099208072 -0.073946632 0.69400001 4292795606
0.1003805 -0.07384073 0.69300002 4292795345
0.10169595 -0.073841386 0.69300002 4292400587
0.10316011 -0.073948599 0.69400001 4292532942
0.10447756 -0.07394927 0.69400001 4292598736
0.10579506 -0.073949941 0.69400001 4292137931
0.10742129 -0.074163713 0.69599998 4292072137
0.10889895 -0.074270964 0.69700003 4292137414
0.11022229 -0.074271642 0.69700003 4292137414
0.11170575 -0.074378893 0.69800001 4292006344
0.11303111 -0.074379586 0.69800001 4292006344
0.11435653 -0.074380279 0.69800001 4291676863
0.11617922 -0.074700668 0.70099998 4291742656
0.11751044 -0.074701354 0.70099998 4291742402
0.1191808 -0.074915208 0.70300001 4291874245
0.12051594 -0.074915916 0.70300001 4291676348
0.12237111 -0.07523632 0.70599997 4291742141
0.12371203 -0.075237036 0.70599997 4291545280
0.12505306 -0.075237766 0.70599997 4291347901
0.12657313 -0.075345047 0.70700002 4291085758
0.12809707 -0.07545235 0.708 4291151551
0.1298077 -0.075666212 0.70999998 4290888379
0.13115652 -0.075666942 0.70999998 4290493877
0.1330653 -0.075987406 0.713 4290691000
0.13460845 -0.076094694 0.71399999 4290493877
0.13710763 -0.076734908 0.72000003 4290624945
0.1388603 -0.076948792 0.722 4290427310
0.14081492 -0.077269264 0.72500002 4290032552
0.0074412702 -0.076163948 0.72799999 4294243052
0.008784527 -0.07585007 0.72500002 4294308588
0.010130427 -0.07564082 0.72299999 4294374381
0.011484656 -0.075536199 0.722 4294308336
0.012817295 -0.075326987 0.72000003 4294571252
0.014122663 -0.075013161 0.71700001 4294375154
0.015459849 -0.074908584 0.71600002 4294178031
0.016769765 -0.074699394 0.71399999 4294441201
0.018122869 -0.074699454 0.71399999 4294506994
0.019394154 -0.074385673 0.71100003 4294571504
0.0206249 -0.073967278 0.70700002 4294571504
0.021933701 -0.073862746 0.70599997 4294505708
0.023271687 -0.073862873 0.70599997 4294505708
0.024609681 -0.073862992 0.70599997 4294308588
0.025874184 -0.073653884 0.704 4294571504
0.027208421 -0.073654026 0.704 4294440688
0.028502125 -0.073549569 0.70300001 4294506481
0.029834494 -0.073549747 0.70300001 4294374381
0.031078205 -0.073340677 0.70099998 4294374381
0.032360584 -0.073236242 0.69999999 4294571504
0.033591073 -0.073027201 0.69800001 4294505710
0.034914032 -0.07302741 0.69800001 4294177259
0.036133189 -0.072818384 0.69599998 4294374894
0.037452396 -0.072818622 0.69599998 4294441203
0.038660225 -0.072609626 0.69400001 4294243824
0.039918084 -0.072505258 0.69300002 4294177259
0.041231677 -0.072505519 0.69300002 4294243052
0.042545296 -0.072505794 0.69300002 4294045930
0.043858938 -0.072506078 0.69300002 4294309101
0.045172606 -0.072506376 0.69300002 4294374894
0.046352144 -0.072297432 0.69099998 4294045930
0.047662076 -0.072297752 0.69099998 4294176233
0.048972033 -0.072298072 0.69099998 4294505197
0.050282031 -0.072298415 0.69099998 4294044646
0.051592037 -0.072298765 0.69099998 4293978853
0.052902088 -0.072299115 0.69099998 4293848037
0.054212168 -0.07229948 0.69099998 4293979366
0.055441946 -0.072195239 0.69 4293979366
0.05675019 -0.072195619 0.69 4293979366
0.058142614 -0.07230065 0.69099998 4293848550
0.059366792 -0.072196417 0.69 4293980137
0.060675144 -0.072196826 0.69 4294045930
0.061983537 -0.072197258 0.69 4293980137
0.063108504 -0.071988419 0.68800002 4293848296
0.064413175 -0.071988866 0.68800002 4293914089
0.06533581 -0.071570769 0.68400002 4293848296
0.066632971 -0.071571231 0.68400002 4293980139
0.067930177 -0.0715717 0.68400002 4293980652
0.06942983 -0.071781442 0.68599999 4293585894
0.070730902 -0.071781911 0.68599999 4293585894
0.07182201 -0.071573123 0.68400002 4293520101
0.07311938 -0.071573623 0.68400002 4292927707
0.074634381 -0.071783409 0.68599999 4293322722
0.07604631 -0.071888566 0.68699998 4293321693
0.077011727 -0.071575165 0.68400002 4293387486
0.07830926 -0.071575686 0.68400002 4293321952
0.079606839 -0.07157623 0.68400002 4293124830
0.080904484 -0.071576774 0.68400002 4292993503
0.082202144 -0.071577311 0.68400002 4292927709
0.083499864 -0.071577877 0.68400002 4292927709
0.084797621 -0.071578428 0.68400002 4292927709
0.08634717 -0.071788296 0.68599999 4292993241
0.087648824 -0.071788862 0.68599999 4292993241
0.089080192 -0.071894109 0.68699998 4293189337
0.090515412 -0.071999341 0.68800002 4293386716
0.092087917 -0.072209246 0.69 4293256157
0.093397364 -0.07220985 0.69 4292664277
0.094844095 -0.072315112 0.69099998 4292664790
0.096433848 -0.072525032 0.69300002 4292664790
0.097890191 -0.072630309 0.69400001 4292598484
0.099207431 -0.072630949 0.69400001 4292532690
0.10052472 -0.072631575 0.69400001 4292466897
0.10184206 -0.072632223 0.69400001 4292401104
0.10315944 -0.072632857 0.69400001 4292466897
0.10447688 -0.072633497 0.69400001 4292401104
0.10579437 -0.072634153 0.69400001 4292006859
0.10742061 -0.07284414 0.69599998 4292006859
0.10874201 -0.072844796 0.69599998 4292072137
0.11022162 -0.072950132 0.69700003 4291940551
0.11154503 -0.07295081 0.69700003 4291940551
0.11303043 -0.073056147 0.69800001 4292006344
0.11435584 -0.073056817 0.69800001 4291808452
0.11617851 -0.073371485 0.70099998 4291808452
0.11750975 -0.073372185 0.70099998 4291545793
0.11884103 -0.073372878 0.70099998 4291611586
0.12051522 -0.07358291 0.70300001 4291283389
0.12202374 -0.073688276 0.704 4291349182
0.12336088 -0.073688969 0.704 4291349182
0.12469808 -0.073689662 0.704 4291283389
0.12639339 -0.073899709 0.70599997 4290954428
0.12791544 -0.074005097 0.70700002 4291085758
0.12944134 -0.074110478 0.708 4290493623
0.1311558 -0.074320532 0.70999998 4290427830
0.13306457 -0.074635282 0.713 4290494391
0.13460772 -0.074740671 0.71399999 4290494391
0.13596432 -0.074741386 0.71399999 4290756791
0.13732098 -0.074742101 0.71399999 4290296240
0.14081417 -0.075894319 0.72500002 4289901734
0.0074412953 -0.074784473 0.72799999 4294308586
0.0087603051 -0.074270822 0.72299999 4294242795
0.010130425 -0.074270815 0.72299999 4294374381
0.01145283 -0.073962651 0.72000003 4294505460
0.012799469 -0.073859937 0.71899998 4294374131
0.014122626 -0.073654518 0.71700001 4294308847
0.015459802 -0.073551834 0.71600002 4294177261
0.016746217 -0.073243707 0.713 4294243052
0.018097414 -0.073243767 0.713 4294374894
0.019394072 -0.073038399 0.71100003 4294505710
0.020624809 -0.072627574 0.70700002 4294571504
0.021933597 -0.072524942 0.70599997 4294505195
0.02327157 -0.072525054 0.70599997 4294505195
0.024609556 -0.072525181 0.70599997 4294374381
0.025874048 -0.072319865 0.704 4294637297
0.027208267 -0.072320007 0.704 4294637297
0.028501961 -0.072217427 0.70300001 4294966519
0.029834315 -0.072217591 0.70300001 4294374640
0.031078016 -0.072012313 0.70099998 4294374640
0.03236039 -0.07190977 0.69999999 4294505710
0.033590868 -0.071704522 0.69800001 4294374381
0.034913819 -0.071704723 0.69800001 4294045932
0.036184873 -0.071602218 0.69700003 4294045932
0.037505973 -0.071602449 0.69700003 4294177261
0.038659967 -0.071294487 0.69400001 4294177261
0.039917827 -0.071192011 0.69300002 4294177261
0.041231409 -0.071192265 0.69300002 4294440690
0.042545017 -0.071192548 0.69300002 4294177259
0.043858651 -0.071192823 0.69300002 4294309101
0.045041941 -0.070987642 0.69099998 4294177259
0.046351831 -0.07098794 0.69099998 4293914343
0.047661755 -0.070988253 0.69099998 4294242795
0.048900839 -0.070885845 0.69 4294571504
0.050208919 -0.070886165 0.69 4294307816
0.051591694 -0.070989244 0.69099998 4294307816
0.052825179 -0.070886858 0.69 4293848037
0.054133356 -0.070887223 0.69 4293782244
0.055441566 -0.070887588 0.69 4293585379
0.056749795 -0.070887953 0.69 4293585379
0.058058083 -0.070888348 0.69 4293585894
0.059366386 -0.070888743 0.69 4293651687
0.060498871 -0.070683673 0.68800002 4293980137
0.061803456 -0.070684083 0.68800002 4293848550
0.063108079 -0.070684507 0.68800002 4293848296
0.064225495 -0.070479453 0.68599999 4293782503
0.065335356 -0.070274405 0.68400002 4293716710
0.066632517 -0.070274845 0.68400002 4293716710
0.067929715 -0.070275307 0.68400002 4293454054
0.06922695 -0.070275769 0.68400002 4293454054
0.070730425 -0.070481718 0.68599999 4293520099
0.071821526 -0.070276715 0.68400002 4293585892
0.073118888 -0.070277199 0.68400002 4293519588
0.074633874 -0.07048317 0.68599999 4293848296
0.075713731 -0.07027819 0.68400002 4293387486
0.077011198 -0.070278682 0.68400002 4293387486
0.078308739 -0.070279203 0.68400002 4293387486
0.079606302 -0.070279725 0.68400002 4293124057
0.080903932 -0.070280246 0.68400002 4292992989
0.082201593 -0.07028079 0.68400002 4293058783
0.083499305 -0.070281327 0.68400002 4292927198
0.084797069 -0.070281886 0.68400002 4292927198
0.086346596 -0.070487931 0.68599999 4293058010
0.087648258 -0.070488498 0.68599999 4292926681
0.088949963 -0.070489071 0.68599999 4293057751
0.090383261 -0.070592396 0.68699998 4293123544
0.091820419 -0.070695728 0.68800002 4292664279
0.093396768 -0.070901833 0.69 4292532436
0.094706245 -0.070902415 0.69 4292533204
0.096154928 -0.071005784 0.69099998 4292664790
0.09788958 -0.07131467 0.69400001 4292400850
0.099206805 -0.071315274 0.69400001 4292137935
0.10052408 -0.071315899 0.69400001 4292334544
0.10184141 -0.071316525 0.69400001 4292334544
0.10301017 -0.071214385 0.69300002 4292269003
0.1043257 -0.071215019 0.69300002 4292269003
0.10579373 -0.071318418 0.69400001 4292072139
0.10741996 -0.07152459 0.69599998 4292072139
0.10874136 -0.071525224 0.69599998 4291940299
0.11022095 -0.071628645 0.69700003 4291940299
0.11154438 -0.071629308 0.69700003 4292006344
0.11286784 -0.071629971 0.69700003 4292072137
0.11419134 -0.071630619 0.69700003 4291808452
0.11617783 -0.072042353 0.70099998 4291874245
0.11750907 -0.072043024 0.70099998 4291414977
0.11884033 -0.072043695 0.70099998 4291414977
0.12051452 -0.072249912 0.70300001 4291349184
0.12184973 -0.072250597 0.70300001 4291546306
0.12336019 -0.072354056 0.704 4291546560
0.1246974 -0.072354734 0.704 4291546560
0.12639271 -0.072560966 0.70599997 4290954174
0.12791476 -0.072664432 0.70700002 4290954174
0.12944064 -0.072767898 0.708 4290691002
0.13115512 -0.072974145 0.70999998 4290624953
0.13306387 -0.073283181 0.713 4290295990
0.1344185 -0.073283881 0.713 4290230197
0.13596362 -0.073387347 0.71399999 4290492592
0.13732025 -0.073388033 0.71399999 4290361006
0.14081345 -0.074519373 0.72500002 4289901988
0.14258337 -0.074725658 0.727 4289507230
0.0074413181 -0.073405035 0.72799999 4294570990
0.0087603154 -0.072900854 0.72299999 4294439404
0.010130425 -0.072900854 0.72299999 4294439404
0.011452818 -0.072598375 0.72000003 4294505458
0.012799446 -0.072497554 0.71899998 4294505458
0.014102896 -0.072195098 0.71600002 4294374381
0.015459755 -0.072195128 0.71600002 4294308588
0.016699186 -0.071691029 0.71100003 4294308588
0.018046584 -0.071691088 0.71100003 4294308588
0.019366713 -0.071590334 0.70999998 4294242795
0.020624718 -0.071287923 0.70700002 4294242795
0.021933496 -0.071187183 0.70599997 4294045411
0.023271456 -0.071187288 0.70599997 4294374633
0.024609428 -0.071187414 0.70599997 4294374381
0.025873909 -0.070985876 0.704 4294571504
0.027169472 -0.070885189 0.70300001 4294374381
0.028420718 -0.070683666 0.70099998 4294505710
0.029749271 -0.070683815 0.70099998 4294374640
0.031033508 -0.070583157 0.69999999 4294440690
0.0323602 -0.070583344 0.69999999 4294571504
0.033590671 -0.07038188 0.69800001 4294505710
0.034913607 -0.070382081 0.69800001 4293980139
0.036184654 -0.070281453 0.69700003 4294045932
0.037451927 -0.070180833 0.69599998 4294308588
0.038659729 -0.069979407 0.69400001 4294242795
0.039917581 -0.069878817 0.69300002 4294112238
0.041231148 -0.06987907 0.69300002 4294178031
0.042421956 -0.069677643 0.69099998 4293914089
0.043731786 -0.069677919 0.69099998 4293914089
0.045041647 -0.069678202 0.69099998 4293979366
0.04628446 -0.069577664 0.69 4294045159
0.047592472 -0.069577962 0.69 4294308588
0.048900519 -0.069578283 0.69 4294110953
0.050208583 -0.069578595 0.69 4293913060
0.051516686 -0.069578923 0.69 4294044646
0.052671712 -0.069377579 0.68800002 4293847783
0.053976089 -0.069377936 0.68800002 4293979112
0.055280495 -0.069378287 0.68800002 4293520099
0.056584936 -0.069378659 0.68800002 4293256927
0.058057696 -0.069580719 0.69 4293389031
0.05919392 -0.069379419 0.68800002 4293586153
0.060498461 -0.069379814 0.68800002 4293914343
0.061803039 -0.069380209 0.68800002 4293914343
0.062924206 -0.069178931 0.68599999 4293848550
0.06422507 -0.069179349 0.68599999 4293848550
0.065334931 -0.068978086 0.68400002 4293782503
0.06663207 -0.068978511 0.68400002 4293585381
0.06792926 -0.068978958 0.68400002 4293519588
0.069226496 -0.068979405 0.68400002 4293519588
0.070523746 -0.068979852 0.68400002 4293453792
0.071821064 -0.068980329 0.68400002 4293453792
0.073118411 -0.068980798 0.68400002 4293715936
0.074633382 -0.069182977 0.68599999 4293584093
0.075713225 -0.068981752 0.68400002 4293386716
0.077010699 -0.068982251 0.68400002 4293452509
0.078308225 -0.06898275 0.68400002 4293321693
0.079605788 -0.068983257 0.68400002 4293189851
0.080903403 -0.068983771 0.68400002 4292860890
0.082201064 -0.068984292 0.68400002 4293058012
0.083498776 -0.068984829 0.68400002 4293189339
0.084796511 -0.06898535 0.68400002 4293255133
0.086094312 -0.068985894 0.68400002 4293057751
0.087647706 -0.069188163 0.68599999 4292991958
0.08894939 -0.069188707 0.68599999 4292664277
0.090382695 -0.069290124 0.68699998 4292532690
0.091819838 -0.069391556 0.68800002 4292466897
0.09312547 -0.06939213 0.68800002 4292532690
0.094705664 -0.06959442 0.69 4292598484
0.096015193 -0.069595002 0.69 4292598484
0.097747929 -0.069898188 0.69300002 4292335309
0.099206194 -0.069999643 0.69400001 4292203980
0.10037863 -0.069899388 0.69300002 4292531407
0.10169405 -0.069899991 0.69300002 4292465614
0.10300955 -0.069900602 0.69300002 4292465612
0.10432509 -0.069901213 0.69300002 4292465612
0.10579311 -0.070002697 0.69400001 4292269003
0.10711066 -0.070003323 0.69400001 4292202953
0.10842825 -0.070003949 0.69400001 4291874245
0.11006218 -0.070206329 0.69599998 4292005831
0.11138368 -0.070206963 0.69599998 4292005831
0.11286718 -0.070308469 0.69700003 4291940038
0.1141907 -0.07030911 0.69700003 4291939268
0.11617719 -0.070713252 0.70099998 4291807938
0.11750841 -0.070713907 0.70099998 4291283391
0.11883966 -0.070714548 0.70099998 4291085756
0.12051387 -0.070916966 0.70300001 4291020731
0.12184905 -0.070917614 0.70300001 4291086780
0.12335952 -0.071019158 0.704 4291217342
0.12469672 -0.071019821 0.704 4291283391
0.12639202 -0.071222246 0.70599997 4290888381
0.12791407 -0.071323805 0.70700002 4290954174
0.12943995 -0.071425349 0.708 4290952889
0.13115443 -0.071627788 0.70999998 4290624180
0.13306317 -0.071931101 0.713 4290623408
0.13441782 -0.071931787 0.713 4290623408
0.13596292 -0.072033346 0.71399999 4290492592
0.13731956 -0.072034016 0.71399999 4290361006
0.14081275 -0.073144473 0.72500002 4289703591
0.14258268 -0.073346943 0.727 4289374627
0.0074106781 -0.071728818 0.72500002 4294374381
0.0087603293 -0.071530923 0.72299999 4294308588
0.010116415 -0.071431987 0.722 4294571504
0.011452806 -0.071234122 0.72000003 4294177259
0.012763821 -0.070937321 0.71700001 4294045930
0.014063468 -0.070640549 0.71399999 4294045930
0.015416524 -0.070640571 0.71399999 4294045930
0.016675642 -0.070244879 0.70999998 4294177513
0.018021135 -0.070244946 0.70999998 4294243306
0.019312082 -0.070047148 0.708 4294176746
0.020624626 -0.069948286 0.70700002 4294110953
0.021933395 -0.069849439 0.70599997 4294176485
0.023271346 -0.069849551 0.70599997 4294439656
0.024609307 -0.069849662 0.70599997 4294308588
0.025873775 -0.069651917 0.704 4294637297
0.027169328 -0.069553114 0.70300001 4294308588
0.028420562 -0.069355376 0.70099998 4294308588
0.02970667 -0.069256596 0.69999999 4294506483
0.031033332 -0.06925676 0.69999999 4294703605
0.032360017 -0.069256939 0.69999999 4294571758
0.033590473 -0.069059245 0.69800001 4294571758
0.034913402 -0.069059446 0.69800001 4294110955
0.036028694 -0.068663903 0.69400001 4294176748
0.037344083 -0.068664111 0.69400001 4294242795
0.038659498 -0.068664342 0.69400001 4294374381
0.039917339 -0.068565637 0.69300002 4294308847
0.041230895 -0.068565875 0.69300002 4294374640
0.042421699 -0.068368256 0.69099998 4293980139
0.043731514 -0.068368517 0.69099998 4293914089
0.045041367 -0.068368793 0.69099998 4293848296
0.046284162 -0.068270132 0.69 4293848296
0.047592171 -0.068270423 0.69 4293914343
0.048758466 -0.068072848 0.68800002 4293585379
0.050062738 -0.068073153 0.68800002 4293716449
0.051367037 -0.068073474 0.68800002 4293782242
0.05267138 -0.068073802 0.68800002 4293782503
0.053975746 -0.068074144 0.68800002 4293782503
0.055280149 -0.068074495 0.68800002 4293585894
0.056584578 -0.068074852 0.68800002 4293520101
0.057889037 -0.06807521 0.68800002 4293651435
0.059193537 -0.068075582 0.68800002 4293651435
0.060498077 -0.06807597 0.68800002 4293848550
0.061443321 -0.06768056 0.68400002 4293848550
0.062740341 -0.067680955 0.68400002 4293717478
0.064037405 -0.067681365 0.68400002 4293651685
0.065334514 -0.067681782 0.68400002 4293782757
0.066631638 -0.067682184 0.68400002 4293716708
0.067928828 -0.067682624 0.68400002 4293716708
0.069226041 -0.067683056 0.68400002 4293782757
0.070523292 -0.067683503 0.68400002 4293453792
0.071820594 -0.067683965 0.68400002 4293387999
0.073117942 -0.067684419 0.68400002 4293518550
0.074632913 -0.067882791 0.68599999 4293255635
0.075934127 -0.067883268 0.68599999 4293255131
0.077010214 -0.067685835 0.68400002 4293386716
0.078307725 -0.067686327 0.68400002 4293321693
0.079605289 -0.067686819 0.68400002 4293387486
0.080902897 -0.067687318 0.68400002 4293058012
0.082200564 -0.067687832 0.68400002 4293189599
0.083498247 -0.067688331 0.68400002 4293386716
0.084795997 -0.067688853 0.68400002 4293649888
0.086093768 -0.067689382 0.68400002 4293057751
0.087391637 -0.067689918 0.68400002 4292991958
0.088689521 -0.067690454 0.68400002 4292664277
0.090250589 -0.067888916 0.68599999 4292598484
0.091819271 -0.068087392 0.68800002 4292533204
0.093124904 -0.068087958 0.68800002 4292270032
0.094705082 -0.068286434 0.69 4292532690
0.096014604 -0.068287008 0.69 4292466897
0.097465239 -0.068386555 0.69099998 4292466382
0.099062666 -0.068585075 0.69300002 4292334796
0.10037803 -0.068585649 0.69300002 4292400589
0.10169347 -0.068586238 0.69300002 4292466382
0.10300894 -0.068586834 0.69300002 4292400841
0.10432447 -0.06858743 0.69300002 4292400841
0.10579249 -0.068686999 0.69400001 4292269003
0.10711005 -0.06868761 0.69400001 4292202953
0.10842764 -0.068688221 0.69400001 4292202953
0.11006156 -0.068886779 0.69599998 4292202953
0.11138306 -0.068887398 0.69599998 4292203207
0.11286656 -0.068987004 0.69700003 4291874243
0.11419006 -0.068987615 0.69700003 4291741891
0.11601081 -0.069285177 0.69999999 4291741891
0.11734013 -0.06928581 0.69999999 4291414207
0.11883905 -0.069385432 0.70099998 4291282878
0.12051325 -0.069584027 0.70300001 4291151801
0.12184841 -0.06958466 0.70300001 4291217594
0.12335888 -0.069684289 0.704 4291282878
0.12469607 -0.06968493 0.704 4291414207
0.12639137 -0.069883548 0.70599997 4291019449
0.12791342 -0.069983184 0.70700002 4291085242
0.12943929 -0.070082814 0.708 4290755509
0.13115376 -0.070281439 0.70999998 4290426545
0.13306253 -0.070579059 0.713 4290492592
0.13441715 -0.070579708 0.713 4290953143
0.13596226 -0.070679352 0.71399999 4290492592
0.13731892 -0.070680015 0.71399999 4290361006
0.13925831 -0.070977643 0.71700001 4289834928
0.14101301 -0.071176283 0.71899998 4289308584
0.14237933 -0.071176939 0.71899998 4289967279
0.0074107014 -0.070355132 0.72500002 4294177261
0.0087603424 -0.07016103 0.72299999 4294177259
0.010116417 -0.070063978 0.722 4294177259
0.011452797 -0.069869906 0.72000003 4293980650
0.0127638 -0.069578804 0.71700001 4293914857
0.014063437 -0.069287688 0.71399999 4293520099
0.015394892 -0.069190688 0.713 4293980650
0.016675591 -0.068899617 0.70999998 4294177259
0.018021069 -0.068899669 0.70999998 4294177259
0.019312004 -0.068705656 0.708 4293980137
0.020624544 -0.068608694 0.70700002 4293980137
0.021933299 -0.068511732 0.70599997 4294046184
0.023271238 -0.068511836 0.70599997 4294046184
0.024609186 -0.068511948 0.70599997 4294242795
0.02587365 -0.06831798 0.704 4294242795
0.027169194 -0.068221077 0.70300001 4294176746
0.028420413 -0.068027124 0.70099998 4294242795
0.029706508 -0.067930236 0.69999999 4294506481
0.030944502 -0.06773632 0.69800001 4294440688
0.032267384 -0.067736492 0.69800001 4294177259
0.033494033 -0.067542575 0.69599998 4294177259
0.03471313 -0.067348689 0.69400001 4293979366
0.036028482 -0.067348875 0.69400001 4294110953
0.037343867 -0.067349091 0.69400001 4294176746
0.038603567 -0.067252263 0.69300002 4294308588
0.039917093 -0.067252487 0.69300002 4294242795
0.041230645 -0.067252733 0.69300002 4294308588
0.042421442 -0.067058891 0.69099998 4293914089
0.043731257 -0.067059144 0.69099998 4293914089
0.045041092 -0.067059413 0.69099998 4293717480
0.046283882 -0.066962644 0.69 4293585894
0.047591876 -0.066962928 0.69 4293717478
0.048758164 -0.066769131 0.68800002 4293651685
0.050062429 -0.066769429 0.68800002 4293585892
0.051366724 -0.066769741 0.68800002 4293585892
0.052671053 -0.066770062 0.68800002 4293520101
0.053975407 -0.06677039 0.68800002 4293585894
0.055199448 -0.066673674 0.68699998 4293716710
0.056419726 -0.066576958 0.68599999 4293585381
0.057720382 -0.066577315 0.68599999 4293585894
0.059193168 -0.06677179 0.68800002 4293520101
0.060497694 -0.066772163 0.68800002 4293322206
0.061442934 -0.066384323 0.68400002 4293585379
0.062739953 -0.066384718 0.68400002 4293520099
0.064037003 -0.066385105 0.68400002 4293585892
0.065334097 -0.066385508 0.68400002 4293191136
0.066631228 -0.066385917 0.68400002 4293256929
0.067829095 -0.066289276 0.68300003 4293387745
0.069124401 -0.066289701 0.68300003 4293321952
0.070522852 -0.066387184 0.68400002 4293322206
0.072030142 -0.066581741 0.68599999 4293387999
0.073331274 -0.066582188 0.68599999 4293387484
0.074632436 -0.066582642 0.68599999 4293255898
0.07593365 -0.066583097 0.68599999 4293255644
0.077234916 -0.066583581 0.68599999 4293255644
0.078307241 -0.066389911 0.68400002 4293124057
0.07960479 -0.066390395 0.68400002 4293124057
0.080902405 -0.066390894 0.68400002 4292991704
0.08220005 -0.066391379 0.68400002 4293123546
0.083497733 -0.066391885 0.68400002 4293057751
0.084795475 -0.066392384 0.68400002 4293057751
0.086093247 -0.066392899 0.68400002 4292926935
0.087391108 -0.066393413 0.68400002 4292861142
0.088688985 -0.066393934 0.68400002 4292664277
0.08998692 -0.066394463 0.68400002 4292795606
0.091551803 -0.066589117 0.68599999 4292665044
0.092988983 -0.066686735 0.68699998 4292270286
0.094292767 -0.066687278 0.68699998 4292466895
0.095596582 -0.06668783 0.68699998 4292466895
0.09704154 -0.066785462 0.68800002 4292466634
0.098633245 -0.066980161 0.69 4292268999
0.099942923 -0.066980727 0.69 4292202953
0.10139939 -0.067078374 0.69099998 4292202953
0.10271107 -0.067078948 0.69099998 4292269001
0.10432389 -0.067273676 0.69300002 4292203207
0.10579191 -0.067371339 0.69400001 4292137160
0.10710945 -0.06737192 0.69400001 4292137160
0.10842703 -0.067372516 0.69400001 4292137160
0.11006094 -0.067567267 0.69599998 4292137160
0.11138244 -0.067567863 0.69599998 4292203205
0.112704 -0.067568466 0.69599998 4291940290
0.11418943 -0.067666158 0.69700003 4291742145
0.11567876 -0.06776385 0.69800001 4291742145
0.11733952 -0.067958631 0.69999999 4291676609
0.11917747 -0.068250485 0.70300001 4291479487
0.1205126 -0.068251118 0.70300001 4291413692
0.12184778 -0.068251736 0.70300001 4291413692
0.12335823 -0.068349436 0.704 4291216058
0.12504968 -0.068544239 0.70599997 4291413694
0.12639073 -0.068544857 0.70599997 4291084729
0.12809369 -0.068739675 0.708 4291018936
0.12943867 -0.068740308 0.708 4290754994
0.13133785 -0.069032215 0.71100003 4290557615
0.13306187 -0.069227025 0.713 4290557613
0.13441649 -0.069227658 0.713 4290689455
0.13596164 -0.069325387 0.71399999 4290360752
0.13770293 -0.069520213 0.71600002 4290360752
0.13925767 -0.069617949 0.71700001 4290360752
0.14101236 -0.069812767 0.71899998 4289571492
0.14237869 -0.069813415 0.71899998 4289572003
0.007431169 -0.069171771 0.727 4294308847
0.0087603545 -0.068791158 0.72299999 4293848296
0.010116418 -0.068696 0.722 4293585381
0.011436881 -0.068410568 0.71899998 4293716712
0.012745977 -0.068125144 0.71600002 4294243056
0.014043708 -0.067839727 0.713 4293914089
0.01539485 -0.067839757 0.713 4294177261
0.016699024 -0.067649506 0.71100003 4294243052
0.018021006 -0.067554414 0.70999998 4294309101
0.019311935 -0.067364201 0.708 4293914089
0.020595286 -0.067173965 0.70599997 4293914089
0.021933205 -0.067174062 0.70599997 4294176746
0.023271138 -0.067174159 0.70599997 4294110953
0.024609076 -0.067174271 0.70599997 4294045161
0.025873527 -0.066984087 0.704 4293979112
0.027169058 -0.066889063 0.70300001 4293979112
0.028420271 -0.066698909 0.70099998 4294110955
0.029706355 -0.066603899 0.69999999 4294374379
0.030944336 -0.06641376 0.69800001 4294571758
0.032267205 -0.066413924 0.69800001 4294045930
0.03349385 -0.066223808 0.69599998 4293980137
0.034712937 -0.066033691 0.69400001 4294110953
0.036028288 -0.066033892 0.69400001 4294308588
0.037289847 -0.065938935 0.69300002 4294242793
0.038603339 -0.065939151 0.69300002 4294308586
0.039801665 -0.065749072 0.69099998 4294045930
0.041111417 -0.065749295 0.69099998 4294045930
0.042421188 -0.065749533 0.69099998 4293914089
0.043667708 -0.065654643 0.69 4293914089
0.044975642 -0.065654904 0.69 4293717480
0.046283606 -0.065655164 0.69 4293651687
0.047591593 -0.065655448 0.69 4293651685
0.048899602 -0.065655738 0.69 4293717478
0.050207656 -0.065656021 0.69 4293716708
0.051366407 -0.065466024 0.68800002 4293716708
0.052594166 -0.065371171 0.68699998 4293585381
0.053896617 -0.065371491 0.68699998 4293585381
0.055118758 -0.06527666 0.68599999 4293585379
0.056419384 -0.065277003 0.68599999 4293519586
0.057720043 -0.065277338 0.68599999 4293519586
0.05884866 -0.065087385 0.68400002 4293519586
0.060145594 -0.065087751 0.68400002 4293650402
0.061442569 -0.065088108 0.68400002 4293848037
0.062739566 -0.065088481 0.68400002 4293651685
0.064036615 -0.065088868 0.68400002 4293914857
0.065238178 -0.064994097 0.68300003 4293191138
0.066533402 -0.064994484 0.68300003 4293256931
0.067729361 -0.064899728 0.68199998 4293321952
0.069022767 -0.064900145 0.68199998 4293256159
0.070522428 -0.065090887 0.68400002 4293321439
0.071819715 -0.065091319 0.68400002 4293387232
0.07311704 -0.065091744 0.68400002 4293387232
0.07441441 -0.065092191 0.68400002 4293321439
0.075711809 -0.065092638 0.68400002 4293256157
0.077234447 -0.06528341 0.68599999 4293322206
0.078306779 -0.065093547 0.68400002 4292993241
0.07960432 -0.065094002 0.68400002 4292993241
0.080901913 -0.065094478 0.68400002 4293057753
0.082199551 -0.065094963 0.68400002 4293123546
0.083497256 -0.065095447 0.68400002 4292860888
0.084794968 -0.065095931 0.68400002 4292795095
0.086092748 -0.06509643 0.68400002 4292664790
0.087390602 -0.065096937 0.68400002 4292598997
0.088688456 -0.065097436 0.68400002 4292664277
0.089986399 -0.06509795 0.68400002 4292795606
0.091551282 -0.065288812 0.68599999 4292664527
0.092988461 -0.065384507 0.68699998 4292072389
0.094292223 -0.065385029 0.68699998 4292401102
0.095596053 -0.065385565 0.68699998 4292466895
0.097040974 -0.06548129 0.68800002 4292597702
0.098632678 -0.065672182 0.69 4292334531
0.099942356 -0.065672725 0.69 4292202953
0.10125209 -0.065673269 0.69 4292202953
0.10271049 -0.065769009 0.69099998 4292334281
0.1043233 -0.065959938 0.69300002 4292202694
0.10563888 -0.065960504 0.69300002 4292005831
0.10695454 -0.06596107 0.69300002 4292005831
0.10842644 -0.066056825 0.69400001 4292005831
0.10974409 -0.066057414 0.69400001 4291940038
0.1110618 -0.066057988 0.69400001 4292071104
0.11270341 -0.066248946 0.69599998 4292071104
0.114025 -0.06624952 0.69599998 4291676096
0.11551242 -0.066345304 0.69700003 4291742145
0.11700366 -0.066441081 0.69800001 4291545280
0.11883779 -0.066727228 0.70099998 4291413694
0.12051199 -0.066918209 0.70300001 4291479485
0.12202048 -0.067014001 0.704 4291479485
0.12335764 -0.067014612 0.704 4291478717
0.12504907 -0.067205593 0.70599997 4291610303
0.12639011 -0.067206196 0.70599997 4291215286
0.12809308 -0.0673972 0.708 4291149493
0.12980369 -0.067588195 0.70999998 4290755507
0.13133724 -0.067684002 0.71100003 4290097834
0.13306125 -0.067875013 0.713 4290360488
0.13441589 -0.067875631 0.713 4290557867
0.135961 -0.067971431 0.71399999 4290360752
0.13770229 -0.068162441 0.71600002 4290360752
0.13925701 -0.068258256 0.71700001 4290229934
0.1406195 -0.068258874 0.71700001 4289572003
0.14198203 -0.068259493 0.71700001 4289375390
0.0087603685 -0.067421317 0.72299999 4293716708
0.010088397 -0.067141555 0.72000003 4293782757
0.011405059 -0.066861801 0.71700001 4293782244
0.012745961 -0.066768564 0.71600002 4293848037
0.014043678 -0.066488825 0.713 4293782757
0.015394812 -0.066488862 0.713 4293980137
0.016698975 -0.066302396 0.71100003 4294045159
0.018020948 -0.066209204 0.70999998 4294045159
0.019284587 -0.065929502 0.70700002 4294110953
0.020595206 -0.065836325 0.70599997 4294110953
0.021870982 -0.065649897 0.704 4294111207
0.023205111 -0.065649994 0.704 4294111207
0.024539251 -0.065650105 0.704 4293980137
0.025873402 -0.06565021 0.704 4293914343
0.02716893 -0.065557085 0.70300001 4294045159
0.028420128 -0.065370709 0.70099998 4294110953
0.029706206 -0.065277599 0.69999999 4294177000
0.030944178 -0.065091245 0.69800001 4294242793
0.032267042 -0.065091394 0.69800001 4294045930
0.033493672 -0.064905062 0.69599998 4293980137
0.03471275 -0.064718738 0.69400001 4293980137
0.036028087 -0.064718924 0.69400001 4293980137
0.037289638 -0.064625867 0.69300002 4293848550
0.038603131 -0.064626075 0.69300002 4293848550
0.039801437 -0.064439766 0.69099998 4293783527
0.041111182 -0.064439997 0.69099998 4293914857
0.042359557 -0.064346969 0.69 4293980137
0.043667458 -0.064347215 0.69 4293914343
0.04484503 -0.06416095 0.68800002 4293717478
0.046149179 -0.064161211 0.68800002 4293717478
0.047453366 -0.064161479 0.68800002 4293717478
0.048899323 -0.064348266 0.69 4293651685
0.050207362 -0.064348556 0.69 4293191136
0.051366113 -0.064162329 0.68800002 4293520101
0.052593861 -0.064069368 0.68699998 4293716708
0.053817857 -0.063976422 0.68599999 4293519586
0.055118434 -0.063976742 0.68599999 4293387486
0.056419052 -0.06397707 0.68599999 4293716195
0.057551417 -0.063790873 0.68400002 4293650402
0.058848307 -0.063791215 0.68400002 4293650402
0.060145229 -0.063791558 0.68400002 4293716195
0.061442189 -0.063791916 0.68400002 4293782244
0.062739201 -0.063792281 0.68400002 4293256927
0.063942611 -0.063699387 0.68300003 4293125341
0.065237798 -0.063699767 0.68300003 4293256159
0.066533007 -0.063700154 0.68300003 4293453538
0.067728966 -0.063607275 0.68199998 4293649888
0.069022357 -0.06360767 0.68199998 4293518302
0.070418909 -0.063701347 0.68300003 4293518302
0.071819298 -0.06379503 0.68400002 4293584095
0.073116608 -0.06379544 0.68400002 4293321693
0.074413955 -0.063795872 0.68400002 4293255644
0.075711377 -0.063796312 0.68400002 4293059548
0.077234 -0.063983291 0.68599999 4293059548
0.078306317 -0.063797191 0.68400002 4293059548
0.079603866 -0.063797645 0.68400002 4293059548
0.080901451 -0.0637981 0.68400002 4293058264
0.082199082 -0.063798562 0.68400002 4293124057
0.083496757 -0.063799031 0.68400002 4292795606
0.084794492 -0.063799508 0.68400002 4292664277
0.086092249 -0.063799985 0.68400002 4292730583
0.087390102 -0.063800476 0.68400002 4292664790
