# .PCD v0.7 - Point Cloud Data file format
VERSION 0.7
FIELDS x y z rgba
SIZE 4 4 4 4
TYPE F F F U
COUNT 1 1 1 1
WIDTH 1004
HEIGHT 1
VIEWPOINT 0 0 0 1 0 0 0
POINTS 1004
DATA ascii
0.069948398 -0.011238919 0.64300001 4294967295
0.071167961 -0.011238748 0.64300001 4294967295
0.072500154 -0.011256054 0.64399999 4294967295
0.073721722 -0.01125588 0.64399999 4294967295
0.075292438 -0.011308134 0.64700001 4294967295
0.07663805 -0.011325429 0.648 4294967295
0.077867337 -0.011325241 0.648 4294967295
0.07921873 -0.011342528 0.64899999 4294967295
0.080573969 -0.011359813 0.64999998 4294967295
0.082058907 -0.01139457 0.65200001 4294967294
0.083295994 -0.011394369 0.65200001 4294967295
0.08479239 -0.011429113 0.65399998 4294967295
0.086164914 -0.011446383 0.65499997 4294967295
0.087407827 -0.011446171 0.65499997 4294967295
0.088921487 -0.011480905 0.65700001 4294967295
0.090305522 -0.011498159 0.65799999 4294967295
0.091554284 -0.011497934 0.65799999 4294967295
0.09294413 -0.011515182 0.65899998 4294967292
0.094623707 -0.01156737 0.662 4294967292
0.096459582 -0.011637028 0.66600001 4294966263
0.097870454 -0.01165426 0.667 4294966778
0.099136561 -0.011654015 0.667 4294966778
0.10055327 -0.011671238 0.66799998 4294966778
0.10623251 -0.011880117 0.68000001 4294505458
0.10752359 -0.011879848 0.68000001 4294571252
0.10881473 -0.011879576 0.68000001 4294176750
-0.023796353 -0.010524787 0.67500001 4294965744
-0.022383709 -0.010462458 0.671 4294965746
-0.021112099 -0.010462495 0.671 4294965746
-0.019840509 -0.010462531 0.671 4294966005
-0.018568939 -0.010462562 0.671 4294967290
-0.017271608 -0.010446997 0.67000002 4294967029
-0.015930323 -0.010400246 0.667 4294966772
-0.014644402 -0.010384678 0.66600001 4294966776
-0.013382376 -0.010384697 0.66600001 4294967033
-0.012047572 -0.010322343 0.662 4294967288
-0.010744243 -0.010275578 0.65899998 4294967290
-0.0094811171 -0.010259997 0.65799999 4294967288
-0.0082217902 -0.010244412 0.65700001 4294967293
-0.0069768848 -0.010244418 0.65700001 4294967295
-0.0057145385 -0.010213234 0.65499997 4294967295
-0.0044666119 -0.010197641 0.65399998 4294967295
-0.0032274176 -0.010197638 0.65399998 4294967295
-0.0019851895 -0.01018204 0.653 4294967295
-0.00074790238 -0.01018203 0.653 4294967295
0.00048863032 -0.010166426 0.65200001 4294967295
0.0017240136 -0.010166411 0.65200001 4294967295
0.0029503158 -0.010135208 0.64999998 4294967295
0.0041754707 -0.010119595 0.64899999 4294967295
0.005396835 -0.01010398 0.648 4294967295
0.0066144108 -0.010088362 0.64700001 4294967295
0.0078281956 -0.01007274 0.64600003 4294967295
0.0090522068 -0.010072708 0.64600003 4294967295
0.01027622 -0.010072676 0.64600003 4294967295
0.011500238 -0.010072638 0.64600003 4294967295
0.012684864 -0.010041413 0.64399999 4294967295
0.013861918 -0.010010186 0.64200002 4294967295
0.01507837 -0.01001014 0.64200002 4294967295
0.016294831 -0.010010093 0.64200002 4294967295
0.017484026 -0.0099944491 0.64099997 4294967295
0.01869861 -0.0099943951 0.64099997 4294967295
0.019882141 -0.0099787479 0.63999999 4294967295
0.021094849 -0.0099786883 0.63999999 4294967295
0.022307571 -0.0099786259 0.63999999 4294967295
0.023520308 -0.0099785617 0.63999999 4294967295
0.024771702 -0.009994084 0.64099997 4294967295
0.02598636 -0.0099940142 0.64099997 4294967295
0.027158596 -0.0099783493 0.63999999 4294967295
0.028371394 -0.009978273 0.63999999 4294967295
0.029491754 -0.0099470122 0.63800001 4294967295
0.030700797 -0.0099469312 0.63800001 4294967295
0.031909857 -0.0099468464 0.63800001 4294967295
0.033118937 -0.0099467579 0.63800001 4294967295
0.034328032 -0.0099466676 0.63800001 4294967295
0.035537153 -0.0099465745 0.63800001 4294967295
0.036746308 -0.0099464795 0.63800001 4294967295
0.038074456 -0.0099775577 0.63999999 4294967295
0.039287437 -0.0099774571 0.63999999 4294967295
0.040500443 -0.0099773509 0.63999999 4294967295
0.04171348 -0.0099772429 0.63999999 4294967295
0.042926539 -0.0099771312 0.63999999 4294967295
0.044001698 -0.0099458396 0.63800001 4294967295
0.045211013 -0.0099457223 0.63800001 4294967295
0.046420362 -0.0099456012 0.63800001 4294967295
0.047779065 -0.0099766562 0.63999999 4294967295
0.048992269 -0.0099765295 0.63999999 4294967295
0.050205503 -0.0099763991 0.63999999 4294967295
0.051258095 -0.0099450918 0.63800001 4294967295
0.052467611 -0.0099449577 0.63800001 4294967295
0.05384542 -0.0099759931 0.63999999 4294967295
0.055144813 -0.0099914372 0.64099997 4294967295
0.056360114 -0.0099912919 0.64099997 4294967295
0.057575464 -0.0099911448 0.64099997 4294967295
0.058790836 -0.009990993 0.64099997 4294967295
0.059912637 -0.0099752527 0.63999999 4294967295
0.061126187 -0.0099750943 0.63999999 4294967295
0.062339783 -0.0099749332 0.63999999 4294967295
0.063652724 -0.0099903541 0.64099997 4294967295
0.064868294 -0.0099901883 0.64099997 4294967295
0.066187009 -0.010005603 0.64200002 4294967295
0.067404553 -0.010005428 0.64200002 4294967295
0.06862215 -0.010005251 0.64200002 4294967295
0.069948576 -0.010020654 0.64300001 4294967295
0.071168147 -0.010020469 0.64300001 4294967295
0.072500333 -0.010035864 0.64399999 4294967295
0.073721908 -0.010035673 0.64399999 4294967295
0.075176254 -0.010066643 0.64600003 4294967295
0.076519974 -0.010082027 0.64700001 4294967295
0.077987693 -0.010112988 0.64899999 4294967295
0.079340994 -0.010128364 0.64999998 4294967295
0.080574162 -0.010128153 0.64999998 4294967295
0.082059115 -0.010159103 0.65200001 4294967295
0.083296202 -0.010158884 0.65200001 4294967295
0.084792614 -0.010189822 0.65399998 4294967295
0.08616513 -0.010205178 0.65499997 4294967295
0.087408058 -0.010204946 0.65499997 4294967295
0.088921703 -0.01023587 0.65700001 4294967295
0.090305761 -0.010251211 0.65799999 4294967294
0.091554515 -0.010250969 0.65799999 4294967293
0.092944376 -0.0102663 0.65899998 4294967292
0.094623961 -0.010312785 0.662 4294967292
0.09617015 -0.010343685 0.66399997 4294966267
0.097723983 -0.010374579 0.66600001 4294966267
0.098988205 -0.010374314 0.66600001 4294966261
0.10040301 -0.010389622 0.667 4294966261
0.10494176 -0.010591556 0.68000001 4294374381
0.10623278 -0.010591269 0.68000001 4294505712
0.10752386 -0.010590978 0.68000001 4294505712
0.10881501 -0.010590683 0.68000001 4294242543
0.11010621 -0.010590384 0.68000001 4292926683
0.11139747 -0.01059008 0.68000001 4291479248
0.1126888 -0.010589772 0.68000001 4291084490
-0.02655012 -0.009314619 0.68000001 4294966259
-0.025224233 -0.0093009761 0.67900002 4294899440
-0.023902157 -0.0092873294 0.67799997 4294965746
-0.022483822 -0.0092325853 0.67400002 4294966001
-0.021112133 -0.0091915354 0.671 4294966001
-0.019810975 -0.0091778785 0.67000002 4294966259
-0.018541297 -0.0091779167 0.67000002 4294967286
-0.017271642 -0.0091779521 0.67000002 4294967029
-0.015930349 -0.0091368873 0.667 4294967029
-0.014600447 -0.0090958215 0.66399997 4294967031
-0.013322115 -0.0090821488 0.66299999 4294967031
-0.012047589 -0.0090684704 0.662 4294967031
-0.010744259 -0.0090273935 0.65899998 4294967290
-0.0094667189 -0.0090000108 0.65700001 4294967289
-0.0082217986 -0.009000022 0.65700001 4294967293
-0.0069556511 -0.0089726336 0.65499997 4294967295
-0.0056970925 -0.0089452416 0.653 4294967295
-0.0044529522 -0.0089315455 0.65200001 4294967295
-0.0032175442 -0.0089315446 0.65200001 4294967295
-0.0019821427 -0.0089315409 0.65200001 4294967295
-0.00074674742 -0.0089315334 0.65200001 4294967295
0.00048714393 -0.0089041255 0.64999998 4294967295
0.0017160964 -0.0088904127 0.64899999 4294967295
0.0029457952 -0.008890396 0.64899999 4294967295
0.0041690585 -0.0088766795 0.648 4294967295
0.0053885314 -0.0088629574 0.64700001 4294967295
0.0066042137 -0.0088492334 0.64600003 4294967295
0.0078282263 -0.0088492054 0.64600003 4294967295
0.009024214 -0.0088217752 0.64399999 4294967295
0.010244439 -0.0088217407 0.64399999 4294967295
0.01146467 -0.0088217007 0.64399999 4294967295
0.012665209 -0.0088079628 0.64300001 4294967295
0.013861964 -0.0087942192 0.64200002 4294967295
0.015054932 -0.0087804738 0.64099997 4294967295
0.016269501 -0.0087804236 0.64099997 4294967295
0.01748408 -0.0087803686 0.64099997 4294967295
0.018669495 -0.0087666148 0.63999999 4294967295
0.0198822 -0.0087665552 0.63999999 4294967295
0.021094915 -0.0087664928 0.63999999 4294967295
0.022307636 -0.0087664248 0.63999999 4294967295
0.023520377 -0.0087663559 0.63999999 4294967295
0.02477177 -0.0087799802 0.64099997 4294967295
0.025986431 -0.0087799048 0.64099997 4294967295
0.027158674 -0.0087661296 0.63999999 4294967295
0.028371474 -0.0087660467 0.63999999 4294967295
0.02949184 -0.008738569 0.63800001 4294967295
0.030700883 -0.0087384805 0.63800001 4294967295
0.031909946 -0.0087383892 0.63800001 4294967295
0.033119034 -0.0087382961 0.63800001 4294967295
0.034328129 -0.0087381974 0.63800001 4294967295
0.035537258 -0.0087380968 0.63800001 4294967295
0.036746409 -0.0087379925 0.63800001 4294967295
0.037955578 -0.0087378863 0.63800001 4294967295
0.039164774 -0.0087377755 0.63800001 4294967295
0.040373992 -0.0087376609 0.63800001 4294967295
0.041583236 -0.0087375445 0.63800001 4294967295
0.04279251 -0.0087374235 0.63800001 4294967295
0.043932844 -0.0087236064 0.63700002 4294967295
0.045140274 -0.0087234797 0.63700002 4294967295
0.046420492 -0.0087370444 0.63800001 4294967295
0.047629878 -0.0087369103 0.63800001 4294967295
0.04876275 -0.0087230802 0.63700002 4294967295
0.049970303 -0.0087229405 0.63700002 4294967295
0.0511779 -0.008722797 0.63700002 4294967295
0.052467756 -0.008736345 0.63800001 4294967295
0.053845569 -0.0087635806 0.63999999 4294967295
0.055144969 -0.0087771183 0.64099997 4294967295
0.056360278 -0.0087769618 0.64099997 4294967295
0.057575621 -0.0087768007 0.64099997 4294967295
0.058790993 -0.0087766359 0.64099997 4294967295
0.059912801 -0.0087627769 0.63999999 4294967295
0.061126363 -0.0087626055 0.63999999 4294967295
0.062339947 -0.0087624304 0.63999999 4294967295
0.063652903 -0.0087759439 0.64099997 4294967295
0.064868473 -0.0087757614 0.64099997 4294967295
0.066187188 -0.0087892674 0.64200002 4294967295
0.06740474 -0.0087890783 0.64200002 4294967295
0.068622343 -0.0087888865 0.64200002 4294967295
0.069948755 -0.0088023786 0.64300001 4294967295
0.071168341 -0.0088021792 0.64300001 4294967295
0.072387956 -0.0088019744 0.64300001 4294967295
0.073607631 -0.0088017676 0.64300001 4294967295
0.074943721 -0.0088152457 0.64399999 4294967295
0.076401919 -0.0088424059 0.64600003 4294967295
0.077747591 -0.0088558756 0.64700001 4294967295
0.079219148 -0.0088830255 0.64899999 4294967295
0.080574393 -0.008896484 0.64999998 4294967295
0.082059339 -0.0089236256 0.65200001 4294967295
0.083296426 -0.0089233899 0.65200001 4294967295
0.084792852 -0.0089505212 0.65399998 4294967295
0.086165361 -0.0089639602 0.65499997 4294967295
0.087675184 -0.0089910822 0.65700001 4294967295
0.088921949 -0.0089908289 0.65700001 4294967294
0.090305999 -0.0090042539 0.65799999 4294967294
0.091554776 -0.0090039922 0.65799999 4294967294
0.092944629 -0.0090174098 0.65899998 4294966780
0.094624229 -0.0090581886 0.662 4294966780
0.096170411 -0.009085278 0.66399997 4294966780
0.097430781 -0.0090849958 0.66399997 4294966267
0.098988481 -0.009112075 0.66600001 4294834678
0.10025276 -0.0091117853 0.66600001 4294834678
0.10151709 -0.009111491 0.66600001 4294769139
0.10478774 -0.0092890402 0.67900002 4294505710
0.10607686 -0.009288732 0.67900002 4294505712
0.10736605 -0.009288419 0.67900002 4294374127
0.10865529 -0.0092881015 0.67900002 4294308336
0.11010653 -0.0093014585 0.68000001 4293584356
0.11139778 -0.0093011316 0.68000001 4292334292
-0.027920825 -0.0080501111 0.68199998 4294505197
-0.026550181 -0.0080265719 0.68000001 4294965748
-0.025224291 -0.0080148308 0.67900002 4294966257
-0.023831703 -0.0079794778 0.676 4294900207
-0.022483878 -0.0079559274 0.67400002 4294966257
-0.021112183 -0.0079205669 0.671 4294966515
-0.019811019 -0.0079088109 0.67000002 4294966001
-0.018541338 -0.0079088556 0.67000002 4294966516
-0.017220119 -0.0078852866 0.66799998 4294966515
-0.015930383 -0.0078735203 0.667 4294966772
-0.014600476 -0.0078381412 0.66399997 4294967029
-0.01332214 -0.0078263655 0.66299999 4294967286
-0.012047612 -0.007814589 0.662 4294967033
-0.010744276 -0.0077791978 0.65899998 4294967292
-0.0094667347 -0.0077556078 0.65700001 4294967292
-0.0082218116 -0.0077556237 0.65700001 4294967295
-0.0069556604 -0.0077320263 0.65499997 4294967295
-0.005688373 -0.0076966207 0.65200001 4294967295
-0.004452954 -0.0076966262 0.65200001 4294967295
-0.0032175432 -0.0076966281 0.65200001 4294967295
-0.0019821383 -0.0076966258 0.65200001 4294967295
-0.00074444892 -0.0076730112 0.64999998 4294967295
0.00048640565 -0.0076611969 0.64899999 4294967295
0.001716111 -0.0076611843 0.64899999 4294967295
0.0029412743 -0.0076493653 0.648 4294967295
0.0041626464 -0.0076375417 0.64700001 4294967295
0.0053885547 -0.007637518 0.64700001 4294967295
0.0066042421 -0.0076256883 0.64600003 4294967295
0.007828257 -0.007625659 0.64600003 4294967295
0.0090242485 -0.0076020174 0.64399999 4294967295
0.01022857 -0.007590177 0.64300001 4294967295
0.011446909 -0.007590137 0.64300001 4294967295
0.012665253 -0.0075900946 0.64300001 4294967295
0.013862011 -0.0075782444 0.64200002 4294967295
0.015054985 -0.0075663896 0.64099997 4294967295
0.016244173 -0.007554532 0.63999999 4294967295
0.017456859 -0.0075544748 0.63999999 4294967295
0.018669557 -0.0075544161 0.63999999 4294967295
0.019882262 -0.0075543527 0.63999999 4294967295
0.021029059 -0.0075306799 0.63800001 4294967295
0.022237994 -0.0075306082 0.63800001 4294967295
0.023446947 -0.0075305351 0.63800001 4294967295
0.024733206 -0.007554065 0.63999999 4294967295
0.025945973 -0.007553983 0.63999999 4294967295
0.02715876 -0.0075538997 0.63999999 4294967295
0.028371563 -0.0075538126 0.63999999 4294967295
0.029491929 -0.007530116 0.63800001 4294967295
0.030700976 -0.0075300219 0.63800001 4294967295
0.031910047 -0.0075299246 0.63800001 4294967295
0.033119127 -0.0075298222 0.63800001 4294967295
0.034328237 -0.0075297183 0.63800001 4294967295
0.035537362 -0.0075296094 0.63800001 4294967295
0.036746513 -0.0075294971 0.63800001 4294967295
0.037955686 -0.0075293821 0.63800001 4294967295
0.039164886 -0.0075292639 0.63800001 4294967295
0.040310834 -0.0075173411 0.63700002 4294967295
0.041518189 -0.0075172158 0.63700002 4294967295
0.042725574 -0.0075170859 0.63700002 4294967295
0.043932971 -0.0075169522 0.63700002 4294967295
0.045140408 -0.0075168158 0.63700002 4294967295
0.046347871 -0.0075166766 0.63700002 4294967295
0.047555368 -0.0075165336 0.63700002 4294967295
0.048762899 -0.0075163865 0.63700002 4294967295
0.049970452 -0.0075162356 0.63700002 4294967295
0.051178046 -0.0075160814 0.63700002 4294967295
0.052385662 -0.0075159227 0.63700002 4294967295
0.053677455 -0.0075275595 0.63800001 4294967295
0.055059101 -0.0075509911 0.63999999 4294967295
0.05627251 -0.0075508216 0.63999999 4294967295
0.057575777 -0.0075624455 0.64099997 4294967295
0.058699455 -0.0075504715 0.63999999 4294967295
0.059912976 -0.0075502908 0.63999999 4294967295
0.061126541 -0.0075501064 0.63999999 4294967295
0.06234014 -0.0075499183 0.63999999 4294967295
0.06355378 -0.0075497264 0.63999999 4294967295
0.064868659 -0.0075613265 0.64099997 4294967295
0.066084288 -0.0075611272 0.64099997 4294967295
0.06729994 -0.0075609232 0.64099997 4294967295
0.068622537 -0.0075725117 0.64200002 4294967295
0.069948956 -0.0075840945 0.64300001 4294967295
0.071168542 -0.0075838794 0.64300001 4294967295
0.072388187 -0.0075836605 0.64300001 4294967295
0.07360784 -0.0075834361 0.64300001 4294967295
0.074943937 -0.0075950031 0.64399999 4294967295
0.076402143 -0.0076183584 0.64600003 4294967295
0.077747814 -0.0076299142 0.64700001 4294967295
0.079097316 -0.0076414663 0.648 4294967295
0.080574632 -0.0076648048 0.64999998 4294967295
0.082059577 -0.0076881391 0.65200001 4294967295
0.083296672 -0.0076878853 0.65200001 4294967295
0.084663451 -0.0076994174 0.653 4294967295
0.086165629 -0.0077227349 0.65499997 4294967295
0.08740855 -0.0077224667 0.65499997 4294967292
0.088922203 -0.0077457749 0.65700001 4294966519
0.090306289 -0.0077572875 0.65799999 4294966780
0.091555059 -0.0077570062 0.65799999 4294967037
0.09294492 -0.007768508 0.65899998 4294966267
0.094624504 -0.0078035803 0.662 4294966267
0.096025869 -0.0078150714 0.66299999 4294966778
0.097431079 -0.0078265583 0.66399997 4294966778
0.098691516 -0.0078262538 0.66399997 4294834678
0.099952005 -0.0078259436 0.66399997 4294768885
0.10121254 -0.0078256298 0.66399997 4294703090
0.10463372 -0.0079903016 0.67799997 4294505710
0.10592095 -0.0079899719 0.67799997 4294505197
0.10720824 -0.0079896376 0.67799997 4294307818
0.1084956 -0.0079892995 0.67799997 4294373357
0.10978301 -0.0079889549 0.67799997 4294110441
-0.027920894 -0.0067582554 0.68199998 4294307303
-0.02655025 -0.0067385137 0.68000001 4294965233
-0.025224354 -0.0067286757 0.67900002 4294900207
-0.023831768 -0.0066990131 0.676 4294834158
-0.022383861 -0.0066495286 0.671 4294899692
-0.021112233 -0.0066495868 0.671 4294899692
-0.019811068 -0.0066397316 0.67000002 4294899694
-0.018541384 -0.0066397828 0.67000002 4294966001
-0.017220162 -0.0066200094 0.66799998 4294834158
-0.015930422 -0.006610143 0.667 4294966772
-0.014600511 -0.006580451 0.66399997 4294967288
-0.01332217 -0.0065705753 0.66299999 4294967288
-0.01202944 -0.0065507856 0.66100001 4294967033
-0.010711691 -0.0065111709 0.65700001 4294967294
-0.0094667543 -0.0065111951 0.65700001 4294967292
-0.0081967972 -0.0064913929 0.65499997 4294967295
-0.0069344337 -0.0064715873 0.653 4294967295
-0.0056883818 -0.0064616883 0.65200001 4294967295
-0.0044529592 -0.0064616967 0.65200001 4294967294
-0.003207674 -0.0064418791 0.64999998 4294967295
-0.0019760553 -0.0064418796 0.64999998 4294967295
-0.00074444263 -0.0064418754 0.64999998 4294967295
0.00048641552 -0.0064319577 0.64899999 4294967295
0.0017134801 -0.0064220363 0.648 4294967295
0.0029412913 -0.0064220219 0.648 4294967295
0.0041626664 -0.0064120921 0.64700001 4294967295
0.0053885793 -0.0064120707 0.64700001 4294967295
0.0066042701 -0.0064021344 0.64600003 4294967295
0.007804051 -0.0063822833 0.64399999 4294967295
0.0090102693 -0.0063723396 0.64300001 4294967295
0.010228609 -0.0063723023 0.64300001 4294967295
0.011446953 -0.0063722613 0.64300001 4294967295
0.012645603 -0.0063623074 0.64200002 4294967295
0.013862059 -0.006362258 0.64200002 4294967295
0.015055036 -0.0063522961 0.64099997 4294967295
0.016244231 -0.00634233 0.63999999 4294967295
0.017456921 -0.0063422704 0.63999999 4294967295
0.018669618 -0.0063422071 0.63999999 4294967295
0.019882331 -0.006342141 0.63999999 4294967295
0.02102913 -0.0063222512 0.63800001 4294967295
0.022238068 -0.0063221771 0.63800001 4294967295
0.023447024 -0.0063220998 0.63800001 4294967295
0.024655998 -0.0063220169 0.63800001 4294967295
0.025864977 -0.0063219317 0.63800001 4294967295
0.027073976 -0.0063218432 0.63800001 4294967295
0.028282989 -0.0063217492 0.63800001 4294967295
0.029492024 -0.0063216528 0.63800001 4294967295
0.030652959 -0.0063116448 0.63700002 4294967295
0.031860128 -0.00631154 0.63700002 4294967295
0.033067323 -0.0063114325 0.63700002 4294967295
0.034274537 -0.0063113198 0.63700002 4294967295
0.035481777 -0.0063112048 0.63700002 4294967295
0.036689043 -0.0063110865 0.63700002 4294967295
0.03789632 -0.0063109621 0.63700002 4294967295
0.039103627 -0.0063108355 0.63700002 4294967295
0.040310957 -0.0063107046 0.63700002 4294967295
0.041518316 -0.0063105705 0.63700002 4294967295
0.042725697 -0.0063104318 0.63700002 4294967295
0.043933116 -0.0063102897 0.63700002 4294967295
0.045140553 -0.0063101435 0.63700002 4294967295
0.046348024 -0.0063099926 0.63700002 4294967295
0.047555521 -0.0063098394 0.63700002 4294967295
0.048763048 -0.0063096816 0.63700002 4294967295
0.049970612 -0.0063095205 0.63700002 4294967295
0.051178198 -0.0063093537 0.63700002 4294967295
0.052385833 -0.0063091856 0.63700002 4294967295
0.05367763 -0.0063189175 0.63800001 4294967295
0.055059265 -0.0063385456 0.63999999 4294967295
0.0562727 -0.0063383649 0.63999999 4294967295
0.057486147 -0.0063381791 0.63999999 4294967295
0.058699634 -0.0063379887 0.63999999 4294967295
0.059913166 -0.0063377949 0.63999999 4294967295
0.061126728 -0.006337598 0.63999999 4294967295
0.06234033 -0.0063373949 0.63999999 4294967295
0.063553981 -0.0063371896 0.63999999 4294967295
0.064767674 -0.0063369805 0.63999999 4294967295
0.066084489 -0.0063466672 0.64099997 4294967295
0.067300156 -0.0063464488 0.64099997 4294967295
0.068622768 -0.0063561285 0.64200002 4294967295
0.069840401 -0.0063559012 0.64200002 4294967295
0.071168773 -0.0063655693 0.64300001 4294967295
0.072388403 -0.0063653346 0.64300001 4294967295
0.073722556 -0.0063749948 0.64399999 4294967295
0.074944168 -0.0063747498 0.64399999 4294967295
0.076402381 -0.0063942992 0.64600003 4294967295
0.07762789 -0.0063940459 0.64600003 4294967295
0.078975514 -0.0064036869 0.64700001 4294967293
0.080326959 -0.0064133215 0.648 4294967295
0.082059838 -0.0064526424 0.65200001 4294967295
0.083296932 -0.0064523704 0.65200001 4294967295
0.084534064 -0.0064520929 0.65200001 4294967037
0.08603435 -0.0064716032 0.65399998 4294967294
0.087275386 -0.0064713168 0.65399998 4294967292
0.088651806 -0.0064809215 0.65499997 4294966778
0.090306573 -0.006510308 0.65799999 4294966778
0.091555342 -0.0065100072 0.65799999 4294966778
0.09322729 -0.0065393816 0.66100001 4294834678
0.094481871 -0.00653907 0.66100001 4294966521
0.09588135 -0.0065486478 0.662 4294966521
0.097431384 -0.0065681092 0.66399997 4294834678
0.098691829 -0.0065677832 0.66399997 4294833908
0.09995231 -0.0065674521 0.66399997 4294833908
0.10121286 -0.0065671182 0.66399997 4294571506
0.10401674 -0.0066656764 0.67400002 4294505712
0.1052964 -0.0066653271 0.67400002 4294176746
0.10689235 -0.0066847499 0.676 4294176746
0.10817591 -0.0066843899 0.676 4294242541
0.10945953 -0.0066840248 0.676 4294176748
-0.027920982 -0.005466389 0.68199998 4294505195
-0.02655033 -0.0054504434 0.68000001 4294966259
-0.025261573 -0.0054505221 0.68000001 4294899692
-0.023972856 -0.005450598 0.68000001 4294702312
-0.022383921 -0.0053785285 0.671 4294702310
-0.021080835 -0.0053705787 0.67000002 4294833897
-0.019751985 -0.0053546084 0.66799998 4294965487
-0.018486088 -0.0053546666 0.66799998 4294967286
-0.01722021 -0.0053547197 0.66799998 4294966005
-0.015930466 -0.0053467532 0.667 4294966776
-0.01460055 -0.0053227479 0.66399997 4294967033
-0.013322208 -0.0053147725 0.66299999 4294967033
-0.012029472 -0.0052987761 0.66100001 4294967290
-0.010711719 -0.0052667418 0.65700001 4294967295
-0.0094667776 -0.0052667693 0.65700001 4294967292
-0.0081968168 -0.0052507594 0.65499997 4294967295
-0.0069344481 -0.0052347458 0.653 4294967295
-0.005688393 -0.0052267439 0.65200001 4294967295
-0.0044529662 -0.005226755 0.65200001 4294967294
-0.0032076773 -0.0052107284 0.64999998 4294967294
-0.0019760544 -0.0052107302 0.64999998 4294967295
-0.00074329285 -0.0052027125 0.64899999 4294967295
0.00048567457 -0.0051946905 0.648 4294967295
0.0017134927 -0.0051946808 0.648 4294967295
0.0029367686 -0.00518665 0.64700001 4294967295
0.0041626869 -0.0051866318 0.64700001 4294967295
0.0053802757 -0.005178594 0.64600003 4294967295
0.0065838504 -0.0051625348 0.64399999 4294967295
0.0078040827 -0.0051625045 0.64399999 4294967295
0.0090103056 -0.0051544541 0.64300001 4294967295
0.010212741 -0.0051463996 0.64200002 4294967295
0.011429192 -0.0051463572 0.64200002 4294967295
0.012645649 -0.0051463111 0.64200002 4294967295
0.013862112 -0.0051462613 0.64200002 4294967295
0.015055091 -0.0051381909 0.64099997 4294967295
0.016269671 -0.0051381318 0.64099997 4294967295
0.017456982 -0.005130053 0.63999999 4294967295
0.018669685 -0.0051299874 0.63999999 4294967295
0.019882398 -0.0051299171 0.63999999 4294967295
0.021029202 -0.0051138117 0.63800001 4294967295
0.022238148 -0.0051137335 0.63800001 4294967295
0.023447104 -0.005113651 0.63800001 4294967295
0.024617437 -0.0051055495 0.63700002 4294967295
0.025824526 -0.0051054587 0.63700002 4294967295
0.027031636 -0.0051053655 0.63700002 4294967295
0.028238757 -0.0051052663 0.63700002 4294967295
0.029399673 -0.0050971489 0.63599998 4294967295
0.030604936 -0.0050970432 0.63599998 4294967295
0.03181022 -0.0050969324 0.63599998 4294967295
0.033067435 -0.0051048314 0.63700002 4294967295
0.034274653 -0.0051047122 0.63700002 4294967295
0.0354819 -0.0051045902 0.63700002 4294967295
0.036689159 -0.0051044631 0.63700002 4294967295
0.037896451 -0.0051043313 0.63700002 4294967295
0.039103758 -0.0051041963 0.63700002 4294967295
0.040311094 -0.0051040575 0.63700002 4294967295
0.041518457 -0.0051039136 0.63700002 4294967295
0.042725846 -0.005103766 0.63700002 4294967295
0.043933261 -0.0051036142 0.63700002 4294967295
0.045140702 -0.0051034587 0.63700002 4294967295
0.046348173 -0.005103298 0.63700002 4294967295
0.047555681 -0.0051031341 0.63700002 4294967295
0.048763212 -0.005102966 0.63700002 4294967295
0.04997078 -0.0051027937 0.63700002 4294967295
0.051178385 -0.0051026172 0.63700002 4294967295
0.052386012 -0.0051024361 0.63700002 4294967295
0.053677805 -0.0051102606 0.63800001 4294967295
0.054887403 -0.0051100715 0.63800001 4294967295
0.056097027 -0.0051098769 0.63800001 4294967295
0.057486337 -0.0051256977 0.63999999 4294967295
0.058699831 -0.0051254951 0.63999999 4294967295
0.059913367 -0.005125287 0.63999999 4294967295
0.061126936 -0.0051250765 0.63999999 4294967295
0.062340543 -0.0051248614 0.63999999 4294967295
0.063554198 -0.0051246416 0.63999999 4294967295
0.06476789 -0.0051244167 0.63999999 4294967295
0.066084713 -0.0051321955 0.64099997 4294967295
0.067300394 -0.0051319632 0.64099997 4294967295
0.068622984 -0.0051397313 0.64200002 4294967295
0.069840632 -0.0051394892 0.64200002 4294967295
0.071169019 -0.0051472485 0.64300001 4294967295
0.072388649 -0.005146997 0.64300001 4294967295
0.073722795 -0.0051547452 0.64399999 4294967295
0.074944429 -0.0051544863 0.64399999 4294967295
0.076166101 -0.0051542218 0.64399999 4294967295
0.077628151 -0.0051699588 0.64600003 4294967295
0.078975774 -0.0051776865 0.64700001 4294967295
0.080327235 -0.0051854099 0.648 4294967295
0.082060121 -0.0052171326 0.65200001 4294967295
0.083297208 -0.0052168425 0.65200001 4294967295
0.084534355 -0.0052165473 0.65200001 4294967037
0.085771531 -0.0052162488 0.65200001 4294967294
0.087142222 -0.0052239448 0.653 4294967292
0.088652112 -0.0052396348 0.65499997 4294967035
0.090306863 -0.0052633169 0.65799999 4294966778
0.091555655 -0.005262997 0.65799999 4294967035
0.093227617 -0.005286667 0.66100001 4294966521
0.094482191 -0.005286335 0.66100001 4294966778
0.095881663 -0.0052939961 0.662 4294966263
0.097285002 -0.005301652 0.66299999 4294637299
0.098543532 -0.0053013056 0.66299999 4294703092
0.099952668 -0.0053089503 0.66399997 4294703092
0.10121321 -0.0053085941 0.66399997 4294571506
0.10401711 -0.005388177 0.67400002 4294637299
0.10529677 -0.0053878054 0.67400002 4294308588
0.10689271 -0.0054034148 0.676 4294176746
0.10817628 -0.005403033 0.676 4294242541
0.10945989 -0.0054026465 0.676 4294176748
-0.023655646 -0.0041074394 0.671 4294964715
-0.02238399 -0.0041075163 0.671 4294768106
-0.0210809 -0.0041014687 0.67000002 4294899692
-0.01975205 -0.0040892935 0.66799998 4294965233
-0.018486146 -0.0040893573 0.66799998 4294966518
-0.017194485 -0.0040832954 0.667 4294966000
-0.015906632 -0.0040772283 0.66600001 4294966772
-0.014600595 -0.0040650335 0.66399997 4294966774
-0.013302154 -0.0040528346 0.662 4294967031
-0.012029506 -0.0040467535 0.66100001 4294967033
-0.010711751 -0.0040223002 0.65700001 4294967291
-0.0094379848 -0.0040100869 0.65499997 4294966776
-0.008196841 -0.0040101144 0.65499997 4294967292
-0.0069344677 -0.0039978921 0.653 4294967295
-0.005688407 -0.0039917873 0.65200001 4294967295
-0.0044529764 -0.0039918018 0.65200001 4294967295
-0.0032076831 -0.0039795651 0.64999998 4294967294
-0.001976056 -0.0039795693 0.64999998 4294967292
-0.00074328994 -0.0039734473 0.64899999 4294967294
0.0004856817 -0.003967321 0.648 4294967292
0.0017108596 -0.0039611892 0.64700001 4294967295
0.0029367842 -0.0039611766 0.64700001 4294967295
0.0041627069 -0.0039611594 0.64700001 4294967295
0.0053802994 -0.003955015 0.64600003 4294967295
0.0065838783 -0.0039427439 0.64399999 4294967295
0.0078041158 -0.0039427136 0.64399999 4294967295
0.0090103419 -0.0039365566 0.64300001 4294967295
0.010212782 -0.003930395 0.64200002 4294967295
0.011429238 -0.0039303522 0.64200002 4294967295
0.012645699 -0.0039303037 0.64200002 4294967295
0.013862164 -0.0039302516 0.64200002 4294967295
0.015055148 -0.0039240727 0.64099997 4294967295
0.016269732 -0.0039240117 0.64099997 4294967295
0.017484324 -0.0039239461 0.64099997 4294967295
0.018669756 -0.0039177551 0.63999999 4294967295
0.019882472 -0.0039176811 0.63999999 4294967295
0.021095201 -0.0039176028 0.63999999 4294967295
0.022238232 -0.0039052782 0.63800001 4294967295
0.023447191 -0.0039051911 0.63800001 4294967295
0.02461753 -0.0038989794 0.63700002 4294967295
0.025824621 -0.0038988837 0.63700002 4294967295
0.027031735 -0.0038987841 0.63700002 4294967295
0.028238863 -0.0038986797 0.63700002 4294967295
0.029399779 -0.0038924511 0.63599998 4294967295
0.030605048 -0.0038923379 0.63599998 4294967295
0.031810336 -0.0038922213 0.63599998 4294967295
0.033067554 -0.0038982192 0.63700002 4294967295
0.034274779 -0.003898093 0.63700002 4294967295
0.035482027 -0.0038979631 0.63700002 4294967295
0.036689296 -0.0038978283 0.63700002 4294967295
0.037896585 -0.0038976891 0.63700002 4294967295
0.039103899 -0.0038975459 0.63700002 4294967295
0.040311243 -0.0038973978 0.63700002 4294967295
0.04151861 -0.0038972453 0.63700002 4294967295
0.042726003 -0.0038970888 0.63700002 4294967295
0.043864448 -0.0038908091 0.63599998 4294967295
0.04507 -0.0038906436 0.63599998 4294967295
0.046348341 -0.003896591 0.63700002 4294967295
0.04755586 -0.0038964171 0.63700002 4294967295
0.048763391 -0.0038962383 0.63700002 4294967295
0.049970958 -0.003896055 0.63700002 4294967295
0.051178563 -0.0038958667 0.63700002 4294967295
0.052386198 -0.0038956744 0.63700002 4294967295
0.053677995 -0.0039015927 0.63800001 4294967295
0.054887597 -0.0039013915 0.63800001 4294967295
0.056097232 -0.0039011857 0.63800001 4294967295
0.057486542 -0.0039132037 0.63999999 4294967295
0.058700051 -0.0039129881 0.63999999 4294967295
0.059913576 -0.0039127679 0.63999999 4294967295
0.060936142 -0.003900317 0.63800001 4294967295
0.062145956 -0.0039000879 0.63800001 4294967295
0.063554421 -0.0039120805 0.63999999 4294967295
0.064869322 -0.0039179544 0.64099997 4294967295
0.066188052 -0.0039238236 0.64200002 4294967295
0.067405619 -0.0039235754 0.64200002 4294967295
0.068623237 -0.003923323 0.64200002 4294967295
0.069840886 -0.003923065 0.64200002 4294967295
0.071169265 -0.0039289133 0.64300001 4294967295
0.07238891 -0.0039286478 0.64300001 4294967295
0.073608592 -0.0039283759 0.64300001 4294967295
0.07494469 -0.0039342083 0.64399999 4294967295
0.076166376 -0.0039339275 0.64399999 4294967295
0.077628434 -0.0039458587 0.64600003 4294967295
0.078976065 -0.0039516748 0.64700001 4294967295
0.080327533 -0.0039574858 0.648 4294967295
0.081682831 -0.0039632907 0.64899999 4294967295
0.083041996 -0.0039690901 0.64999998 4294967295
0.08427535 -0.0039687781 0.64999998 4294967037
0.085771851 -0.0039806725 0.65200001 4294966780
0.087009102 -0.0039803497 0.65200001 4294966778
0.088246398 -0.0039800229 0.65200001 4294966778
0.08948373 -0.0039796908 0.65200001 4294966778
0.091973417 -0.004034284 0.66100001 4294966778
0.09322796 -0.0040339381 0.66100001 4294966778
0.094482541 -0.0040335869 0.66100001 4294966778
0.095882013 -0.0040393323 0.662 4294966263
0.097285338 -0.0040450725 0.66299999 4294834678
0.098543897 -0.004044706 0.66299999 4294834678
0.099802494 -0.0040443339 0.66299999 4294703092
0.1012136 -0.0040500565 0.66399997 4294571506
0.10432615 -0.0041228612 0.676 4294571506
0.1056096 -0.0041224672 0.676 4294374381
0.1068931 -0.0041220677 0.676 4294110953
0.10817666 -0.004121663 0.676 4294110953
0.1094603 -0.0041212542 0.676 4294110953
-0.023796747 -0.0028533149 0.67500001 4294899694
-0.022350712 -0.0028322639 0.67000002 4294833645
-0.021080978 -0.0028323443 0.67000002 4294899694
-0.019722551 -0.0028197372 0.667 4294899953
-0.018458538 -0.0028198073 0.667 4294967031
-0.017194545 -0.0028198727 0.667 4294967030
-0.015858918 -0.00280725 0.66399997 4294967288
-0.014578655 -0.0028030775 0.66299999 4294967290
-0.0133022 -0.0027989 0.662 4294967292
-0.012029547 -0.0027947174 0.66100001 4294967292
-0.010711786 -0.0027778454 0.65700001 4294967292
-0.0094380165 -0.0027694243 0.65499997 4294967290
-0.0081968661 -0.0027694553 0.65499997 4294967291
-0.0069344882 -0.0027610247 0.653 4294967294
-0.0056884242 -0.0027568175 0.65200001 4294967295
-0.004452989 -0.002756834 0.65200001 4294967294
-0.003207691 -0.0027483886 0.64999998 4294967291
-0.0019760593 -0.0027483951 0.64999998 4294967291
-0.00074328872 -0.002744169 0.64899999 4294967295
0.00048493801 -0.0027357098 0.64700001 4294967293
0.0017108701 -0.0027357026 0.64700001 4294967294
0.0029367993 -0.0027356902 0.64700001 4294967295
0.004162726 -0.0027356728 0.64700001 4294967295
0.0053886524 -0.0027356511 0.64700001 4294967295
0.0065839067 -0.0027229406 0.64399999 4294967295
0.0078041488 -0.0027229097 0.64399999 4294967295
0.0090103801 -0.0027186456 0.64300001 4294967295
0.010228731 -0.0027186056 0.64300001 4294967295
0.011429285 -0.0027143327 0.64200002 4294967295
0.012645748 -0.0027142828 0.64200002 4294967295
0.013862219 -0.0027142288 0.64200002 4294967295
0.015055208 -0.0027099419 0.64099997 4294967295
0.016244415 -0.0027056511 0.63999999 4294967295
0.017457116 -0.0027055827 0.63999999 4294967295
0.018669829 -0.00270551 0.63999999 4294967295
0.01988255 -0.0027054318 0.63999999 4294967295
0.021029362 -0.002696896 0.63800001 4294967295
0.022238318 -0.0026968096 0.63800001 4294967295
0.023447283 -0.0026967181 0.63800001 4294967295
0.024617622 -0.0026923958 0.63700002 4294967295
0.025824722 -0.002692295 0.63700002 4294967295
0.027031839 -0.00269219 0.63700002 4294967295
0.028238969 -0.0026920799 0.63700002 4294967295
0.02939989 -0.0026877397 0.63599998 4294967295
0.030605167 -0.0026876205 0.63599998 4294967295
0.031810459 -0.0026874973 0.63599998 4294967295
0.033067681 -0.002691594 0.63700002 4294967295
0.03427491 -0.0026914608 0.63700002 4294967295
0.035482161 -0.0026913229 0.63700002 4294967295
0.036689434 -0.0026911809 0.63700002 4294967295
0.037896734 -0.0026910338 0.63700002 4294967295
0.039104048 -0.0026908815 0.63700002 4294967295
0.040311392 -0.0026907246 0.63700002 4294967295
0.041518778 -0.0026905634 0.63700002 4294967295
0.042659093 -0.0026861739 0.63599998 4294967295
0.043864615 -0.0026860035 0.63599998 4294967295
0.045070164 -0.0026858281 0.63599998 4294967295
0.046275757 -0.0026856486 0.63599998 4294967295
0.047481373 -0.002685464 0.63599998 4294967295
0.048687022 -0.0026852749 0.63599998 4294967295
0.049892701 -0.0026850805 0.63599998 4294967295
0.051178761 -0.0026891034 0.63700002 4294967295
0.052386407 -0.0026889001 0.63700002 4294967295
0.053678203 -0.0026929122 0.63800001 4294967295
0.054887816 -0.0026926987 0.63800001 4294967295
0.056097444 -0.0026924801 0.63800001 4294967295
0.057307117 -0.0026922571 0.63800001 4294967295
0.058516834 -0.0026920293 0.63800001 4294967295
0.059726581 -0.002691797 0.63800001 4294967295
0.060936369 -0.0026915595 0.63800001 4294967295
0.062146198 -0.0026913176 0.63800001 4294967295
0.063653968 -0.0027037242 0.64099997 4294967295
0.064869568 -0.0027034713 0.64099997 4294967295
0.066188306 -0.0027074311 0.64200002 4294967295
0.067405879 -0.0027071687 0.64200002 4294967295
0.068623491 -0.0027069005 0.64200002 4294967295
0.069841154 -0.0027066285 0.64200002 4294967295
0.07116954 -0.0027105664 0.64300001 4294967295
0.072389193 -0.0027102837 0.64300001 4294967295
0.073608868 -0.002709996 0.64300001 4294967295
0.074944988 -0.0027139185 0.64399999 4294967295
0.076166667 -0.0027136207 0.64399999 4294967295
0.077628732 -0.0027217444 0.64600003 4294967295
0.078976363 -0.0027256487 0.64700001 4294967295
0.080203891 -0.0027253355 0.64700001 4294967295
0.081557296 -0.002729228 0.648 4294967295
0.083042309 -0.0027373265 0.64999998 4294967295
0.084275663 -0.0027369969 0.64999998 4294967037
0.085509077 -0.0027366618 0.64999998 4294966780
0.086742535 -0.0027363219 0.64999998 4294966778
0.088246718 -0.0027443953 0.65200001 4294966778
0.089484081 -0.0027440444 0.65200001 4294966521
0.091695495 -0.0027731452 0.65899998 4294966521
0.092946216 -0.0027727804 0.65899998 4294966519
0.09476877 -0.0027892385 0.66299999 4294967033
0.096027233 -0.0027888613 0.66299999 4294966005
0.097285718 -0.0027884787 0.66299999 4294965748
0.09854427 -0.0027880915 0.66299999 4294899955
0.099953406 -0.0027919034 0.66399997 4294636784
0.10121397 -0.0027915053 0.66399997 4294505710
0.10247459 -0.002791102 0.66399997 4294308588
0.10561 -0.0028411273 0.676 4294242795
0.10689352 -0.0028407061 0.676 4294045159
0.10817709 -0.0028402796 0.676 4294110693
0.10978457 -0.0028482496 0.67799997 4294176487
-0.023655817 -0.0015653588 0.671 4294899694
-0.022350799 -0.0015631183 0.67000002 4294834158
-0.021018127 -0.0015585395 0.66799998 4294900207
-0.019722624 -0.0015562882 0.667 4294899953
-0.018458609 -0.0015563646 0.667 4294967031
-0.017168831 -0.001554103 0.66600001 4294967030
-0.015835095 -0.0015471681 0.66299999 4294967287
-0.014556723 -0.001544895 0.662 4294967033
-0.013282155 -0.0015426168 0.66100001 4294967292
-0.011993195 -0.0015379993 0.65899998 4294967294
-0.010711826 -0.0015333763 0.65700001 4294967294
-0.0094380528 -0.0015287482 0.65499997 4294967291
-0.0081843827 -0.0015264485 0.65399998 4294967292
-0.0069345138 -0.0015241437 0.653 4294967292
-0.0056884447 -0.0015218338 0.65200001 4294967294
-0.0044530039 -0.0015218528 0.65200001 4294967292
-0.0032077008 -0.0015171984 0.64999998 4294967292
-0.0019760646 -0.0015172071 0.64999998 4294967288
-0.00074214378 -0.0015125425 0.648 4294967293
0.00048494243 -0.0015102072 0.64700001 4294967292
0.0017108793 -0.001510201 0.64700001 4294967293
0.0029368135 -0.0015101895 0.64700001 4294967295
0.0041563115 -0.0015078391 0.64600003 4294967295
0.0053803478 -0.0015078177 0.64600003 4294967291
0.0066043828 -0.001507791 0.64600003 4294967295
0.0078284191 -0.0015077598 0.64600003 4294967295
0.0090524573 -0.0015077232 0.64600003 4294967295
0.010212866 -0.0014983462 0.64200002 4294967295
0.011429333 -0.0014983001 0.64200002 4294967295
0.012645801 -0.0014982488 0.64200002 4294967295
0.013840686 -0.0014958588 0.64099997 4294967295
0.01505527 -0.0014957975 0.64099997 4294967295
0.016244482 -0.0014933979 0.63999999 4294967295
0.017457189 -0.0014933267 0.63999999 4294967295
0.018669907 -0.0014932508 0.63999999 4294967295
0.019882634 -0.0014931698 0.63999999 4294967295
0.021029448 -0.0014884179 0.63800001 4294967295
0.022238409 -0.0014883272 0.63800001 4294967295
0.023447379 -0.0014882316 0.63800001 4294967295
0.024617722 -0.0014857983 0.63700002 4294967295
0.02582483 -0.0014856928 0.63700002 4294967295
0.027031949 -0.0014855823 0.63700002 4294967295
0.028239088 -0.0014854668 0.63700002 4294967295
0.029400013 -0.0014830146 0.63599998 4294967295
0.03060529 -0.0014828892 0.63599998 4294967295
0.031810589 -0.001482759 0.63599998 4294967295
0.033015903 -0.0014826241 0.63599998 4294967295
0.034275047 -0.0014848148 0.63700002 4294967295
0.035482302 -0.0014846694 0.63700002 4294967295
0.036689583 -0.0014845193 0.63700002 4294967295
0.037896886 -0.0014843642 0.63700002 4294967295
0.039104208 -0.0014842037 0.63700002 4294967295
0.040311564 -0.0014840387 0.63700002 4294967295
0.041518938 -0.0014838683 0.63700002 4294967295
0.04265926 -0.0014813638 0.63599998 4294967295
0.04386479 -0.0014811837 0.63599998 4294967295
0.045070354 -0.0014809987 0.63599998 4294967295
0.046275947 -0.0014808091 0.63599998 4294967295
0.047481567 -0.0014806142 0.63599998 4294967295
0.04868722 -0.0014804142 0.63599998 4294967295
0.049892902 -0.0014802093 0.63599998 4294967295
0.051098611 -0.0014799994 0.63599998 4294967295
0.052386612 -0.0014821114 0.63700002 4294967295
0.053678419 -0.0014842174 0.63800001 4294967295
0.054888029 -0.0014839919 0.63800001 4294967295
0.056097675 -0.001483761 0.63800001 4294967295
0.057307355 -0.0014835255 0.63800001 4294967295
0.058517065 -0.001483285 0.63800001 4294967295
0.059726819 -0.0014830392 0.63800001 4294967295
0.060936611 -0.0014827885 0.63800001 4294967295
0.062146444 -0.0014825327 0.63800001 4294967295
0.063654229 -0.0014892418 0.64099997 4294967295
0.064869836 -0.0014889749 0.64099997 4294967295
0.066188574 -0.0014910252 0.64200002 4294967295
0.067406155 -0.0014907478 0.64200002 4294967295
0.068623774 -0.001490465 0.64200002 4294967295
0.06984143 -0.001490177 0.64200002 4294967295
0.071169831 -0.001492205 0.64300001 4294967295
0.072389483 -0.0014919066 0.64300001 4294967295
0.073609181 -0.0014916031 0.64300001 4294967295
0.074945286 -0.0014936135 0.64399999 4294967295
0.076166973 -0.0014932994 0.64399999 4294967294
0.077388711 -0.0014929802 0.64399999 4294967295
0.078854628 -0.0014972915 0.64600003 4294967295
0.080204204 -0.0014992781 0.64700001 4294967293
0.081557631 -0.0015012588 0.648 4294967295
0.083042659 -0.0015055489 0.64999998 4294967295
0.084276013 -0.0015052008 0.64999998 4294967293
0.085509412 -0.0015048477 0.64999998 4294966780
0.086742878 -0.0015044891 0.64999998 4294966778
0.087976374 -0.0015041254 0.64999998 4294966521
0.089209944 -0.0015037565 0.64999998 4294966261
0.091695845 -0.0015241986 0.65899998 4294966519
0.092946604 -0.0015238143 0.65899998 4294966519
0.094197407 -0.0015234244 0.65899998 4294966519
0.095737942 -0.0015276518 0.66100001 4294768885
0.097286113 -0.001531871 0.66299999 4294703092
0.09854468 -0.0015314631 0.66299999 4294571506
0.099953823 -0.0015333589 0.66399997 4294571506
0.10121439 -0.0015329395 0.66399997 4294570990
0.10247501 -0.0015325148 0.66399997 4294439404
0.10529799 -0.0015551585 0.67400002 4294307818
0.1065777 -0.0015547166 0.67400002 4294176233
0.1080175 -0.0015565751 0.67500001 4294045157
0.10946116 -0.0015584267 0.676 4294111207
-0.023655916 -0.00029429531 0.671 4294833899
-0.022350894 -0.00029395681 0.67000002 4294833645
-0.021018215 -0.00029317359 0.66799998 4294965744
-0.019722708 -0.00029282327 0.667 4294769139
-0.018458685 -0.00029290633 0.667 4294966776
-0.017117346 -0.00029166616 0.66399997 4294966774
-0.01583516 -0.00029129849 0.66299999 4294966774
-0.014556784 -0.00029092512 0.662 4294967033
-0.013282211 -0.0002905461 0.66100001 4294967292
-0.011993245 -0.00028972176 0.65899998 4294967289
-0.010711872 -0.00028889169 0.65700001 4294967288
-0.00943809 -0.00028805583 0.65499997 4294967290
-0.0081844162 -0.0002876542 0.65399998 4294967292
-0.0069345413 -0.00028724701 0.653 4294967292
-0.0056884671 -0.00028683434 0.65200001 4294967292
-0.0044393619 -0.00028597622 0.64999998 4294967292
-0.0032077136 -0.00028599257 0.64999998 4294967291
-0.001969992 -0.00028512356 0.648 4294967290
-0.00074100058 -0.00028468913 0.64700001 4294967294
0.00048494557 -0.00028468936 0.64700001 4294967294
0.0017082433 -0.00028424425 0.64600003 4294967295
0.0029322875 -0.00028423374 0.64600003 4294967295
0.0041563301 -0.00028421794 0.64600003 4294967295
0.0053803716 -0.00028419675 0.64600003 4294967295
0.006604413 -0.00028417024 0.64600003 4294967295
0.0078284545 -0.00028413837 0.64600003 4294967295
0.0090524983 -0.00028410114 0.64600003 4294967295
0.01021291 -0.00028229968 0.64200002 4294967295
0.011429381 -0.00028225203 0.64200002 4294967295
0.012645856 -0.00028219912 0.64200002 4294967295
0.013840744 -0.00028170139 0.64099997 4294967295
0.015055334 -0.00028163788 0.64099997 4294967295
0.016244553 -0.00028112988 0.63999999 4294967295
0.017457267 -0.00028105589 0.63999999 4294967295
0.018669985 -0.00028097656 0.63999999 4294967295
0.019820586 -0.00028001424 0.63800001 4294967295
0.021029539 -0.00027992469 0.63800001 4294967295
0.022238504 -0.00027982978 0.63800001 4294967295
0.023410728 -0.00027929115 0.63700002 4294967295
0.024617827 -0.00027918589 0.63700002 4294967295
0.025824942 -0.00027907535 0.63700002 4294967295
0.026989628 -0.00027852156 0.63599998 4294967295
0.028194876 -0.00027840066 0.63599998 4294967295
0.02940014 -0.00027827444 0.63599998 4294967295
0.030557305 -0.00027770567 0.63499999 4294967295
0.031760704 -0.00027756914 0.63499999 4294967295
0.033016045 -0.00027786428 0.63599998 4294967295
0.034221388 -0.00027771702 0.63599998 4294967295
0.035426755 -0.00027756445 0.63599998 4294967295
0.03668974 -0.00027784283 0.63700002 4294967295
0.037897047 -0.0002776795 0.63700002 4294967295
0.039104376 -0.0002775109 0.63700002 4294967295
0.040311731 -0.00027733701 0.63700002 4294967295
0.041519109 -0.00027715784 0.63700002 4294967295
0.042726517 -0.00027697338 0.63700002 4294967295
0.04386498 -0.00027634914 0.63599998 4294967295
0.045070544 -0.00027615443 0.63599998 4294967295
0.046276148 -0.00027595449 0.63599998 4294967295
0.047481764 -0.00027574919 0.63599998 4294967295
0.048687425 -0.00027553868 0.63599998 4294967295
0.049893111 -0.00027532288 0.63599998 4294967295
0.051098838 -0.00027510186 0.63599998 4294967295
0.052386835 -0.00027530768 0.63700002 4294967295
0.053594515 -0.0002750757 0.63700002 4294967295
0.054802243 -0.00027483847 0.63700002 4294967295
0.056009989 -0.00027459589 0.63700002 4294967295
0.057307601 -0.00027477875 0.63800001 4294967295
0.058517307 -0.0002745252 0.63800001 4294967295
0.05972708 -0.00027426641 0.63800001 4294967295
0.060936872 -0.00027400229 0.63800001 4294967295
0.06234153 -0.000274591 0.63999999 4294967295
0.063654512 -0.00027474406 0.64099997 4294967295
0.064870112 -0.00027446274 0.64099997 4294967295
0.066085756 -0.00027417613 0.64099997 4294967295
0.067301445 -0.00027388416 0.64099997 4294967295
0.068624072 -0.00027401376 0.64200002 4294967295
0.069950528 -0.00027413701 0.64300001 4294967295
0.071170136 -0.0002738281 0.64300001 4294967295
0.072389781 -0.0002735139 0.64300001 4294967295
0.073609486 -0.00027319437 0.64300001 4294967295
0.074945606 -0.00027329382 0.64399999 4294967295
0.0761673 -0.00027296308 0.64399999 4294967295
0.077389039 -0.00027262699 0.64399999 4294967295
0.078854963 -0.00027313115 0.64600003 4294967294
0.080204546 -0.00027320551 0.64700001 4294967292
0.081557967 -0.00027327344 0.648 4294967295
0.082915254 -0.00027333488 0.64899999 4294967294
0.084146716 -0.00027296916 0.64899999 4294967035
0.08537823 -0.00027259812 0.64899999 4294966778
0.086743243 -0.00027264107 0.64999998 4294966263
0.087976761 -0.00027225862 0.64999998 4294966263
0.089210331 -0.00027187073 0.64999998 4294834932
0.09169624 -0.00027523638 0.65899998 4294834932
0.092946999 -0.00027483216 0.65899998 4294834932
0.09419781 -0.00027442249 0.65899998 4294769139
0.095738344 -0.00027483894 0.66100001 4294571506
0.097286537 -0.00027524732 0.66299999 4294571506
0.098545089 -0.00027481857 0.66299999 4294571506
0.10025531 -0.00027562591 0.66600001 4294505712
0.10151967 -0.00027518414 0.66600001 4294439404
0.10355575 -0.00027679946 0.671 4294373611
0.10529842 -0.00027757871 0.67400002 4294110953
0.10657815 -0.00027711483 0.67400002 4294110953
0.10785795 -0.00027664533 0.67400002 4294044898
0.10929973 -0.00027657996 0.67500001 4294176485
-0.023620768 0.00097532885 0.67000002 4294833899
-0.022350991 0.0009752214 0.67000002 4294833645
-0.02101831 0.00097220892 0.66799998 4294833645
-0.019722797 0.00097065809 0.667 4294571244
-0.018458769 0.00097056851 0.667 4294966517
-0.01711742 0.00096611987 0.66399997 4294967030
-0.015835233 0.00096458755 0.66299999 4294967030
-0.014534861 0.00096160651 0.66100001 4294966776
-0.013282271 0.00096154097 0.66100001 4294966776
-0.0119569 0.00095566281 0.65700001 4294967290
-0.01067931 0.00095270021 0.65499997 4294967292
-0.0094237244 0.00095119816 0.65399998 4294967289
-0.0081844535 0.00095115614 0.65399998 4294967290
-0.0069345739 0.00094966579 0.653 4294967292
-0.0056884941 0.00094818126 0.65200001 4294967291
-0.0044393823 0.00094524806 0.64999998 4294967292
-0.0032077285 0.0009452292 0.64999998 4294967291
-0.001966961 0.00094085356 0.64700001 4294966263
-0.0007410043 0.00094084616 0.64700001 4294967294
0.00048419787 0.00093939033 0.64600003 4294967294
