# .PCD v0.7 - Point Cloud Data file format
VERSION 0.7
FIELDS x y z rgba
SIZE 4 4 4 4
TYPE F F F U
COUNT 1 1 1 1
WIDTH 1041
HEIGHT 1
VIEWPOINT 0 0 0 1 0 0 0
POINTS 1041
DATA ascii
0.034840383 -0.00035953804 0.82099998 4294967295
0.036396217 -0.00035938201 0.82099998 4294967295
0.037952065 -0.00035921906 0.82099998 4294967295
0.039507948 -0.00035904936 0.82099998 4294967295
0.041063838 -0.00035887284 0.82099998 4294967295
0.042619769 -0.00035868958 0.82099998 4294967295
0.044068113 -0.00035762615 0.81900001 4294967295
0.045620304 -0.00035742973 0.81900001 4294967295
0.047172524 -0.0003572265 0.81900001 4294967295
0.048724774 -0.00035701651 0.81900001 4294967295
0.050154276 -0.00035592838 0.81699997 4294967295
0.051702797 -0.00035570539 0.81699997 4294967295
0.053381711 -0.00035634579 0.81900001 4294967295
0.054934088 -0.00035610862 0.81900001 4294967295
0.05648651 -0.00035586473 0.81900001 4294967295
0.058038957 -0.00035561397 0.81900001 4294967295
0.059591461 -0.00035535649 0.81900001 4294967295
0.061143976 -0.00035509211 0.81900001 4294967295
0.062849648 -0.00035568749 0.82099998 4294967295
0.064562939 -0.00035627474 0.82300001 4294967295
0.066123188 -0.00035598874 0.82300001 4294967295
0.067683458 -0.00035569578 0.82300001 4294967295
0.069243774 -0.00035539607 0.82300001 4294967295
0.070976213 -0.00035595245 0.82499999 4294967295
0.072540402 -0.0003556383 0.82499999 4294967295
0.074104659 -0.00035531734 0.82499999 4294967295
0.075668931 -0.00035498946 0.82499999 4294967295
0.077420525 -0.00035551461 0.82700002 4294967295
0.078988709 -0.00035517226 0.82700002 4294967295
0.080751769 -0.00035568114 0.829 4294967295
0.082323857 -0.00035532424 0.829 4294967295
0.083895981 -0.00035496042 0.829 4294967295
0.085468166 -0.00035458972 0.829 4294967295
0.087250397 -0.00035506667 0.83099997 4294967295
0.088826478 -0.00035468131 0.83099997 4294967295
0.090402618 -0.00035428902 0.83099997 4294967295
0.091978818 -0.0003538898 0.83099997 4294967295
0.09355507 -0.00035348375 0.83099997 4294967295
0.095360346 -0.00035392054 0.833 4294967295
0.097173259 -0.00035434836 0.83499998 4294967295
0.098757289 -0.00035391949 0.83499998 4294967295
0.10058172 -0.00035433043 0.83700001 4294967295
0.10241379 -0.00035473224 0.83899999 4294967295
0.10400558 -0.0003542804 0.83899999 4294967295
0.10584915 -0.0003546651 0.84100002 4294967295
0.10770041 -0.00035504054 0.84299999 4294967295
0.10955929 -0.00035540672 0.84500003 4294967295
0.11168893 -0.00035660368 0.84899998 4294967295
0.11330003 -0.00035611118 0.84899998 4294967295
0.11518189 -0.00035644937 0.85100001 4294967295
0.11679692 -0.00035594153 0.85100001 4294967295
0.118412 -0.00035542669 0.85100001 4294967295
-0.020635962 0.0012570191 0.86400002 4293979364
-0.018998668 0.0012569259 0.86400002 4294967295
-0.017361395 0.0012568402 0.86400002 4294967295
-0.015687743 0.0012538529 0.86199999 4294967295
-0.014021691 0.0012508737 0.86000001 4294967295
-0.012334417 0.0012449933 0.85600001 4294967295
-0.010712374 0.0012449384 0.85600001 4294967295
-0.0090691056 0.0012419826 0.85399997 4294967295
-0.0074247061 0.0012375801 0.85100001 4294967295
-0.0057985163 0.0012346394 0.84899998 4294967295
-0.0041700471 0.0012287981 0.84500003 4294967295
-0.0025628253 0.0012258725 0.84299999 4294967295
-0.00096319104 0.0012229546 0.84100002 4294967295
0.00063035666 0.0012229524 0.84100002 4294967295
0.0022186104 0.0012200492 0.83899999 4294967295
0.0037992809 0.0012171534 0.83700001 4294967295
0.0053852373 0.0012171731 0.83700001 4294967295
0.0069711925 0.0012172003 0.83700001 4294967295
0.0085366992 0.0012143262 0.83499998 4294967295
0.010118865 0.0012143679 0.83499998 4294967295
0.011673008 0.0012115083 0.833 4294967295
0.013219572 0.0012086555 0.83099997 4294967295
0.014758566 0.0012058099 0.829 4294967295
0.01632938 0.0012058804 0.829 4294967295
0.017900199 0.0012059581 0.829 4294967295
0.019424057 0.0012031336 0.82700002 4294967295
0.020991102 0.0012032257 0.82700002 4294967295
0.02255816 0.0012033249 0.82700002 4294967295
0.024125231 0.0012034316 0.82700002 4294967295
0.025630185 0.0012006349 0.82499999 4294967295
0.027193489 0.0012007556 0.82499999 4294967295
0.028756814 0.0012008838 0.82499999 4294967295
0.030246651 0.0011981075 0.82300001 4294967295
0.031728927 0.0011953376 0.82099998 4294967295
0.033284724 0.0011954866 0.82099998 4294967295
0.034840539 0.0011956427 0.82099998 4294967295
0.036396377 0.0011958062 0.82099998 4294967295
0.037952237 0.0011959767 0.82099998 4294967295
0.039508119 0.0011961544 0.82099998 4294967295
0.041064028 0.0011963395 0.82099998 4294967295
0.042619955 0.0011965316 0.82099998 4294967295
0.044068303 0.0011938156 0.81900001 4294967295
0.045620505 0.0011940217 0.81900001 4294967295
0.047172729 0.0011942349 0.81900001 4294967295
0.04872499 0.0011944553 0.81900001 4294967295
0.050154496 0.0011917652 0.81699997 4294967295
0.051703036 0.0011919995 0.81699997 4294967295
0.053381953 0.0011951593 0.81900001 4294967295
0.054934345 0.0011954083 0.81900001 4294967295
0.056486763 0.0011956644 0.81900001 4294967295
0.058039222 0.0011959277 0.81900001 4294967295
0.059591722 0.0011961982 0.81900001 4294967295
0.061144248 0.0011964759 0.81900001 4294967295
0.062849931 0.0011996832 0.82099998 4294967295
0.064563245 0.001202899 0.82300001 4294967295
0.066123478 0.0012031995 0.82300001 4294967295
0.067683764 0.0012035073 0.82300001 4294967295
0.069244087 0.0012038221 0.82300001 4294967295
0.070804454 0.0012041442 0.82300001 4294967295
0.072364874 0.0012044734 0.82300001 4294967295
0.07410498 0.0012077378 0.82499999 4294967295
0.075669281 0.0012080822 0.82499999 4294967295
0.077420875 0.0012113635 0.82700002 4294967295
0.078989059 0.0012117232 0.82700002 4294967295
0.080557302 0.00121209 0.82700002 4294967295
0.082324222 0.0012153964 0.829 4294967295
0.083896361 0.0012157786 0.829 4294967295
0.085468538 0.0012161679 0.829 4294967295
0.087040797 0.0012165648 0.829 4294967295
0.088826872 0.0012199045 0.83099997 4294967295
0.09040302 0.0012203165 0.83099997 4294967295
0.091979228 0.0012207358 0.83099997 4294967295
0.093555488 0.0012211624 0.83099997 4294967295
0.095360786 0.0012245363 0.833 4294967295
0.096940942 0.0012249782 0.833 4294967295
0.098757729 0.0012283697 0.83499998 4294967295
0.10058217 0.0012317706 0.83700001 4294967295
0.10217012 0.0012322366 0.83700001 4294967295
0.10375812 0.0012327097 0.83700001 4294967295
0.10559792 0.0012361369 0.83899999 4294967295
0.10744537 0.0012395735 0.84100002 4294967295
0.10955978 0.0012459689 0.84500003 4294967295
0.11168943 0.0012523762 0.84899998 4294967295
0.11330053 0.001252893 0.84899998 4294967295
0.1151824 0.0012563699 0.85100001 4294967295
0.11720917 0.0012613336 0.85399997 4294967295
0.11882997 0.0012618755 0.85399997 4294967295
0.12045082 0.0012624246 0.85399997 4294967295
-0.022350719 0.0029038277 0.86699998 4289899949
-0.020588292 0.0028869733 0.86199999 4294176750
-0.01895478 0.002886873 0.86199999 4294967295
-0.01732129 0.002886781 0.86199999 4294967295
-0.015687821 0.002886697 0.86199999 4294967295
-0.014021762 0.0028799232 0.86000001 4294967295
-0.012334476 0.0028664605 0.85600001 4294967295
-0.010712427 0.0028664006 0.85600001 4294967295
-0.0090691512 0.0028596518 0.85399997 4294967295
-0.0074247434 0.0028495628 0.85100001 4294967295
-0.0057985466 0.0028428303 0.84899998 4294967295
-0.0041700699 0.0028294087 0.84500003 4294967295
-0.00256284 0.0028226918 0.84299999 4294967295
-0.0009631982 0.0028159833 0.84100002 4294967295
0.00063035724 0.0028159793 0.84100002 4294967295
0.0022186185 0.0028092859 0.83899999 4294967295
0.0037992969 0.0028026006 0.83700001 4294967295
0.0053852606 0.0028026197 0.83700001 4294967295
0.0069712237 0.0028026465 0.83700001 4294967295
0.0085367383 0.002795984 0.83499998 4294967295
0.010118911 0.0027960262 0.83499998 4294967295
0.011673062 0.0027893793 0.833 4294967295
0.013219633 0.0027827392 0.83099997 4294967295
0.014758634 0.0027761073 0.829 4294967295
0.016329454 0.0027761797 0.829 4294967295
0.017900284 0.0027762603 0.829 4294967295
0.019424146 0.0027696504 0.82700002 4294967295
0.020991201 0.0027697459 0.82700002 4294967295
0.022558266 0.0027698486 0.82700002 4294967295
0.024125345 0.0027699596 0.82700002 4294967295
0.025630301 0.0027633787 0.82499999 4294967295
0.027193613 0.0027635044 0.82499999 4294967295
0.028756948 0.0027636378 0.82499999 4294967295
0.030246787 0.0027570787 0.82300001 4294967295
0.031806372 0.0027572273 0.82300001 4294967295
0.03328488 0.0027506822 0.82099998 4294967295
0.034840703 0.0027508454 0.82099998 4294967295
0.036396544 0.0027510158 0.82099998 4294967295
0.037952416 0.0027511942 0.82099998 4294967295
0.039508305 0.00275138 0.82099998 4294967295
0.041064221 0.0027515735 0.82099998 4294967295
0.04262016 0.0027517742 0.82099998 4294967295
0.044068515 0.0027452789 0.81900001 4294967295
0.045620717 0.0027454945 0.81900001 4294967295
0.047172956 0.0027457175 0.81900001 4294967295
0.048725225 0.0027459487 0.81900001 4294967295
0.050154731 0.0027394805 0.81699997 4294967295
0.051703278 0.0027397259 0.81699997 4294967295
0.053251848 0.0027399785 0.81699997 4294967295
0.054934602 0.0027469466 0.81900001 4294967295
0.056487031 0.0027472151 0.81900001 4294967295
0.05803949 0.0027474908 0.81900001 4294967295
0.059591997 0.0027477746 0.81900001 4294967295
0.061144542 0.0027480656 0.81900001 4294967295
0.062850222 0.0027550755 0.82099998 4294967295
0.064563535 0.0027620944 0.82300001 4294967295
0.066123784 0.0027624089 0.82300001 4294967295
0.067684084 0.0027627321 0.82300001 4294967295
0.069244415 0.0027630618 0.82300001 4294967295
0.070804797 0.0027633999 0.82300001 4294967295
0.072365209 0.0027637447 0.82300001 4294967295
0.07410533 0.0027708141 0.82499999 4294967295
0.075669639 0.0027711755 0.82499999 4294967295
0.077421233 0.0027782631 0.82700002 4294967295
0.078989431 0.0027786402 0.82700002 4294967295
0.080557682 0.0027790251 0.82700002 4294967295
0.082324594 0.0027861388 0.829 4294967295
0.083896741 0.0027865393 0.829 4294967295
0.08546894 0.0027869474 0.829 4294967295
0.087041199 0.0027873632 0.829 4294967295
0.08861351 0.0027877865 0.829 4294967295
0.090403445 0.002794944 0.83099997 4294967295
0.09197966 0.0027953833 0.83099997 4294967295
0.093555942 0.0027958304 0.83099997 4294967295
0.095132262 0.0027962846 0.83099997 4294967295
0.096941404 0.0028034779 0.833 4294967295
0.098758198 0.0028106805 0.83499998 4294967295
0.10058264 0.0028178936 0.83700001 4294967295
0.10217059 0.0028183814 0.83700001 4294967295
0.10375862 0.0028188771 0.83700001 4294967295
0.10559839 0.0028261167 0.83899999 4294967295
0.10744588 0.0028333673 0.84100002 4294967295
0.1095603 0.0028473667 0.84500003 4294967295
0.11142685 0.002854638 0.847 4294967295
0.11330106 0.0028619196 0.84899998 4294967295
0.11518293 0.0028692111 0.85100001 4294967295
0.11720972 0.0028798855 0.85399997 4294967295
0.11883052 0.0028804527 0.85399997 4294967295
0.1204514 0.0028810278 0.85399997 4294967295
-0.02070782 0.0045460784 0.86699998 4294768887
-0.018954881 0.0045197541 0.86199999 4294967295
-0.017321382 0.0045196558 0.86199999 4294967295
-0.015687905 0.0045195646 0.86199999 4294967295
-0.014021835 0.0045089968 0.86000001 4294967295
-0.012334543 0.0044879518 0.85600001 4294967295
-0.010712486 0.0044878875 0.85600001 4294967295
-0.0090692015 0.0044773454 0.85399997 4294967295
-0.0074247853 0.0044615692 0.85100001 4294967295
-0.0057985792 0.0044510439 0.84899998 4294967295
-0.0041799648 0.0044405279 0.847 4294967295
-0.0025628572 0.0044195349 0.84299999 4294967295
-0.00096320739 0.0044090352 0.84100002 4294967295
0.000628857 0.0043985443 0.83899999 4294967295
0.002218625 0.0043985457 0.83899999 4294967295
0.0037993114 0.0043880716 0.83700001 4294967295
0.0053724153 0.004377604 0.83499998 4294967295
0.0069545959 0.0043776305 0.83499998 4294967295
0.0085367775 0.004377665 0.83499998 4294967295
0.010094721 0.004367223 0.833 4294967295
0.011617062 0.0043463022 0.829 4294967295
0.013187881 0.0043463605 0.829 4294967295
0.014758706 0.004346428 0.829 4294967295
0.016329534 0.0043465025 0.829 4294967295
0.017857185 0.0043360991 0.82700002 4294967295
0.019424239 0.0043361899 0.82700002 4294967295
0.020991301 0.0043362891 0.82700002 4294967295
0.022558374 0.0043363958 0.82700002 4294967295
0.024125462 0.0043365103 0.82700002 4294967295
0.025630424 0.0043261456 0.82499999 4294967295
0.027193746 0.004326276 0.82499999 4294967295
0.028757088 0.0043264152 0.82499999 4294967295
0.030246938 0.0043160729 0.82300001 4294967295
0.031806529 0.004316228 0.82300001 4294967295
0.033285037 0.0043059001 0.82099998 4294967295
0.034840874 0.004306071 0.82099998 4294967295
0.036396727 0.0043062484 0.82099998 4294967295
0.037952602 0.0043064342 0.82099998 4294967295
0.039412253 0.0042961375 0.81900001 4294967295
0.040964391 0.0042963391 0.81900001 4294967295
0.042516544 0.0042965477 0.81900001 4294967295
0.044068728 0.0042967647 0.81900001 4294967295
0.045620944 0.0042969901 0.81900001 4294967295
0.047173183 0.0042972239 0.81900001 4294967295
0.04872546 0.0042974642 0.81900001 4294967295
0.05015498 0.0042872187 0.81699997 4294967295
0.051703528 0.0042874748 0.81699997 4294967295
0.053252108 0.0042877393 0.81699997 4294967295
0.05493487 0.0042985082 0.81900001 4294967295
0.056487303 0.0042987885 0.81900001 4294967295
0.058039781 0.0042990763 0.81900001 4294967295
0.059592303 0.0042993734 0.81900001 4294967295
0.061144847 0.0042996784 0.81900001 4294967295
0.06269744 0.0042999904 0.81900001 4294967295
0.064563863 0.004321313 0.82300001 4294967295
0.066124111 0.0043216418 0.82300001 4294967295
0.067684412 0.0043219794 0.82300001 4294967295
0.06924475 0.0043223249 0.82300001 4294967295
0.070977204 0.0043331822 0.82499999 4294967295
0.072541431 0.0043335441 0.82499999 4294967295
0.074105695 0.0043339143 0.82499999 4294967295
0.075670019 0.0043342919 0.82499999 4294967295
0.077234387 0.0043346779 0.82499999 4294967295
0.078798793 0.0043350714 0.82499999 4294967295
0.080558084 0.0043459828 0.82700002 4294967295
0.082325011 0.004356904 0.829 4294967295
0.083897159 0.0043573226 0.829 4294967295
0.085469373 0.0043577501 0.829 4294967295
0.087041624 0.004358185 0.829 4294967295
0.08861395 0.0043586274 0.829 4294967295
0.0904039 0.0043695946 0.83099997 4294967295
0.091980115 0.0043700538 0.83099997 4294967295
0.093556389 0.0043705213 0.83099997 4294967295
0.095132723 0.0043709958 0.83099997 4294967295
0.096941881 0.0043820012 0.833 4294967295
0.098758683 0.0043930146 0.83499998 4294967295
0.10058314 0.0044040396 0.83700001 4294967295
0.10217109 0.00440455 0.83700001 4294967295
0.10375912 0.0044050678 0.83700001 4294967295
0.10559892 0.0044161207 0.83899999 4294967295
0.10744639 0.0044271839 0.84100002 4294967295
0.10956084 0.0044487882 0.84500003 4294967295
0.1114274 0.0044598728 0.847 4294967295
0.11303474 0.0044604377 0.847 4294967295
0.11518352 0.004482076 0.85100001 4294967295
0.11721031 0.0044984617 0.85399997 4294967295
0.11883111 0.004499054 0.85399997 4294967295
0.12045199 0.0044996538 0.85399997 4294967295
-0.020707939 0.0061884639 0.86699998 4294967295
-0.018998967 0.006166935 0.86400002 4294967295
-0.017361669 0.0061668297 0.86400002 4294967295
-0.015687995 0.006152458 0.86199999 4294967295
-0.014021914 0.0061380952 0.86000001 4294967295
-0.012334614 0.0061094677 0.85600001 4294967295
-0.010712547 0.0061093983 0.85600001 4294967295
-0.0090692556 0.0060950634 0.85399997 4294967295
-0.0074248305 0.0060736006 0.85100001 4294967295
-0.0057986169 0.0060592839 0.84899998 4294967295
-0.004170123 0.006030702 0.84500003 4294967295
-0.0025567967 0.0060021281 0.84100002 4294967295
-0.00096321857 0.0060021118 0.84100002 4294967295
0.00062885415 0.00598783 0.83899999 4294967295
0.0022186309 0.0059878305 0.83899999 4294967295
0.0037993258 0.0059735659 0.83700001 4294967295
0.0053724376 0.0059593096 0.83499998 4294967295
0.0069546266 0.0059593366 0.83499998 4294967295
0.0085368166 0.0059593706 0.83499998 4294967295
0.010094768 0.00594514 0.833 4294967295
0.011617118 0.0059166439 0.829 4294967295
0.013187944 0.005916703 0.829 4294967295
0.014758777 0.0059167724 0.829 4294967295
0.016329613 0.0059168492 0.829 4294967295
0.017857272 0.0059026601 0.82700002 4294967295
0.019424334 0.0059027532 0.82700002 4294967295
0.020991407 0.0059028557 0.82700002 4294967295
0.022558486 0.0059029656 0.82700002 4294967295
0.024125583 0.0059030852 0.82700002 4294967295
0.025630554 0.0058889356 0.82499999 4294967295
0.027193887 0.0058890721 0.82499999 4294967295
0.028757231 0.0058892164 0.82499999 4294967295
0.03024709 0.0058750911 0.82300001 4294967295
0.031806689 0.0058752522 0.82300001 4294967295
0.033285208 0.0058611427 0.82099998 4294967295
0.034841049 0.0058613191 0.82099998 4294967295
0.03639691 0.0058615045 0.82099998 4294967295
0.037860341 0.0058474196 0.81900001 4294967295
0.039412457 0.0058476208 0.81900001 4294967295
0.0409646 0.0058478303 0.81900001 4294967295
0.042516764 0.0058480483 0.81900001 4294967295
0.044068955 0.005848275 0.81900001 4294967295
0.045621179 0.0058485097 0.81900001 4294967295
0.047173429 0.0058487528 0.81900001 4294967295
0.048725709 0.0058490043 0.81900001 4294967295
0.050155241 0.0058349799 0.81699997 4294967295
0.051703796 0.0058352472 0.81699997 4294967295
0.053252377 0.0058355229 0.81699997 4294967295
0.05493515 0.0058500925 0.81900001 4294967295
0.056487598 0.0058503854 0.81900001 4294967295
0.058040082 0.0058506867 0.81900001 4294967295
0.059592601 0.0058509959 0.81900001 4294967295
0.061145157 0.0058513139 0.81900001 4294967295
0.062697761 0.0058516394 0.81900001 4294967295
0.064407289 0.0058662635 0.82099998 4294967295
0.066124454 0.0058808983 0.82300001 4294967295
0.067684762 0.0058812504 0.82300001 4294967295
0.0692451 0.0058816108 0.82300001 4294967295
0.070805505 0.0058819791 0.82300001 4294967295
0.072365955 0.0058823568 0.82300001 4294967295
0.073926426 0.0058827414 0.82300001 4294967295
0.075670406 0.0058974326 0.82499999 4294967295
0.077234782 0.0058978335 0.82499999 4294967295
0.078799196 0.0058982451 0.82499999 4294967295
0.080363676 0.0058986638 0.82499999 4294967295
0.082126826 0.0059133922 0.82700002 4294967295
0.083695196 0.0059138285 0.82700002 4294967295
0.085469812 0.0059285769 0.829 4294967295
0.087042071 0.00592903 0.829 4294967295
0.088614404 0.0059294919 0.829 4294967295
0.090404361 0.0059442678 0.83099997 4294967295
0.091980584 0.0059447479 0.83099997 4294967295
0.093556881 0.005945236 0.83099997 4294967295
0.095133223 0.0059457319 0.83099997 4294967295
0.09694238 0.0059605469 0.833 4294967295
0.098759197 0.0059753726 0.83499998 4294967295
0.10058365 0.0059902091 0.83700001 4294967295
0.10217161 0.0059907408 0.83700001 4294967295
0.10400759 0.0060055987 0.83899999 4294967295
0.10559946 0.0060061477 0.83899999 4294967295
0.10744695 0.0060210247 0.84100002 4294967295
0.10930208 0.0060359128 0.84299999 4294967295
0.11142796 0.0060651326 0.847 4294967295
0.11303531 0.0060657212 0.847 4294967295
0.11491337 0.0060806409 0.84899998 4294967295
0.11721092 0.0061170617 0.85399997 4294967293
0.11883172 0.0061176787 0.85399997 4294967295
0.12045261 0.006118305 0.85399997 4294967295
-0.025548518 0.0078041977 0.86400002 4291281856
-0.022273749 0.0078039072 0.86400002 4290688951
-0.020636408 0.0078037786 0.86400002 4294967295
-0.0189551 0.0077855918 0.86199999 4294967295
-0.017321585 0.00778548 0.86199999 4294967295
-0.01565169 0.0077673132 0.86000001 4294967295
-0.014022002 0.0077672205 0.86000001 4294967295
-0.012334691 0.0077310107 0.85600001 4294967295
-0.010712614 0.0077309352 0.85600001 4294967295
-0.0090374546 0.0076857135 0.85100001 4294967295
-0.0074248803 0.0076856576 0.85100001 4294967295
-0.0057849973 0.0076494864 0.847 4294967295
-0.0041701542 0.0076313862 0.84500003 4294967295
-0.0025568192 0.0075952336 0.84100002 4294967295
-0.00096094125 0.0075771515 0.83899999 4294967295
0.00062884949 0.0075771413 0.83899999 4294967295
0.0022186351 0.0075771408 0.83899999 4294967295
0.0037993381 0.0075590862 0.83700001 4294967295
0.0053853276 0.0075591034 0.83700001 4294967295
0.0069546574 0.0075410665 0.83499998 4294967295
0.0085368548 0.0075411014 0.83499998 4294967295
0.010094816 0.0075230827 0.833 4294967295
0.011617173 0.0074870097 0.829 4294967295
0.013188009 0.0074870721 0.829 4294967295
0.01475885 0.007487142 0.829 4294967295
0.016329695 0.0074872212 0.829 4294967295
0.017857363 0.0074692452 0.82700002 4294967295
0.019424433 0.007469343 0.82700002 4294967295
0.020991514 0.0074694478 0.82700002 4294967295
0.022558605 0.0074695619 0.82700002 4294967295
0.024125706 0.0074696853 0.82700002 4294967295
0.02563069 0.0074517527 0.82499999 4294967295
0.027194032 0.0074518938 0.82499999 4294967295
0.028687671 0.007433977 0.82300001 4294967295
0.030247249 0.0074341348 0.82300001 4294967295
0.031806856 0.0074343015 0.82300001 4294967295
0.033285387 0.0074164094 0.82099998 4294967295
0.034841232 0.0074165938 0.82099998 4294967295
0.036308438 0.007398718 0.81900001 4294967295
0.037860543 0.0073989197 0.81900001 4294967295
0.039412674 0.0073991301 0.81900001 4294967295
0.040964816 0.0073993467 0.81900001 4294967295
0.042516995 0.0073995739 0.81900001 4294967295
0.044069193 0.0073998095 0.81900001 4294967295
0.045621421 0.0074000536 0.81900001 4294967295
0.047058489 0.007382236 0.81699997 4294967295
0.048606977 0.0073824967 0.81699997 4294967295
0.050155509 0.0073827663 0.81699997 4294967295
0.051704068 0.0073830439 0.81699997 4294967295
0.053252663 0.0073833317 0.81699997 4294967295
0.054801289 0.0073836269 0.81699997 4294967295
0.056349952 0.0073839319 0.81699997 4294967295
0.058040399 0.0074023213 0.81900001 4294967295
0.059592914 0.0074026431 0.81900001 4294967295
0.061145488 0.0074029737 0.81900001 4294967295
0.062698089 0.0074033132 0.81900001 4294967295
0.064407632 0.0074217417 0.82099998 4294967295
0.066124819 0.0074401791 0.82300001 4294967295
0.067685127 0.007440547 0.82300001 4294967295
0.069245487 0.0074409228 0.82300001 4294967295
0.070805885 0.0074413065 0.82300001 4294967295
0.072366327 0.007441699 0.82300001 4294967295
0.073926829 0.0074421 0.82300001 4294967295
0.075487368 0.0074425107 0.82300001 4294967295
0.077047966 0.0074429302 0.82300001 4294967295
0.078608602 0.0074433568 0.82300001 4294967295
0.08016929 0.0074437917 0.82300001 4294967295
0.081730016 0.0074442346 0.82300001 4294967295
0.083695643 0.0074808714 0.82700002 4294967295
0.085470267 0.0074994275 0.829 4294967295
0.087042548 0.0074999002 0.829 4294967295
0.088614881 0.0075003821 0.829 4294967295
0.090404838 0.0075189681 0.83099997 4294967295
0.091981083 0.0075194673 0.83099997 4294967295
0.09355738 0.0075199758 0.83099997 4294967295
0.095133729 0.0075204927 0.83099997 4294967295
0.096942894 0.0075391172 0.833 4294967295
0.098759718 0.0075577558 0.83499998 4294967295
0.10058419 0.0075764041 0.83700001 4294967295
0.10217218 0.0075769597 0.83700001 4294967295
0.10400814 0.007595628 0.83899999 4294967295
0.10560003 0.0075962008 0.83899999 4294967295
0.10744751 0.0076148906 0.84100002 4294967295
0.10930266 0.0076335925 0.84299999 4294967295
0.11116547 0.0076523069 0.84500003 4294967295
0.11303591 0.0076710298 0.847 4294967295
0.11491401 0.0076897657 0.84899998 4294967292
0.11679977 0.0077085122 0.85100001 4294966778
0.11883235 0.007736329 0.85399997 4294967293
0.12073534 0.0077551012 0.85600001 4294967295
0.12236009 0.007755761 0.85600001 4294769398
-0.022273891 0.0094406726 0.86400002 4290887100
-0.020588765 0.0094186803 0.86199999 4294967295
-0.018955221 0.0094185527 0.86199999 4294967295
-0.017321695 0.0094184335 0.86199999 4294967295
-0.015651792 0.0093964729 0.86000001 4294967295
-0.013989483 0.0093745217 0.85799998 4294967295
-0.012334773 0.0093525797 0.85600001 4294967295
-0.010712688 0.0093525006 0.85600001 4294967295
-0.0090375161 0.0092978021 0.85100001 4294967295
-0.0074249329 0.0092977425 0.85100001 4294967295
-0.0057850401 0.009253989 0.847 4294967295
-0.0041701891 0.0092320992 0.84500003 4294967295
-0.0025568439 0.0091883652 0.84100002 4294967295
-0.00096095685 0.0091664921 0.83899999 4294967295
0.00062884309 0.0091664791 0.83899999 4294967295
0.0022186376 0.0091664772 0.83899999 4294967295
0.00379935 0.0091446331 0.83700001 4294967295
0.0053724805 0.0091227992 0.83499998 4294967295
0.0069546872 0.0091228243 0.83499998 4294967295
0.0085368948 0.0091228597 0.83499998 4294967295
0.010094865 0.0091010528 0.833 4294967295
0.011617231 0.0090574035 0.829 4294967295
0.013188074 0.0090574659 0.829 4294967295
0.014758923 0.0090575377 0.829 4294967295
0.016329778 0.0090576187 0.829 4294967295
0.017857457 0.0090358593 0.82700002 4294967295
0.019424537 0.0090359589 0.82700002 4294967295
0.020991623 0.009036066 0.82700002 4294967295
0.022558725 0.0090361843 0.82700002 4294967295
0.024125839 0.0090363128 0.82700002 4294967295
0.025630826 0.0090145953 0.82499999 4294967295
0.027194176 0.0090147406 0.82499999 4294967295
0.028687827 0.0089930408 0.82300001 4294967295
0.030247414 0.0089932047 0.82300001 4294967295
0.031807031 0.0089933779 0.82300001 4294967295
0.033285569 0.0089717032 0.82099998 4294967295
0.034756556 0.0089500388 0.81900001 4294967295
0.036308639 0.0089502381 0.81900001 4294967295
0.037860751 0.0089504467 0.81900001 4294967295
0.039316639 0.0089288056 0.81699997 4294967295
0.040865004 0.008929031 0.81699997 4294967295
0.042413399 0.0089292675 0.81699997 4294967295
0.043961823 0.0089295115 0.81699997 4294967295
0.04551027 0.0089297658 0.81699997 4294967295
0.047058742 0.0089300266 0.81699997 4294967295
0.048607249 0.0089302985 0.81699997 4294967295
0.050155785 0.0089305788 0.81699997 4294967295
0.051704362 0.0089308694 0.81699997 4294967295
0.053252958 0.0089311665 0.81699997 4294967295
0.054801594 0.0089314748 0.81699997 4294967295
0.056350272 0.0089317914 0.81699997 4294967295
0.058040708 0.008953982 0.81900001 4294967295
0.059593253 0.0089543173 0.81900001 4294967295
0.061145823 0.008954661 0.81900001 4294967295
0.062698431 0.0089550139 0.81900001 4294967295
0.064408004 0.0089772465 0.82099998 4294967295
0.066125177 0.0089994874 0.82300001 4294967295
0.067685492 0.0089998683 0.82300001 4294967295
0.06924586 0.0090002595 0.82300001 4294967295
0.070806287 0.0090006599 0.82300001 4294967295
0.072366744 0.0090010688 0.82300001 4294967295
0.073927246 0.0090014869 0.82300001 4294967295
0.075487792 0.0090019144 0.82300001 4294967295
0.077048391 0.0090023475 0.82300001 4294967295
0.078609027 0.0090027917 0.82300001 4294967295
0.080169737 0.0090032453 0.82300001 4294967295
0.0817305 0.0090037081 0.82300001 4294967295
0.083493702 0.0090260599 0.82499999 4294967295
0.085264549 0.0090484237 0.82700002 4294967295
0.086833037 0.0090489136 0.82700002 4294967295
0.088615365 0.0090712979 0.829 4294967295
0.090187773 0.0090718083 0.829 4294967295
0.091760226 0.0090723261 0.829 4294967295
0.093557902 0.0090947431 0.83099997 4294967295
0.095134258 0.0090952786 0.83099997 4294967295
0.097176194 0.0091396077 0.83499998 4294967295
0.09876027 0.0091401655 0.83499998 4294967295
0.10058476 0.0091626272 0.83700001 4294967295
0.10217272 0.0091632018 0.83700001 4294967295
0.10376079 0.0091637895 0.83700001 4294967295
0.10560062 0.009186279 0.83899999 4294967295
0.1071926 0.0091868844 0.83899999 4294967295
0.10904395 0.0092093991 0.84100002 4294967295
0.11116606 0.009253826 0.84500003 4294967295
0.11303653 0.0092763659 0.847 4294967294
0.11491466 0.009298916 0.84899998 4294967291
0.11680044 0.0093214801 0.85100001 4294967035
0.11883301 0.0093550077 0.85399997 4294967292
0.12045392 0.0093556847 0.85399997 4294967294
0.12207488 0.0093563693 0.85399997 4294901239
0.12369592 0.009357064 0.85399997 4293519065
-0.02227404 0.011077465 0.86400002 4291478467
-0.020588903 0.011051678 0.86199999 4294967295
-0.018955348 0.011051543 0.86199999 4294967295
-0.017321812 0.011051416 0.86199999 4294967295
-0.015651898 0.011025661 0.86000001 4294967295
-0.013989581 0.010999914 0.85799998 4294967295
-0.01233486 0.010974179 0.85600001 4294967295
-0.010712763 0.010974094 0.85600001 4294967295
-0.0090375831 0.01090992 0.85100001 4294967295
-0.0074249906 0.010909856 0.85100001 4294967295
-0.0057850881 0.010858522 0.847 4294967295
-0.0041702259 0.010832839 0.84500003 4294967295
-0.0025568712 0.010781526 0.84100002 4294967295
-0.00096097455 0.010755861 0.83899999 4294967295
0.00062883506 0.010755848 0.83899999 4294967295
0.0022133505 0.010730204 0.83700001 4294967295
0.0037993612 0.010730211 0.83700001 4294967295
0.005372501 0.010704585 0.83499998 4294967295
0.0069547184 0.010704611 0.83499998 4294967295
0.0085164867 0.010679008 0.833 4294967295
0.010094914 0.01067905 0.833 4294967295
0.01161729 0.010627825 0.829 4294967295
0.013188143 0.010627889 0.829 4294967295
0.014759 0.010627965 0.829 4294967295
0.016329868 0.010628047 0.829 4294967295
0.017857552 0.010602499 0.82700002 4294967295
0.019424642 0.010602602 0.82700002 4294967295
0.020940969 0.010577071 0.82499999 4294967295
0.022504294 0.010577193 0.82499999 4294967295
0.024067624 0.010577325 0.82499999 4294967295
0.025568837 0.010551824 0.82300001 4294967295
0.027128408 0.010551975 0.82300001 4294967295
0.028687987 0.010552134 0.82300001 4294967295
0.030174082 0.010526659 0.82099998 4294967295
0.031729914 0.010526838 0.82099998 4294967295
0.033285756 0.010527026 0.82099998 4294967295
0.034756746 0.010501578 0.81900001 4294967295
0.036308847 0.010501785 0.81900001 4294967295
0.037860963 0.010502 0.81900001 4294967295
0.039316863 0.01047658 0.81699997 4294967295
0.040865242 0.010476815 0.81699997 4294967295
0.042413648 0.01047706 0.81699997 4294967295
0.043962076 0.010477313 0.81699997 4294967295
0.045510527 0.010477575 0.81699997 4294967295
0.047059018 0.010477846 0.81699997 4294967295
0.048607532 0.010478129 0.81699997 4294967295
0.050156079 0.010478419 0.81699997 4294967295
0.05170466 0.010478718 0.81699997 4294967295
0.053253267 0.010479029 0.81699997 4294967295
0.054801915 0.010479348 0.81699997 4294967295
0.056488536 0.010505331 0.81900001 4294967295
0.058041051 0.010505672 0.81900001 4294967295
0.059593596 0.010506018 0.81900001 4294967295
0.061146177 0.010506376 0.81900001 4294967295
0.062698804 0.010506743 0.81900001 4294967295
0.064565279 0.010558435 0.82300001 4294967295
0.066125579 0.010558824 0.82300001 4294967295
0.067685902 0.010559221 0.82300001 4294967295
0.069246277 0.010559626 0.82300001 4294967295
0.070806704 0.010560042 0.82300001 4294967295
0.072367162 0.010560466 0.82300001 4294967295
0.073927671 0.010560899 0.82300001 4294967295
0.075488232 0.010561342 0.82300001 4294967295
0.077048838 0.010561795 0.82300001 4294967295
0.078609496 0.010562256 0.82300001 4294967295
0.080170192 0.010562726 0.82300001 4294967295
0.081730962 0.010563207 0.82300001 4294967295
0.083494194 0.010589368 0.82499999 4294967295
0.085058831 0.010589865 0.82499999 4294967295
0.086833552 0.010616049 0.82700002 4294967295
0.088615894 0.010642243 0.829 4294967295
0.090188295 0.010642773 0.829 4294967295
0.091760762 0.010643311 0.829 4294967295
0.093558438 0.010669536 0.83099997 4294967295
0.095134817 0.010670095 0.83099997 4294967295
0.096944012 0.010696343 0.833 4294967295
0.098524287 0.010696921 0.833 4294967295
0.10058533 0.010748876 0.83700001 4294967295
0.10217334 0.010749475 0.83700001 4294967295
0.10376137 0.010750081 0.83700001 4294967295
0.10560123 0.010776388 0.83899999 4294967295
0.10719322 0.010777016 0.83899999 4294967295
0.10904458 0.010803343 0.84100002 4294967295
0.1109036 0.010829683 0.84299999 4294967295
0.11277027 0.010856035 0.84500003 4294967292
0.11464461 0.010882399 0.847 4294967292
0.1168011 0.010934472 0.85100001 4294967292
0.11841625 0.010935164 0.85100001 4294967035
0.12045461 0.010974417 0.85399997 4294900987
0.12207557 0.010975126 0.85399997 4294966780
0.12369664 0.010975848 0.85399997 4293650402
-0.022274192 0.012714287 0.86400002 4291479237
-0.020589044 0.012684703 0.86199999 4294967295
-0.018911501 0.012655131 0.86000001 4294967295
-0.017281745 0.012654999 0.86000001 4294967295
-0.015615609 0.012625448 0.85799998 4294967295
-0.01395707 0.012595908 0.85600001 4294967295
-0.012306132 0.012566379 0.85399997 4294967295
-0.010687815 0.01256629 0.85399997 4294967295
-0.0090376548 0.012522068 0.85100001 4294967295
-0.0074250503 0.012522001 0.85100001 4294967295
-0.0057987985 0.012492513 0.84899998 4294967295
-0.004170266 0.012433609 0.84500003 4294967295
-0.0025569012 0.012374716 0.84100002 4294967295
-0.00096099428 0.01234526 0.83899999 4294967295
0.00062882522 0.012345245 0.83899999 4294967295
0.002213351 0.012315812 0.83700001 4294967295
0.0037993717 0.012315816 0.83700001 4294967295
0.005372521 0.012286401 0.83499998 4294967295
0.0069547486 0.012286426 0.83499998 4294967295
0.0085165277 0.012257033 0.833 4294967295
0.010070727 0.012227649 0.83099997 4294967295
0.011617349 0.012198277 0.829 4294967295
0.013188215 0.012198343 0.829 4294967295
0.014759084 0.012198417 0.829 4294967295
0.01629056 0.012169073 0.82700002 4294967295
0.017857652 0.012169169 0.82700002 4294967295
0.019424751 0.012169274 0.82700002 4294967295
0.020941092 0.012139958 0.82499999 4294967295
0.022504425 0.012140085 0.82499999 4294967295
0.024067765 0.01214022 0.82499999 4294967295
0.025568986 0.012110936 0.82300001 4294967295
0.027062632 0.012081657 0.82099998 4294967295
0.028618434 0.012081821 0.82099998 4294967295
0.030174257 0.012081998 0.82099998 4294967295
0.031730097 0.012082181 0.82099998 4294967295
0.033204872 0.012052943 0.81900001 4294967295
0.034672078 0.012023713 0.81699997 4294967295
0.03622039 0.012023926 0.81699997 4294967295
0.037768733 0.012024148 0.81699997 4294967295
0.039317098 0.012024382 0.81699997 4294967295
0.040865481 0.012024624 0.81699997 4294967295
0.042413894 0.012024877 0.81699997 4294967295
0.04396233 0.012025139 0.81699997 4294967295
0.045510799 0.012025412 0.81699997 4294967295
0.047059294 0.012025694 0.81699997 4294967295
0.048607819 0.012025986 0.81699997 4294967295
0.050156377 0.012026289 0.81699997 4294967295
0.051704969 0.012026599 0.81699997 4294967295
0.053123228 0.01199748 0.815 4294967295
0.054668091 0.011997809 0.815 4294967295
0.056350935 0.012027592 0.81699997 4294967295
0.058041397 0.012057387 0.81900001 4294967295
0.059593961 0.012057749 0.81900001 4294967295
0.061146554 0.012058119 0.81900001 4294967295
0.062699184 0.0120585 0.81900001 4294967295
0.064565673 0.012117786 0.82300001 4294967295
0.066125967 0.012118186 0.82300001 4294967295
0.067686312 0.012118599 0.82300001 4294967295
0.069246687 0.01211902 0.82300001 4294967295
0.070807114 0.01211945 0.82300001 4294967295
0.072367594 0.01211989 0.82300001 4294967295
0.073928118 0.012120341 0.82300001 4294967295
0.075488679 0.012120799 0.82300001 4294967295
0.077049315 0.01212127 0.82300001 4294967295
0.078609966 0.012121749 0.82300001 4294967295
0.080170684 0.012122235 0.82300001 4294967295
0.081731454 0.012122734 0.82300001 4294967295
0.083494693 0.012152703 0.82499999 4294967295
0.085059345 0.012153219 0.82499999 4294967295
0.086624071 0.012153748 0.82499999 4294967295
0.088402636 0.01218375 0.82700002 4294967295
0.090188846 0.012213766 0.829 4294967295
0.091761313 0.012214323 0.829 4294967295
0.093333833 0.012214891 0.829 4294967295
0.095135391 0.012244939 0.83099997 4294967295
0.096944585 0.012274997 0.833 4294967295
0.098524891 0.012275596 0.833 4294967295
0.10034558 0.012305678 0.83499998 4294967295
0.10217395 0.012335776 0.83700001 4294967295
0.10376201 0.012336405 0.83700001 4294967295
0.10560187 0.012366525 0.83899999 4294967295
0.10719384 0.012367173 0.83899999 4294967295
0.10904522 0.012397316 0.84100002 4294967293
0.11090428 0.01242747 0.84299999 4294967291
0.11277094 0.012457636 0.84500003 4294967292
0.11464529 0.012487817 0.847 4294967035
0.11652729 0.012518008 0.84899998 4294966521
0.11841695 0.012548213 0.85100001 4294834678
0.12003217 0.012548938 0.85100001 4294900987
0.12207632 0.012593913 0.85399997 4294900987
0.12369738 0.012594659 0.85399997 4293650402
-0.022274354 0.014351142 0.86400002 4291676359
-0.020589195 0.01431776 0.86199999 4294967295
-0.018911639 0.014284392 0.86000001 4294967295
-0.017281875 0.014284256 0.86000001 4294967295
-0.015615728 0.014250908 0.85799998 4294967295
-0.01395718 0.014217573 0.85600001 4294967295
-0.012306229 0.014184251 0.85399997 4294967295
-0.010687902 0.014184156 0.85399997 4294967295
-0.0090377303 0.014134247 0.85100001 4294967295
-0.0074251159 0.014134175 0.85100001 4294967295
-0.0057715313 0.01403446 0.84500003 4294967295
-0.0041703088 0.014034412 0.84500003 4294967295
-0.0025569338 0.013967936 0.84100002 4294967295
-0.00096101646 0.013934689 0.83899999 4294967295
0.00062881369 0.013934673 0.83899999 4294967295
0.0022133496 0.013901448 0.83700001 4294967295
0.0037993812 0.013901453 0.83700001 4294967295
0.0053725406 0.013868247 0.83499998 4294967295
0.006954778 0.013868273 0.83499998 4294967295
0.0085165668 0.013835091 0.833 4294967295
0.01004654 0.0137687 0.829 4294967295
0.011617409 0.013768758 0.829 4294967295
0.013156469 0.013735608 0.82700002 4294967295
0.014723558 0.013735684 0.82700002 4294967295
0.016290652 0.013735771 0.82700002 4294967295
0.017814567 0.013702651 0.82499999 4294967295
0.019377884 0.013702759 0.82499999 4294967295
0.020941213 0.013702875 0.82499999 4294967295
0.02245 0.013669787 0.82300001 4294967295
0.024009561 0.013669925 0.82300001 4294967295
0.025507003 0.013636855 0.82099998 4294967295
0.027062796 0.013637014 0.82099998 4294967295
0.028618606 0.013637183 0.82099998 4294967295
0.030100938 0.013604145 0.81900001 4294967295
0.031575695 0.013571112 0.81699997 4294967295
0.033123989 0.013571312 0.81699997 4294967295
0.034672286 0.01357152 0.81699997 4294967295
0.036220614 0.013571741 0.81699997 4294967295
0.037768964 0.013571972 0.81699997 4294967295
0.039317343 0.013572216 0.81699997 4294967295
0.040865734 0.013572466 0.81699997 4294967295
0.042414159 0.013572725 0.81699997 4294967295
0.043962605 0.013572998 0.81699997 4294967295
0.045511082 0.01357328 0.81699997 4294967295
0.047059592 0.013573572 0.81699997 4294967295
0.048608128 0.013573875 0.81699997 4294967295
0.05015669 0.013574185 0.81699997 4294967295
0.051705293 0.013574511 0.81699997 4294967295
0.053123567 0.013541612 0.815 4294967295
0.054668438 0.013541954 0.815 4294967295
0.056351285 0.013575538 0.81699997 4294967295
0.05804177 0.013609136 0.81900001 4294967295
0.059594329 0.013609508 0.81900001 4294967295
0.061146934 0.013609892 0.81900001 4294967295
0.062699579 0.013610286 0.81900001 4294967295
0.064409159 0.013643927 0.82099998 4294967295
0.065965682 0.013644341 0.82099998 4294967295
0.067522243 0.013644766 0.82099998 4294967295
0.06907884 0.013645201 0.82099998 4294967295
0.070635483 0.013645647 0.82099998 4294967295
0.072192177 0.013646102 0.82099998 4294967295
0.07392858 0.013679813 0.82300001 4294967295
0.075489163 0.013680288 0.82300001 4294967295
0.077049792 0.013680775 0.82300001 4294967295
0.078610465 0.01368127 0.82300001 4294967295
0.080171183 0.013681774 0.82300001 4294967295
0.081930578 0.01371554 0.82499999 4294967295
0.083495207 0.013716069 0.82499999 4294967295
0.085059881 0.013716604 0.82499999 4294967295
0.086624607 0.013717149 0.82499999 4294967295
0.088403188 0.013750963 0.82700002 4294967295
0.090189397 0.013784786 0.829 4294967295
0.091761887 0.013785363 0.829 4294967295
0.093334414 0.013785953 0.829 4294967295
0.095135972 0.013819809 0.83099997 4294967295
0.096712433 0.013820421 0.83099997 4294967295
0.098288931 0.013821038 0.83099997 4294967295
0.10034622 0.013888195 0.83499998 4294967295
0.10217458 0.013922106 0.83700001 4294967293
0.10376265 0.013922757 0.83700001 4294967295
0.10560252 0.01395669 0.83899999 4294967295
0.10719452 0.013957363 0.83899999 4294967294
0.10930523 0.01402459 0.84299999 4294967291
0.11090498 0.014025289 0.84299999 4294967034
0.11277165 0.014059269 0.84500003 4294967035
0.11464601 0.014093263 0.847 4294966778
0.11652801 0.014127269 0.84899998 4294769139
0.11841769 0.014161293 0.85100001 4294769139
0.12003291 0.014162043 0.85100001 4294835191
0.12207706 0.014212729 0.85399997 4294901241
0.12369813 0.014213502 0.85399997 4293585379
-0.02240343 0.016080553 0.86900002 4291677384
-0.020589355 0.015950851 0.86199999 4294967295
-0.018911788 0.015913688 0.86000001 4294967295
-0.017282009 0.01591354 0.86000001 4294967295
-0.015615854 0.015876401 0.85799998 4294967295
-0.013989905 0.01587628 0.85799998 4294967295
-0.01230633 0.015802154 0.85399997 4294967295
-0.010687993 0.015802054 0.85399997 4294967295
-0.0090378094 0.015746456 0.85100001 4294967295
-0.0074077332 0.015709372 0.84899998 4294967295
-0.0057715885 0.015635297 0.84500003 4294967295
-0.0041703549 0.015635243 0.84500003 4294967295
-0.0025569692 0.015561189 0.84100002 4294967295
-0.00096104061 0.015524149 0.83899999 4294967295
0.00062880042 0.01552413 0.83899999 4294967295
0.0022133472 0.015487117 0.83700001 4294967295
0.0037993896 0.015487118 0.83700001 4294967295
0.0053725597 0.015450124 0.83499998 4294967295
0.0069548083 0.01545015 0.83499998 4294967295
0.0085166087 0.01541318 0.833 4294967295
0.010046591 0.015339212 0.829 4294967295
0.011617471 0.015339268 0.829 4294967295
0.01315654 0.01530233 0.82700002 4294967295
0.014723639 0.01530241 0.82700002 4294967295
0.016290745 0.015302502 0.82700002 4294967295
0.017814668 0.015265591 0.82499999 4294967295
0.019377997 0.015265702 0.82499999 4294967295
0.020941338 0.015265824 0.82499999 4294967295
0.022450136 0.015228949 0.82300001 4294967295
0.024009706 0.015229092 0.82300001 4294967295
0.025507152 0.015192238 0.82099998 4294967295
0.026997039 0.015155394 0.81900001 4294967295
0.028479356 0.015118558 0.81699997 4294967295
0.030027613 0.01511874 0.81699997 4294967295
0.0314986 0.015081927 0.815 4294967295
0.033043105 0.015082132 0.815 4294967295
0.034587629 0.015082349 0.815 4294967295
0.036132179 0.015082576 0.815 4294967295
0.03767674 0.015082814 0.815 4294967295
0.039317593 0.015120077 0.81699997 4294967295
0.040865999 0.015120336 0.81699997 4294967295
0.042414434 0.015120607 0.81699997 4294967295
0.043962892 0.015120886 0.81699997 4294967295
0.045511376 0.015121179 0.81699997 4294967295
0.047059894 0.01512148 0.81699997 4294967295
0.048608433 0.015121792 0.81699997 4294967295
0.050157018 0.015122117 0.81699997 4294967295
0.051579047 0.015085431 0.815 4294967295
0.053123903 0.015085772 0.815 4294967295
0.054668784 0.015086127 0.815 4294967295
0.056213703 0.01508649 0.815 4294967295
0.057900395 0.015123889 0.81699997 4294967295
0.059594706 0.015161295 0.81900001 4294967295
0.061147328 0.015161697 0.81900001 4294967295
0.062699974 0.015162101 0.81900001 4294967295
0.064409569 0.015199547 0.82099998 4294967295
0.065966107 0.015199977 0.82099998 4294967295
0.067522675 0.015200417 0.82099998 4294967295
0.069079295 0.01520087 0.82099998 4294967295
0.070635952 0.015201328 0.82099998 4294967295
0.072192647 0.015201798 0.82099998 4294967295
0.073929057 0.015239312 0.82300001 4294967295
0.075489648 0.015239804 0.82300001 4294967295
0.077050284 0.015240309 0.82300001 4294967295
0.078610964 0.015240821 0.82300001 4294967295
0.080171697 0.015241345 0.82300001 4294967295
0.081931114 0.015278918 0.82499999 4294967295
0.083495736 0.015279463 0.82499999 4294967295
0.085060425 0.015280019 0.82499999 4294967295
0.086835176 0.015317626 0.82700002 4294967295
0.088403761 0.015318205 0.82700002 4294967295
0.089972399 0.015318791 0.82700002 4294967295
0.091541097 0.015319388 0.82700002 4294967295
0.093335018 0.015357045 0.829 4294967295
0.094907627 0.015357664 0.829 4294967295
0.096480295 0.015358292 0.829 4294967295
0.098289572 0.015395982 0.83099997 4294967295
0.10010651 0.015433691 0.833 4294967295
0.10193108 0.015471406 0.83499998 4294967294
0.10376331 0.01550914 0.83700001 4294967295
0.1056032 0.015546885 0.83899999 4294967294
0.10719524 0.015547582 0.83899999 4294967294
0.10930595 0.015622415 0.84299999 4294967035
0.11116878 0.0156602 0.84500003 4294966778
0.11277235 0.01566093 0.84500003 4294966776
0.11464674 0.015698738 0.847 4294966263
0.11652874 0.015736563 0.84899998 4294769139
0.11814014 0.015737329 0.84899998 4294637297
0.1200337 0.015775178 0.85100001 4294834932
0.12207785 0.015831575 0.85399997 4294966519
-0.025756598 0.017768137 0.87099999 4291282878
-0.022403607 0.017726948 0.86900002 4291808198
-0.020589519 0.017583977 0.86199999 4294967295
-0.018911943 0.017543018 0.86000001 4294967295
-0.017282153 0.017542867 0.86000001 4294967295
-0.015652385 0.017542725 0.86000001 4294967295
-0.013990021 0.017501799 0.85799998 4294967295
-0.012306437 0.017420093 0.85399997 4294967295
-0.01068809 0.017419988 0.85399997 4294967295
-0.0090378923 0.017358702 0.85100001 4294967295
-0.007407805 0.017317824 0.84899998 4294967295
-0.0057853097 0.017276963 0.847 4294967295
-0.0041704047 0.017236112 0.84500003 4294967295
-0.0025630873 0.017195269 0.84299999 4294967295
-0.00096106686 0.017113646 0.83899999 4294967295
0.00062878535 0.017113624 0.83899999 4294967295
0.0022133437 0.017072819 0.83700001 4294967295
0.0037993975 0.017072823 0.83700001 4294967295
0.0053725792 0.017032037 0.83499998 4294967295
0.0069548381 0.017032063 0.83499998 4294967295
0.0085166488 0.016991302 0.833 4294967295
0.01007088 0.016950551 0.83099997 4294967295
0.011617537 0.016909815 0.829 4294967295
0.013156613 0.01686909 0.82700002 4294967295
0.014723726 0.016869171 0.82700002 4294967295
0.016251441 0.016828464 0.82499999 4294967295
0.017814778 0.016828569 0.82499999 4294967295
0.019378118 0.01682868 0.82499999 4294967295
0.02094147 0.016828807 0.82499999 4294967295
0.022450274 0.016788146 0.82300001 4294967295
0.024009861 0.016788295 0.82300001 4294967295
0.025507314 0.016747652 0.82099998 4294967295
0.02699721 0.016707025 0.81900001 4294967295
0.028479539 0.016666407 0.81699997 4294967295
0.030027805 0.016666595 0.81699997 4294967295
0.031498808 0.016625999 0.815 4294967295
0.033043321 0.016626211 0.815 4294967295
0.034502979 0.016585633 0.81300002 4294967295
0.036043748 0.016585868 0.81300002 4294967295
0.037676997 0.016626913 0.815 4294967295
0.039221596 0.016627168 0.815 4294967295
0.040866263 0.01666824 0.81699997 4294967295
0.042414702 0.016668517 0.81699997 4294967295
0.043963175 0.01666881 0.81699997 4294967295
0.045511678 0.016669109 0.81699997 4294967295
0.047060199 0.016669421 0.81699997 4294967295
0.048608758 0.016669743 0.81699997 4294967295
0.050157346 0.016670078 0.81699997 4294967295
0.051579393 0.016629612 0.815 4294967295
0.053124253 0.016629966 0.815 4294967295
0.054669149 0.016630333 0.815 4294967295
0.056214079 0.016630709 0.815 4294967295
0.057900786 0.016671907 0.81699997 4294967295
0.059449587 0.016672308 0.81699997 4294967295
0.060998421 0.016672717 0.81699997 4294967295
0.062547281 0.016673137 0.81699997 4294967295
0.064410016 0.016755201 0.82099998 4294967295
0.065966554 0.016755646 0.82099998 4294967295
0.067523129 0.016756101 0.82099998 4294967295
0.069079757 0.016756564 0.82099998 4294967295
0.070636429 0.016757041 0.82099998 4294967295
0.072193138 0.016757527 0.82099998 4294967295
0.073929548 0.016798846 0.82300001 4294967295
0.075490162 0.016799359 0.82300001 4294967294
0.077050798 0.016799875 0.82300001 4294967295
0.078611493 0.016800407 0.82300001 4294967295
0.080367073 0.016841777 0.82499999 4294967295
0.081931658 0.016842328 0.82499999 4294967295
0.083496302 0.016842892 0.82499999 4294967295
0.085061006 0.016843464 0.82499999 4294967295
0.086835742 0.016884882 0.82700002 4294967295
0.08840435 0.01688548 0.82700002 4294967295
0.089972995 0.016886085 0.82700002 4294967294
0.091541708 0.016886702 0.82700002 4294967294
0.093335643 0.01692817 0.829 4294967295
0.09490826 0.016928809 0.829 4294967293
0.096480936 0.016929457 0.829 4294967295
0.098290242 0.016970962 0.83099997 4294967295
0.099866822 0.016971633 0.83099997 4294967294
0.10193176 0.017054008 0.83499998 4294967290
0.10351607 0.017054707 0.83499998 4294967033
0.10535216 0.017096264 0.83700001 4294966776
0.10719594 0.017137833 0.83899999 4294966776
0.10930666 0.017220274 0.84299999 4294966778
0.1109064 0.017221017 0.84299999 4294966263
0.11277313 0.017262626 0.84500003 4294834932
0.1146475 0.017304251 0.847 4294769139
0.11625502 0.01730503 0.847 4294703090
0.11814094 0.017346682 0.84899998 4294637297
0.11975238 0.017347479 0.84899998 4294769139
0.1213639 0.017348286 0.84899998 4294966776
