# .PCD v0.7 - Point Cloud Data file format
VERSION 0.7
FIELDS x y z rgba
SIZE 4 4 4 4
TYPE F F F U
COUNT 1 1 1 1
WIDTH 1014
HEIGHT 1
VIEWPOINT 0 0 0 1 0 0 0
POINTS 1014
DATA ascii
-0.065965116 -0.0084480289 0.71600002 4293782757
-0.064607047 -0.0084482068 0.71600002 4293782757
-0.063249022 -0.0084483819 0.71600002 4293782757
-0.061718188 -0.0084249536 0.71399999 4293782757
-0.06036406 -0.0084251184 0.71399999 4293782757
-0.059175283 -0.0084488811 0.71600002 4293848287
-0.057817463 -0.0084490394 0.71600002 4293782494
-0.056459706 -0.008449195 0.71600002 4293650652
-0.055178937 -0.0084611438 0.71700001 4293584858
-0.053819362 -0.008461291 0.71700001 4293650140
-0.052459829 -0.0084614325 0.71700001 4293715934
-0.051242881 -0.0084851729 0.71899998 4293584347
-0.049879633 -0.008485307 0.71899998 4293518554
-0.048516445 -0.0084854383 0.71899998 4293519065
-0.047153287 -0.008485564 0.71899998 4293387736
-0.045853868 -0.0084974887 0.72000003 4293321943
-0.044488899 -0.0084976079 0.72000003 4293256150
-0.043123964 -0.0084977234 0.72000003 4293190103
-0.041875064 -0.0085214376 0.722 4293124309
-0.040506411 -0.0085215447 0.722 4293057749
-0.039137796 -0.0085216481 0.722 4292926163
-0.037821535 -0.0085335504 0.72299999 4292861140
-0.036551926 -0.0085572526 0.72500002 4293058262
-0.035177726 -0.0085573429 0.72500002 4293058003
-0.033896804 -0.0085810367 0.727 4292992210
-0.032563604 -0.0085929241 0.72799999 4292861392
-0.031183813 -0.0085930033 0.72799999 4292861392
-0.02992687 -0.0086284913 0.73100001 4292729552
-0.028619533 -0.0086521721 0.73299998 4292729552
-0.027267497 -0.0086640446 0.73400003 4292729552
-0.025876435 -0.0086641079 0.73400003 4292729552
-0.024485409 -0.0086641703 0.73400003 4292861390
-0.023094401 -0.0086642271 0.73400003 4292861390
-0.021821689 -0.0087114954 0.73799998 4292532940
-0.020423146 -0.0087115448 0.73799998 4292401354
-0.019050403 -0.008723394 0.73900002 4292335309
-0.017650006 -0.0087234359 0.73900002 4292335309
-0.016403547 -0.0088061048 0.74599999 4292531909
-0.015110482 -0.0088769635 0.75199997 4292466116
-0.013685505 -0.0088769943 0.75199997 4292465862
-0.012293147 -0.0089006303 0.75400001 4292465862
-0.01087882 -0.0089124562 0.755 4292334535
-0.0094481995 -0.0089124748 0.755 4292597450
-0.14105695 -0.0074511394 0.75400001 4278190191
-0.13888264 -0.0074120681 0.75 4279173120
-0.13745673 -0.0074125221 0.75 4282260762
-0.13584949 -0.0074030855 0.74900001 4293310079
-0.13406669 -0.0073837568 0.74699998 4294961329
-0.13246912 -0.0073743057 0.74599999 4294242795
-0.13034841 -0.0073351911 0.74199998 4293782244
-0.1287643 -0.007325727 0.741 4293782755
-0.12684032 -0.0072964812 0.73799998 4293980135
-0.12509781 -0.0072771134 0.736 4293980135
-0.12336297 -0.00725774 0.73400003 4293980135
-0.12180196 -0.0072482466 0.73299998 4293914341
-0.12040909 -0.0072486349 0.73299998 4294046184
-0.11869158 -0.0072292397 0.73100001 4294243304
-0.11730267 -0.0072296187 0.73100001 4294177511
-0.11591384 -0.0072299922 0.73100001 4293716708
-0.11452506 -0.0072303596 0.73100001 4294045930
-0.11251729 -0.007191157 0.727 4294177513
-0.11083054 -0.0071717286 0.72500002 4293914341
-0.10900046 -0.0071424004 0.722 4294044644
-0.10733095 -0.007122959 0.72000003 4294110693
-0.10596343 -0.0071232961 0.72000003 4294045157
-0.10459598 -0.0071236282 0.72000003 4293979364
-0.10322861 -0.0071239569 0.72000003 4294044898
-0.10186129 -0.0071242792 0.72000003 4294044898
-0.10035449 -0.0071147014 0.71899998 4293979105
-0.098989211 -0.0071150148 0.71899998 4293979105
-0.097623989 -0.0071153231 0.71899998 4293848035
-0.095991112 -0.0070958333 0.71700001 4293848035
-0.094629832 -0.0070961304 0.71700001 4293782240
-0.09326864 -0.0070964238 0.71700001 4293782240
-0.091907494 -0.0070967115 0.71700001 4293716701
-0.090546422 -0.0070969947 0.71700001 4293716701
-0.089185409 -0.0070972736 0.71700001 4293782494
-0.087824449 -0.0070975483 0.71700001 4293782494
-0.086463571 -0.007097817 0.71700001 4293848287
-0.085102752 -0.0070980815 0.71700001 4293782494
-0.083741985 -0.0070983423 0.71700001 4293716447
-0.082381286 -0.007098597 0.71700001 4293716447
-0.081020646 -0.0070988485 0.71700001 4293650654
-0.079660073 -0.0070990939 0.71700001 4293716447
-0.078190349 -0.0070894351 0.71600002 4293782494
-0.07683178 -0.0070896717 0.71600002 4293716701
-0.075473271 -0.007089904 0.71600002 4293716186
-0.074114829 -0.0070901327 0.71600002 4293913308
-0.072756439 -0.0070903553 0.71600002 4293782494
-0.071198657 -0.0070707663 0.71399999 4293782494
-0.069844179 -0.0070709819 0.71399999 4293848035
-0.068489738 -0.00707119 0.71399999 4293848035
-0.067135364 -0.0070713945 0.71399999 4293782755
-0.065781042 -0.0070715956 0.71399999 4293782755
-0.064426757 -0.0070717912 0.71399999 4293585633
-0.063072532 -0.0070719831 0.71399999 4293716962
-0.06171836 -0.0070721693 0.71399999 4293782755
-0.060364235 -0.0070723528 0.71399999 4293716962
-0.059010163 -0.0070725312 0.71399999 4293585629
-0.057817638 -0.0070925164 0.71600002 4293519836
-0.056459855 -0.0070926864 0.71600002 4293519065
-0.055102129 -0.0070928512 0.71600002 4293584858
-0.053819507 -0.0071029183 0.71700001 4293452759
-0.052606307 -0.0071228887 0.71899998 4293452759
-0.051243026 -0.0071230428 0.71899998 4293452759
-0.049879774 -0.0071231909 0.71899998 4293584345
-0.048516579 -0.0071233357 0.71899998 4293519065
-0.047153424 -0.0071234768 0.71899998 4293321943
-0.045853984 -0.0071335188 0.72000003 4292993491
-0.044489019 -0.0071336501 0.72000003 4292861905
-0.043124083 -0.0071337782 0.72000003 4292861392
-0.041875176 -0.0071537173 0.722 4292861392
-0.040506531 -0.007153837 0.722 4292861392
-0.039137911 -0.0071539511 0.722 4292861392
-0.037821636 -0.0071639707 0.72299999 4292795599
-0.036552023 -0.007183895 0.72500002 4292795599
-0.035177819 -0.007183997 0.72500002 4292664527
-0.033896897 -0.0072039138 0.727 4292664527
-0.032563694 -0.0072139162 0.72799999 4292795597
-0.031183898 -0.0072140065 0.72799999 4292729804
-0.029926943 -0.0072438195 0.73100001 4292795084
-0.028658653 -0.0072736312 0.73400003 4292729290
-0.027267564 -0.007273708 0.73400003 4292663756
-0.025876507 -0.0072737806 0.73400003 4292663756
-0.024485476 -0.007273851 0.73400003 4292598734
-0.023157382 -0.0072937342 0.736 4292532940
-0.021851311 -0.0073235249 0.73900002 4292466636
-0.02045087 -0.0073235813 0.73900002 4292466636
-0.019050449 -0.0073236339 0.73900002 4292269001
-0.017697815 -0.0073435022 0.741 4292400587
-0.016403586 -0.007393097 0.74599999 4292466634
-0.015150703 -0.0074724192 0.75400001 4292203205
-0.013721933 -0.0074724546 0.75400001 4292136899
-0.012293174 -0.0074724853 0.75400001 4292202692
-0.010878842 -0.0074824239 0.755 4292136901
-0.0094482172 -0.0074824453 0.755 4292663245
-0.13888311 -0.0059897723 0.75 4278190117
-0.13745719 -0.0059902566 0.75 4278190112
-0.13584998 -0.005982745 0.74900001 4286084195
-0.1344261 -0.0059832167 0.74900001 4294110941
-0.13246956 -0.0059597152 0.74599999 4294177248
-0.13034885 -0.0059282151 0.74199998 4293585110
-0.12876472 -0.0059206742 0.741 4293782240
-0.12701264 -0.0059051379 0.73900002 4294045411
-0.12543815 -0.0058975839 0.73799998 4294045411
-0.12369951 -0.0058820299 0.736 4293848033
-0.12196853 -0.0058664703 0.73400003 4294045411
-0.1204095 -0.0058588954 0.73299998 4294242791
-0.11901671 -0.0058593075 0.73299998 4294177252
-0.11762398 -0.0058597135 0.73299998 4294111203
-0.11591421 -0.005844126 0.73100001 4293914341
-0.11452544 -0.0058445213 0.73100001 4294046184
-0.11251766 -0.0058129276 0.727 4294111205
-0.1108309 -0.0057973177 0.72500002 4294045411
-0.10900082 -0.0057737031 0.722 4293979366
-0.1073313 -0.0057580788 0.72000003 4293979366
-0.10596377 -0.0057584406 0.72000003 4293847783
-0.10459632 -0.0057587987 0.72000003 4293781990
-0.10322895 -0.0057591521 0.72000003 4293848035
-0.10186164 -0.0057595018 0.72000003 4293979364
-0.10049441 -0.0057598436 0.72000003 4293848033
-0.099127226 -0.0057601817 0.72000003 4293716447
-0.097760104 -0.0057605146 0.72000003 4293848287
-0.096259184 -0.0057528405 0.71899998 4293848287
-0.094894104 -0.0057531628 0.71899998 4293716701
-0.093529083 -0.0057534794 0.71899998 4293650652
-0.092164159 -0.0057537919 0.71899998 4293716188
-0.09079928 -0.0057540992 0.71899998 4293584345
-0.089434475 -0.0057544019 0.71899998 4293913562
-0.088069707 -0.0057546995 0.71899998 4293913562
-0.086705036 -0.0057549919 0.71899998 4293913308
-0.08510302 -0.0057392688 0.71700001 4293847515
-0.083742253 -0.0057395515 0.71700001 4293847517
-0.082381554 -0.005739829 0.71700001 4293847517
-0.080907919 -0.0057320949 0.71600002 4293847517
-0.079549231 -0.0057323622 0.71600002 4293913310
-0.07819061 -0.0057326248 0.71600002 4293847515
-0.076832026 -0.0057328823 0.71600002 4293847515
-0.075473525 -0.0057331338 0.71600002 4293716186
-0.074115075 -0.005733382 0.71600002 4293847515
-0.072756663 -0.0057336246 0.71600002 4293847517
-0.071198888 -0.0057178452 0.71399999 4293913310
-0.069844395 -0.0057180771 0.71399999 4293716449
-0.068489961 -0.0057183048 0.71399999 4293584606
-0.06713558 -0.0057185288 0.71399999 4293716447
-0.065781243 -0.0057187462 0.71399999 4293782240
-0.064426973 -0.0057189595 0.71399999 4293716701
-0.063072726 -0.0057191686 0.71399999 4293584858
-0.061632115 -0.0057113622 0.713 4293650654
-0.06027988 -0.0057115615 0.713 4293650654
-0.059010338 -0.0057197665 0.71399999 4293650906
-0.057817817 -0.0057359799 0.71600002 4293585112
-0.056460042 -0.0057361657 0.71600002 4293585112
-0.055102304 -0.0057363464 0.71600002 4293650906
-0.053819679 -0.0057445341 0.71700001 4293452759
-0.052606475 -0.0057607312 0.71899998 4293452759
-0.051243179 -0.0057608974 0.71899998 4293518550
-0.049949314 -0.0057690749 0.72000003 4293518550
-0.048584212 -0.0057692332 0.72000003 4293256146
-0.04721915 -0.0057693869 0.72000003 4292927437
-0.045854136 -0.0057695364 0.72000003 4292861392
-0.044489153 -0.0057696807 0.72000003 4292729550
-0.043244004 -0.0057858489 0.722 4292926413
-0.041875303 -0.0057859835 0.722 4293057999
-0.040506653 -0.0057861153 0.722 4292992206
-0.039192233 -0.0057942565 0.72299999 4292992206
-0.037821747 -0.0057943785 0.72299999 4292926413
-0.036552135 -0.0058105248 0.72500002 4292729290
-0.035177931 -0.0058106384 0.72500002 4292729804
-0.033896994 -0.0058267759 0.727 4292795597
-0.032563791 -0.0058348952 0.72799999 4292795336
-0.031312495 -0.0058590393 0.73100001 4292795336
-0.030049855 -0.0058831815 0.73400003 4292795334
-0.028814917 -0.005915334 0.73799998 4292663747
-0.027416237 -0.0059154192 0.73799998 4292466634
-0.026017599 -0.0059155016 0.73799998 4292400841
-0.024618976 -0.0059155794 0.73799998 4292400841
-0.023251846 -0.0059236684 0.73900002 4292400841
-0.021851374 -0.0059237364 0.73900002 4292203978
-0.020533949 -0.0059478479 0.74199998 4292203978
-0.019179398 -0.0059639397 0.74400002 4292268999
-0.017841166 -0.0059880428 0.74699998 4292335048
-0.01657954 -0.0060442048 0.75400001 4292137414
-0.015150747 -0.0060442514 0.75400001 4291940036
-0.013740168 -0.0060523083 0.755 4292071108
-0.012309509 -0.0060523441 0.755 4292334281
-0.010907687 -0.0060684085 0.75700003 4292202953
-0.13782422 -0.0045801555 0.75199997 4278190080
-0.13603184 -0.0045684827 0.75 4285757783
-0.13460603 -0.0045689838 0.75 4294179287
-0.13300277 -0.004563387 0.74900001 4294307312
-0.13070066 -0.0045334101 0.74400002 4293518052
-0.1287652 -0.0045156092 0.741 4293584095
-0.12701307 -0.0045038927 0.73900002 4293847267
-0.1254386 -0.0044982634 0.73799998 4293913058
-0.12369996 -0.0044865315 0.736 4293847265
-0.12196898 -0.0044747922 0.73400003 4293782494
-0.12057421 -0.0044752373 0.73400003 4293782494
-0.11901712 -0.00446958 0.73299998 4293782494
-0.1176244 -0.0044700145 0.73299998 4293782494
-0.11623175 -0.0044704429 0.73299998 4293782240
-0.11483917 -0.0044708662 0.73299998 4293782240
-0.11251804 -0.0044346843 0.727 4293716701
-0.11113701 -0.0044350931 0.727 4293716701
-0.10915218 -0.0044110925 0.72299999 4293782242
-0.10733168 -0.0043931836 0.72000003 4293782242
-0.10596415 -0.0043935725 0.72000003 4293782242
-0.10459669 -0.0043939562 0.72000003 4293650656
-0.1032293 -0.0043943347 0.72000003 4293650142
-0.101862 -0.0043947087 0.72000003 4293715936
-0.10049475 -0.0043950761 0.72000003 4293650656
-0.099127568 -0.0043954384 0.72000003 4293650656
-0.097760446 -0.0043957951 0.72000003 4293716449
-0.096393406 -0.0043961471 0.72000003 4293650656
-0.095026419 -0.0043964935 0.72000003 4293321689
-0.093659505 -0.0043968344 0.72000003 4293519067
-0.092292666 -0.0043971706 0.72000003 4293584345
-0.0907996 -0.0043913941 0.71899998 4293584345
-0.089434765 -0.0043917187 0.71899998 4293584347
-0.088070028 -0.004392039 0.71899998 4293452761
-0.086705327 -0.0043923534 0.71899998 4293452759
-0.085340694 -0.004392663 0.71899998 4293518552
-0.083742544 -0.0043807481 0.71700001 4293584345
-0.082381845 -0.0043810462 0.71700001 4293584345
-0.080908194 -0.0043752296 0.71600002 4293584347
-0.079549506 -0.0043755164 0.71600002 4293518554
-0.078300074 -0.0043819104 0.71700001 4293518552
-0.076832294 -0.0043760766 0.71600002 4293584345
-0.075473785 -0.004376349 0.71600002 4293518550
-0.074115314 -0.0043766163 0.71600002 4293518550
-0.072756924 -0.004376879 0.71600002 4293584599
-0.071398579 -0.004377136 0.71600002 4293584599
-0.070040278 -0.0043773875 0.71600002 4293650138
-0.068682045 -0.0043776343 0.71600002 4293584345
-0.067323864 -0.0043778769 0.71600002 4293584345
-0.065965734 -0.0043781134 0.71600002 4293650138
-0.06442719 -0.0043661152 0.71399999 4293650138
-0.063072942 -0.004366341 0.71399999 4293452759
-0.061632324 -0.0043604467 0.713 4293386966
-0.060280088 -0.0043606623 0.713 4293452759
-0.059010539 -0.0043669892 0.71399999 4293452759
-0.057818007 -0.004379428 0.71600002 4293386966
-0.056539088 -0.0043857475 0.71700001 4293386966
-0.055179443 -0.004385944 0.71700001 4293255637
-0.054045055 -0.0044044885 0.72000003 4293123796
-0.052679811 -0.0044046757 0.72000003 4293255383
-0.051314626 -0.0044048582 0.72000003 4293321943
-0.049949478 -0.0044050366 0.72000003 4293124307
-0.048719328 -0.004417446 0.722 4292861390
-0.047350474 -0.0044176141 0.722 4292795597
-0.04598166 -0.0044177771 0.722 4292926415
-0.044612885 -0.0044179359 0.722 4292663243
-0.043304041 -0.0044242078 0.72299999 4292597448
-0.041933447 -0.0044243569 0.72299999 4292597448
-0.040675092 -0.0044367393 0.72500002 4292597702
-0.039409194 -0.0044491179 0.727 4292597702
-0.038031127 -0.004449252 0.727 4292663497
-0.036703505 -0.0044555017 0.72799999 4292531655
-0.035323605 -0.004455626 0.72799999 4292466116
-0.03403699 -0.0044679865 0.73000002 4292466116
-0.032698091 -0.0044742217 0.73100001 4292466114
-0.031398267 -0.0044865734 0.73299998 4292531907
-0.03013183 -0.0045050411 0.736 4292597702
-0.028815011 -0.0045173839 0.73799998 4292597702
-0.027453478 -0.0045236014 0.73900002 4292466634
-0.026052939 -0.0045236927 0.73900002 4292400841
-0.024652414 -0.0045237774 0.73900002 4292335561
-0.023314845 -0.0045361016 0.741 4292335561
-0.021910582 -0.004536178 0.741 4292203976
-0.020589361 -0.0045546135 0.74400002 4292203976
-0.019231012 -0.0045669242 0.74599999 4292203976
-0.017888991 -0.0045853513 0.74900001 4292006596
-0.016579593 -0.0046160175 0.75400001 4292005059
-0.015150792 -0.0046160687 0.75400001 4292005059
-0.013740207 -0.0046222373 0.755 4292005059
-0.012309547 -0.0046222783 0.755 4292268487
-0.010936536 -0.0046468033 0.759 4292006344
-0.13782477 -0.0031540664 0.75199997 4281228335
-0.13639511 -0.0031546056 0.75199997 4288320726
-0.13460654 -0.0031467471 0.75 4294967295
-0.13300326 -0.0031430766 0.74900001 4294967291
-0.13070117 -0.0031226107 0.74400002 4293189589
-0.129287 -0.0031231204 0.74400002 4293255644
-0.12787293 -0.0031236245 0.74400002 4293321693
-0.12645893 -0.0031241223 0.74400002 4293584093
-0.12403657 -0.0030994159 0.73799998 4293847265
-0.12230176 -0.0030914978 0.736 4293847517
-0.12057465 -0.0030835711 0.73400003 4293847517
-0.11917996 -0.0030840398 0.73400003 4293716701
-0.11778533 -0.0030845022 0.73400003 4293782494
-0.11639077 -0.0030849588 0.73400003 4293782494
-0.11483961 -0.0030812062 0.73299998 4293716701
-0.11298279 -0.0030690387 0.73000002 4293716447
-0.11113744 -0.0030568617 0.727 4293650654
-0.10945453 -0.0030488812 0.72500002 4293716701
-0.10733207 -0.0030282745 0.72000003 4293782494
-0.10596454 -0.0030286892 0.72000003 4293716184
-0.10459709 -0.0030290983 0.72000003 4293518804
-0.1032297 -0.0030295022 0.72000003 4293584093
-0.10186239 -0.0030298999 0.72000003 4293650142
-0.10049511 -0.0030302922 0.72000003 4293518813
-0.099127948 -0.0030306794 0.72000003 4293387484
-0.097760826 -0.003031061 0.72000003 4293387486
-0.096393757 -0.0030314368 0.72000003 4293518815
-0.095290735 -0.0030402283 0.722 4293387482
-0.09365987 -0.0030321721 0.72000003 4293387482
-0.092293017 -0.0030325314 0.72000003 4293321689
-0.090926215 -0.0030328853 0.72000003 4293190103
-0.08955951 -0.0030332343 0.72000003 4293255131
-0.088070355 -0.0030293637 0.71899998 4293255131
-0.086705655 -0.0030297001 0.71899998 4293255385
-0.085341029 -0.0030300324 0.71899998 4293518300
-0.083742864 -0.0030219292 0.71700001 4293584345
-0.08238215 -0.0030222491 0.71700001 4293584345
-0.081021488 -0.0030225632 0.71700001 4293386712
-0.079660907 -0.0030228724 0.71700001 4293189589
-0.078300357 -0.0030231755 0.71700001 4293386712
-0.076939888 -0.0030234742 0.71700001 4293584347
-0.075579472 -0.0030237671 0.71700001 4293518552
-0.074426144 -0.0030324899 0.71899998 4293518552
-0.073062032 -0.0030327723 0.71899998 4293518550
-0.071697995 -0.0030330499 0.71899998 4293584599
-0.070334002 -0.0030333218 0.71899998 4293584597
-0.068970077 -0.0030335886 0.71899998 4293650390
-0.067606196 -0.0030338501 0.71899998 4293584599
-0.066058114 -0.0030256663 0.71700001 4293584599
-0.064698122 -0.0030259159 0.71700001 4293584599
-0.063514866 -0.0030346015 0.71899998 4293452757
-0.061978318 -0.0030263998 0.71700001 4293386966
-0.060618483 -0.0030266331 0.71700001 4293386966
-0.059258703 -0.0030268622 0.71700001 4293059285
-0.057898972 -0.0030270852 0.71700001 4292993491
-0.056539286 -0.0030273031 0.71700001 4293124307
-0.055179652 -0.0030275157 0.71700001 4292927185
-0.054045241 -0.0030403913 0.72000003 4292861140
-0.052680004 -0.0030405938 0.72000003 4292926933
-0.051314812 -0.003040792 0.72000003 4292927185
-0.049949665 -0.003040984 0.72000003 4292861392
-0.048786983 -0.0030538421 0.72299999 4292663756
-0.047416221 -0.003054024 0.72299999 4292466634
-0.046045516 -0.0030542011 0.72299999 4292597963
-0.044674836 -0.0030543727 0.72299999 4292466634
-0.043423988 -0.0030629889 0.72500002 4292531659
-0.042049602 -0.0030631502 0.72500002 4292531659
-0.040787447 -0.0030717563 0.727 4292335048
-0.039463546 -0.0030761331 0.72799999 4292335048
-0.038083576 -0.0030762788 0.72799999 4292465864
-0.036703635 -0.0030764199 0.72799999 4292465864
-0.035420779 -0.0030850074 0.73000002 4292334533
-0.034083735 -0.0030893639 0.73100001 4292334533
-0.032787669 -0.0030979412 0.73299998 4292334533
-0.031441215 -0.0031022881 0.73400003 4292465862
-0.030131938 -0.0031108561 0.736 4292268487
-0.028854156 -0.0031236466 0.73900002 4292268487
-0.027453577 -0.0031237516 0.73900002 4292203207
-0.026123539 -0.0031323056 0.741 4292137414
-0.02471922 -0.0031323994 0.741 4292072389
-0.02331493 -0.0031324881 0.741 4292203976
-0.021940228 -0.003136799 0.74199998 4292138435
-0.020589435 -0.0031453324 0.74400002 4292138435
-0.019231081 -0.0031538606 0.74599999 4292137412
-0.017889053 -0.003166612 0.74900001 4291874497
-0.016579648 -0.0031878138 0.75400001 4292005313
-0.015170937 -0.0031920988 0.755 4291807934
-0.013776653 -0.0032006067 0.75700003 4292004800
-0.012342196 -0.003200653 0.75700003 4292596937
-0.010907753 -0.0032006938 0.75700003 4292335044
-0.13639563 -0.0017285295 0.75199997 4291939297
-0.13496605 -0.0017290928 0.75199997 4294967295
-0.13318139 -0.0017250498 0.75 4294967295
-0.13175574 -0.0017255992 0.75 4293058283
-0.12963507 -0.0017169367 0.74599999 4292927448
-0.12821718 -0.0017174709 0.74599999 4293256157
-0.12645943 -0.0017133938 0.74400002 4293452507
-0.12470935 -0.0017093072 0.74199998 4293452507
-0.1226346 -0.0017006035 0.73799998 4293452759
-0.12123222 -0.0017011084 0.73799998 4293518552
-0.11982991 -0.001701607 0.73799998 4293321943
-0.11842768 -0.0017021004 0.73799998 4293519065
-0.11702553 -0.0017025875 0.73799998 4293387482
-0.11499675 -0.0016938377 0.73400003 4293519067
-0.11313801 -0.0016873851 0.73100001 4293650654
-0.11129077 -0.001680923 0.72799999 4293584860
-0.10990788 -0.0016813799 0.72799999 4293190103
-0.10837601 -0.0016795209 0.727 4293321689
-0.10640647 -0.0016707222 0.72299999 4293518552
-0.10503332 -0.0016711586 0.72299999 4293518552
-0.10351688 -0.0016692772 0.722 4293386966
-0.10214573 -0.0016697015 0.722 4293518552
-0.10091425 -0.0016724331 0.72299999 4293518554
-0.099541374 -0.0016728461 0.72299999 4293386712
-0.098168537 -0.0016732537 0.72299999 4293255637
-0.09679579 -0.0016736556 0.72299999 4293452759
-0.095423102 -0.0016740513 0.72299999 4293387736
-0.09392041 -0.0016721255 0.722 4293321943
-0.092549749 -0.0016725095 0.722 4293059287
-0.090926588 -0.0016682536 0.72000003 4293059287
-0.089559861 -0.0016686248 0.72000003 4293124307
-0.088193201 -0.0016689906 0.72000003 4293190101
-0.08670599 -0.0016670317 0.71899998 4293058516
-0.085341364 -0.0016673856 0.71899998 4293255896
-0.083743185 -0.0016630944 0.71700001 4293387736
-0.082382478 -0.0016634358 0.71700001 4293321943
-0.081021816 -0.0016637713 0.71700001 4293123794
-0.079661213 -0.0016641013 0.71700001 4293123794
-0.078300677 -0.0016644255 0.71700001 4293255637
-0.0771548 -0.0016693876 0.71899998 4293255637
-0.075790592 -0.0016697014 0.71899998 4293189841
-0.074426427 -0.0016700096 0.71899998 4293255635
-0.07306233 -0.0016703121 0.71899998 4293057999
-0.071698271 -0.0016706088 0.71899998 4293189841
-0.070334285 -0.0016709 0.71899998 4293386964
-0.068970345 -0.0016711853 0.71899998 4293255635
-0.067606464 -0.001671465 0.71899998 4293189839
-0.066242628 -0.001671739 0.71899998 4293189839
-0.064969085 -0.0016743329 0.72000003 4293189587
-0.063603453 -0.001674596 0.72000003 4293189587
-0.062237889 -0.0016748535 0.72000003 4293123796
-0.060787812 -0.0016727785 0.71899998 4293123796
-0.059424233 -0.0016730243 0.71899998 4292861651
-0.058060709 -0.0016732647 0.71899998 4292927444
-0.056697216 -0.001673499 0.71899998 4292993491
-0.055333782 -0.0016737275 0.71899998 4292861905
-0.054045461 -0.0016762789 0.72000003 4292664529
-0.05282655 -0.0016811538 0.722 4292664529
-0.051457562 -0.0016813667 0.722 4292796112
-0.050088599 -0.0016815737 0.722 4292664527
-0.048922136 -0.0016887629 0.72500002 4292400839
-0.047547583 -0.0016889598 0.72500002 4292466632
-0.046300437 -0.00169381 0.727 4292466634
-0.044922177 -0.001693996 0.727 4292400841
-0.043543946 -0.0016941758 0.727 4292268999
-0.042165764 -0.0016943503 0.727 4292268999
-0.040843714 -0.0016968498 0.72799999 4292268739
-0.03957212 -0.0017016751 0.73000002 4292268739
-0.038188346 -0.0017018332 0.73000002 4292268737
-0.036804613 -0.0017019855 0.73000002 4292268737
-0.035469439 -0.0017044636 0.73100001 4292268737
-0.034083869 -0.0017046046 0.73100001 4292268737
-0.032832526 -0.0017117361 0.73400003 4292268739
-0.031527009 -0.0017165308 0.736 4292268739
-0.030213935 -0.0017213203 0.73799998 4292268739
-0.028854268 -0.0017237724 0.73900002 4292202946
-0.027527981 -0.0017285516 0.741 4292202946
-0.026123637 -0.0017286601 0.741 4292137153
-0.024752675 -0.0017310951 0.74199998 4292006594
-0.023346484 -0.0017311921 0.74199998 4292006594
-0.021999449 -0.0017359498 0.74400002 4292006594
-0.02064486 -0.0017407017 0.74599999 4292006594
-0.019308491 -0.0017477825 0.74900001 4291743425
-0.01796077 -0.0017548574 0.75199997 4291677632
-0.016689656 -0.0017712618 0.759 4291808448
-0.01525137 -0.0017713255 0.759 4291874497
-0.013776706 -0.0017667154 0.75700003 4292136388
-0.012342243 -0.0017667669 0.75700003 4292136388
-0.010907796 -0.0017668129 0.75700003 4291544510
-0.13210766 -0.00030419667 0.75199997 4293651435
-0.13033071 -0.00030396064 0.75 4293058264
-0.12873335 -0.00030412138 0.74900001 4293321693
-0.1267999 -0.00030346072 0.74599999 4293452507
-0.12504603 -0.00030319698 0.74400002 4293452507
-0.12363216 -0.00030374053 0.74400002 4293387482
-0.12139702 -0.00030223306 0.73900002 4293650654
-0.11999281 -0.00030276072 0.73900002 4293518552
-0.11858866 -0.00030328211 0.73900002 4293518552
-0.11639173 -0.00030174199 0.73400003 4293452507
-0.11499725 -0.00030224767 0.73400003 4293189591
-0.1131385 -0.00030150989 0.73100001 4293452761
-0.11129122 -0.00030076192 0.72799999 4293584347
-0.10990837 -0.00030124534 0.72799999 4293386716
-0.10837649 -0.00030130817 0.727 4293255131
-0.10699564 -0.00030177881 0.727 4293452759
-0.10561488 -0.00030224337 0.727 4293518552
-0.10394742 -0.00030186909 0.72500002 4293452759
-0.10257059 -0.00030232032 0.72500002 4293518552
-0.10119385 -0.00030276549 0.72500002 4293518550
-0.099817142 -0.00030320461 0.72500002 4293386964
-0.098168947 -0.00030280012 0.72299999 4293386966
-0.096796192 -0.00030322603 0.72299999 4293386966
-0.095423512 -0.00030364594 0.72299999 4293256148
-0.093920805 -0.00030363927 0.722 4293124561
-0.092550136 -0.00030404655 0.722 4293255637
-0.091179535 -0.00030444787 0.722 4293189587
-0.089809008 -0.00030484315 0.722 4293189839
-0.088438548 -0.00030523248 0.722 4293387218
-0.086826965 -0.00030476923 0.72000003 4293058001
-0.085460424 -0.00030514548 0.72000003 4292992208
-0.08397714 -0.00030509144 0.71899998 4293057999
-0.082612626 -0.00030545524 0.71899998 4293189841
-0.081248164 -0.00030581304 0.71899998 4293189839
-0.079883762 -0.00030616487 0.71899998 4292992460
-0.078519411 -0.00030651072 0.71899998 4293189839
-0.077155128 -0.00030685068 0.71899998 4293255633
-0.075790897 -0.00030718459 0.71899998 4293189839
-0.07442674 -0.00030751253 0.71899998 4293255633
-0.073164247 -0.00030826268 0.72000003 4293058003
-0.071798302 -0.00030857915 0.72000003 4292992210
-0.07043241 -0.00030888969 0.72000003 4293058001
-0.069066569 -0.00030919418 0.72000003 4293123794
-0.067700781 -0.00030949269 0.72000003 4293124048
-0.066335037 -0.00030978525 0.72000003 4293189841
-0.064969368 -0.00031007189 0.72000003 4293058001
-0.063603729 -0.00031035248 0.72000003 4292795086
-0.062238146 -0.00031062713 0.72000003 4292795347
-0.060872618 -0.00031089579 0.72000003 4292861140
-0.059507143 -0.00031115851 0.72000003 4292598736
-0.058141712 -0.00031141524 0.72000003 4292532942
-0.056776315 -0.00031166596 0.72000003 4292729804
-0.055410981 -0.00031191079 0.72000003 4292795597
-0.054045681 -0.00031214958 0.72000003 4292466634
-0.052899938 -0.00031368402 0.72299999 4292268999
-0.051529046 -0.00031391185 0.72299999 4292400841
-0.050158184 -0.00031413368 0.72299999 4292466634
-0.049057294 -0.00031608864 0.727 4292531909
-0.047678944 -0.00031629964 0.727 4292531909
-0.046364322 -0.00031694002 0.72799999 4292334531
-0.044984154 -0.0003171392 0.72799999 4292071358
-0.043604027 -0.00031733242 0.72799999 4292202692
-0.042223942 -0.00031751959 0.72799999 4292202692
-0.040843882 -0.0003177007 0.72799999 4292202944
-0.03962649 -0.00031918572 0.73100001 4292202944
-0.038240824 -0.00031935546 0.73100001 4292334012
-0.036855187 -0.0003195192 0.73100001 4292334012
-0.035469584 -0.00031967685 0.73100001 4292202942
-0.034084015 -0.00031982845 0.73100001 4292268991
-0.032832664 -0.00032128714 0.73400003 4292137153
-0.031527139 -0.00032230301 0.736 4292005311
-0.030214064 -0.00032331352 0.73799998 4292071106
-0.028932482 -0.00032475695 0.741 4292136899
-0.027565248 -0.00032531834 0.74199998 4292071358
-0.026159 -0.00032543537 0.74199998 4292071358
-0.024819501 -0.00032642367 0.74400002 4292006335
-0.02340951 -0.00032652871 0.74400002 4292006335
-0.02208825 -0.00032794449 0.74699998 4292006081
-0.02072797 -0.0003289158 0.74900001 4291874495
-0.01938591 -0.0003303207 0.75199997 4291874493
-0.018008614 -0.00033128064 0.75400001 4291545784
-0.016689727 -0.00033355312 0.759 4291808702
-0.015251435 -0.00033362253 0.759 4292335046
-0.013776763 -0.00033280635 0.75700003 4292006857
-0.012342295 -0.00033286301 0.75700003 4289046429
-0.01090784 -0.00033291342 0.75700003 4280040073
-0.12890579 0.0011176439 0.75 4293649848
-0.12680048 0.0011110966 0.74599999 4293387486
-0.1250466 0.0011075393 0.74400002 4293387486
-0.12363271 0.0011069669 0.74400002 4293322204
-0.1217261 0.0011019399 0.741 4293125082
-0.11999334 0.00109841 0.73900002 4293058514
-0.1185892 0.0010978607 0.73900002 4293190101
-0.11639226 0.0010898934 0.73400003 4293255383
-0.11499776 0.0010893604 0.73400003 4293058003
-0.113139 0.0010843836 0.73100001 4293058003
-0.11159749 0.0010823827 0.73000002 4293123796
-0.1102108 0.0010818715 0.73000002 4293123796
-0.10852604 0.0010784038 0.72799999 4293189589
-0.10714329 0.0010779065 0.72799999 4293255637
-0.10561535 0.0010759356 0.727 4293058001
-0.10423466 0.0010754516 0.727 4292992206
-0.10257106 0.0010720165 0.72500002 4293124048
-0.1011943 0.0010715465 0.72500002 4293255637
-0.099817589 0.0010710825 0.72500002 4293189587
-0.098440953 0.0010706249 0.72500002 4292927183
-0.097064398 0.0010701735 0.72500002 4292927183
-0.095687903 0.0010697285 0.72500002 4292926415
-0.094051316 0.0010663399 0.72299999 4292926415
-0.092678741 0.0010659085 0.72299999 4292926415
-0.091179952 0.0010640096 0.722 4292795086
-0.089809418 0.0010635915 0.722 4292729290
-0.08843895 0.0010631795 0.722 4292795084
-0.086827353 0.0010598297 0.72000003 4292926413
-0.085460812 0.0010594315 0.72000003 4292926413
-0.083977513 0.0010575684 0.71899998 4292926667
-0.082612991 0.0010571831 0.71899998 4292926667
-0.081248529 0.001056804 0.71899998 4292926415
-0.079884112 0.0010564311 0.71899998 4292926415
-0.078519769 0.0010560646 0.71899998 4292991695
-0.077262789 0.0010571727 0.72000003 4292991695
-0.075896665 0.0010568181 0.72000003 4292795084
-0.074530602 0.0010564697 0.72000003 4292992206
-0.073164582 0.0010561276 0.72000003 4292992206
-0.071798615 0.0010557917 0.72000003 4292926413
-0.07043273 0.0010554624 0.72000003 4292729290
-0.069066875 0.0010551391 0.72000003 4292795084
-0.067701086 0.0010548221 0.72000003 4292729288
-0.066335343 0.0010545115 0.72000003 4292795082
-0.065150119 0.0010571353 0.722 4292794832
-0.06378068 0.0010568362 0.722 4292794832
-0.062411308 0.0010565437 0.722 4292664277
-0.061041985 0.0010562573 0.722 4292466897
-0.059755355 0.0010574398 0.72299999 4292400841
-0.058303475 0.0010557035 0.722 4292335048
-0.056934286 0.001055436 0.722 4292334533
-0.055565145 0.0010551746 0.722 4292465862
-0.054421242 0.0010593033 0.72500002 4292466116
-0.053192846 0.0010619751 0.727 4292268737
-0.05181437 0.0010617314 0.727 4292268737
-0.050505292 0.0010629536 0.72799999 4292137151
-0.049124993 0.0010627222 0.72799999 4292136636
-0.04774474 0.0010624969 0.72799999 4292267965
-0.046364527 0.0010622782 0.72799999 4292071104
-0.045107946 0.0010649834 0.73000002 4292071104
-0.043724019 0.0010647768 0.73000002 4292136899
-0.04234013 0.0010645764 0.73000002 4292136899
-0.040956277 0.0010643826 0.73000002 4292071356
-0.039626665 0.0010656529 0.73100001 4292071356
-0.038240995 0.0010654716 0.73100001 4292071356
-0.036855355 0.0010652967 0.73100001 4292005563
-0.035469741 0.001065128 0.73100001 4292005563
-0.034084167 0.001064966 0.73100001 4292137149
-0.032832813 0.0010691801 0.73400003 4291874493
-0.031527281 0.001071943 0.736 4291874493
-0.030214196 0.0010747114 0.73799998 4292071358
-0.028932612 0.0010789419 0.741 4292005565
-0.027565371 0.0010802657 0.74199998 4292070843
-0.026229629 0.0010830518 0.74400002 4292070843
-0.024886327 0.0010858434 0.74599999 4292005311
-0.023472544 0.0010857303 0.74599999 4291808188
-0.022088349 0.0010870788 0.74699998 4291676859
-0.020728065 0.0010898887 0.74900001 4291676859
-0.019385995 0.0010941599 0.75199997 4291611838
-0.018008698 0.001096982 0.75400001 4291546045
-0.016689802 0.0011041745 0.759 4291414207
-0.015291691 0.0011070085 0.76099998 4292006344
-0.013849621 0.0011069396 0.76099998 4292137399
-0.012407565 0.0011068777 0.76099998 4282992428
-0.010965526 0.0011068223 0.76099998 4280882944
-0.1289064 0.0025398345 0.75 4292926581
-0.12697104 0.0025290588 0.74699998 4292795104
-0.12538332 0.0025250644 0.74599999 4292992740
-0.12396565 0.0025244621 0.74599999 4293058262
-0.12221949 0.0025170997 0.74400002 4292926933
-0.12080576 0.0025165121 0.74400002 4293058003
-0.11891071 0.002505786 0.741 4293255383
-0.11718566 0.0024984521 0.73900002 4293189587
-0.1149983 0.0024809877 0.73400003 4292926415
-0.11344908 0.0024770547 0.73299998 4292991956
-0.11175088 0.0024697508 0.73100001 4292991956
-0.11021132 0.0024658348 0.73000002 4293058001
-0.10882469 0.0024653033 0.73000002 4293189587
-0.10714379 0.0024580259 0.72799999 4293124048
-0.1057611 0.0024575091 0.72799999 4292926413
-0.10423514 0.0024536238 0.727 4292926415
-0.10285451 0.0024531214 0.727 4292992208
-0.10147392 0.0024526243 0.727 4292992210
-0.10009343 0.0024521344 0.727 4292992210
-0.098712996 0.002451651 0.727 4292861392
-0.097332627 0.002451174 0.727 4292927185
-0.095688358 0.002443962 0.72500002 4292861138
-0.094311923 0.0024434989 0.72500002 4292729552
-0.09293557 0.002443043 0.72500002 4292729040
-0.091306672 0.0024358553 0.72299999 4292729040
-0.089934237 0.0024354134 0.72299999 4292597198
-0.088439375 0.0024316104 0.722 4292597198
-0.08682777 0.0024244476 0.72000003 4292729288
-0.085461214 0.0024240273 0.72000003 4292992460
-0.083977923 0.0024202471 0.71899998 4292926665
-0.082613379 0.0024198401 0.71899998 4292926665
-0.08136192 0.0024228047 0.72000003 4292729036
-0.079995602 0.0024224105 0.72000003 4292597450
-0.07862936 0.0024220226 0.72000003 4292663245
-0.077263162 0.0024216417 0.72000003 4292794832
-0.075897031 0.0024212669 0.72000003 4292795084
-0.074530959 0.0024208985 0.72000003 4292992206
-0.073164932 0.0024205369 0.72000003 4292926665
-0.071798973 0.0024201819 0.72000003 4292992458
-0.070433065 0.0024198333 0.72000003 4292795084
-0.069259062 0.0024262122 0.722 4292729290
-0.067889474 0.002425876 0.722 4292729290
-0.066519924 0.0024255458 0.722 4292795084
-0.065150432 0.0024252227 0.722 4292466636
-0.063780993 0.0024249062 0.722 4292334794
-0.062411614 0.0024245966 0.722 4292203728
-0.061126817 0.0024276504 0.72299999 4292006092
-0.059755635 0.0024273533 0.72299999 4292137160
-0.058384504 0.0024270627 0.72299999 4292334796
-0.056934565 0.0024234224 0.722 4292268739
-0.055565409 0.0024231453 0.722 4292071104
-0.05457164 0.0024396542 0.727 4292202944
-0.0531931 0.0024393888 0.727 4292334531
-0.051814608 0.0024391301 0.727 4292334012
-0.050505538 0.0024422326 0.72799999 4292005048
-0.049125232 0.0024419869 0.72799999 4292070845
-0.047744971 0.0024417476 0.72799999 4292267967
-0.046492133 0.0024482228 0.73000002 4292005052
-0.045108166 0.0024479968 0.73000002 4291873209
-0.043724231 0.002447777 0.73000002 4292005563
-0.042340338 0.0024475642 0.73000002 4292005563
-0.041012574 0.0024507104 0.73100001 4292005563
-0.039626859 0.0024505109 0.73100001 4292005563
-0.038241178 0.0024503178 0.73100001 4292070843
-0.036855534 0.0024501318 0.73100001 4292005050
-0.035469916 0.0024499523 0.73100001 4292005563
-0.034084328 0.0024497795 0.73100001 4292071356
-0.032832973 0.0024596669 0.73400003 4291874493
-0.031527434 0.0024662085 0.736 4291808700
-0.030132463 0.0024660549 0.736 4291808702
-0.028971797 0.0024860108 0.74199998 4291808702
-0.027565503 0.0024858695 0.74199998 4291939516
-0.026300268 0.0024991357 0.74599999 4291939516
-0.024919808 0.0025023576 0.74699998 4291742141
-0.023504121 0.002502236 0.74699998 4291676348
-0.022177165 0.0025121705 0.75 4291545534
-0.020811185 0.0025187614 0.75199997 4291545534
-0.01943765 0.0025253589 0.75400001 4291480250
-0.018032668 0.0025286137 0.755 4291546043
-0.016689882 0.0025419218 0.759 4291479739
-0.015291766 0.0025485386 0.76099998 4291413946
-0.013849689 0.0025484646 0.76099998 4290494607
-0.012407628 0.0025483971 0.76099998 4278652160
-0.13068011 0.003973268 0.75199997 4288189753
-0.12925081 0.0039726119 0.75199997 4290689630
-0.12748161 0.0039613983 0.75 4292858558
-0.12538394 0.0039396328 0.74599999 4293713866
-0.12396625 0.0039390014 0.74599999 4292993239
-0.12254865 0.0039383778 0.74599999 4292861653
-0.12080636 0.0039272024 0.74400002 4292663758
-0.11907176 0.0039160387 0.74199998 4292861138
-0.11766198 0.003915438 0.74199998 4292991956
-0.11531222 0.0038831872 0.736 4292926163
-0.11360443 0.0038720544 0.73400003 4292926163
-0.11205719 0.0038662055 0.73299998 4292794834
-0.11036284 0.0038550915 0.73100001 4292729552
-0.10897431 0.003854533 0.73100001 4292861138
-0.1074387 0.0038487103 0.73000002 4292729550
-0.1060522 0.0038481664 0.73000002 4292597963
-0.10437902 0.0038370872 0.72799999 4292729036
-0.10299649 0.0038365587 0.72799999 4292729036
-0.10147444 0.0038307668 0.727 4292663243
-0.10009393 0.0038302517 0.727 4292729036
-0.098713487 0.0038297437 0.727 4292729552
-0.097333111 0.0038292427 0.727 4292795345
-0.095952801 0.0038287479 0.727 4292795858
-0.094312392 0.0038177283 0.72500002 4292598736
-0.092936024 0.0038172496 0.72500002 4292466893
-0.091307133 0.0038062471 0.72299999 4292466893
-0.089934684 0.0038057824 0.72299999 4292466634
-0.088562302 0.0038053242 0.72299999 4292400841
-0.087069392 0.0037996108 0.722 4292531655
-0.085461639 0.0037886428 0.72000003 4292597448
-0.084095135 0.003788207 0.72000003 4292597702
-0.082728706 0.0037877781 0.72000003 4292597702
-0.081362329 0.003787356 0.72000003 4292531657
-0.079996012 0.0037869411 0.72000003 4292531657
-0.078848161 0.0037970499 0.722 4292531655
-0.077478155 0.0037966471 0.722 4292531655
-0.076108232 0.0037962515 0.722 4292597189
-0.074531324 0.0037853473 0.72000003 4292597189
-0.073165305 0.0037849662 0.72000003 4292465601
-0.071998775 0.0037951046 0.722 4292597187
-0.07062906 0.0037947355 0.722 4292729288
-0.069259413 0.0037943742 0.722 4292597702
-0.06788981 0.0037940193 0.722 4292400841
-0.066520266 0.0037936715 0.722 4292335048
-0.065150768 0.0037933304 0.722 4292269001
-0.063781314 0.0037929961 0.722 4292203207
-0.062498365 0.0037979218 0.72299999 4292268487
-0.061127122 0.003797601 0.72299999 4292005059
-0.059755936 0.0037972871 0.72299999 4292004800
-0.058384795 0.00379698 0.72299999 4292070593
-0.057171423 0.0038071831 0.72500002 4292137412
-0.055796582 0.0038068895 0.72500002 4291874497
-0.054571908 0.0038171033 0.727 4291808440
-0.053266536 0.0038220724 0.72799999 4291939770
-0.051886145 0.0038217986 0.72799999 4291808440
-0.050505787 0.0038215318 0.72799999 4291676598
-0.049260445 0.0038317698 0.73000002 4291807416
-0.047876384 0.003831516 0.73000002 4291807416
-0.046492368 0.0038312699 0.73000002 4291676087
-0.045108393 0.0038310301 0.73000002 4291807416
-0.043724451 0.0038307977 0.73000002 4292070843
-0.042398553 0.0038358197 0.73100001 4291939256
-0.041012786 0.0038356003 0.73100001 4291676598
-0.039627064 0.0038353889 0.73100001 4291742391
-0.038241375 0.0038351847 0.73100001 4291939256
-0.036855724 0.0038349873 0.73100001 4291873463
-0.035470098 0.0038347971 0.73100001 4291676600
-0.034177758 0.0038451049 0.73299998 4291808186
-0.032788407 0.003844928 0.73299998 4291677884
-0.031399086 0.0038447585 0.73299998 4291677884
-0.030460147 0.0039022912 0.74400002 4291611836
-0.029050037 0.0039021336 0.74400002 4291546043
-0.027639946 0.0039019829 0.74400002 4291742908
-0.02633566 0.003917574 0.74699998 4291742908
-0.02491994 0.003917437 0.74699998 4291479739
-0.023567175 0.0039277957 0.74900001 4291479739
-0.022236422 0.0039434051 0.75199997 4291545532
-0.020866646 0.0039537768 0.75400001 4291479739
-0.019437753 0.0039536692 0.75400001 4291019701
-0.018080531 0.0039692982 0.75700003 4291217081
-0.01673395 0.0039901775 0.76099998 4291873211
-0.015311941 0.0039953343 0.76200002 4292399555
-0.013867964 0.0039952537 0.76200002 4290825418
-0.012423999 0.0039951811 0.76200002 4285298806
-0.13068078 0.0053993231 0.75199997 4284250200
-0.12925145 0.0053986362 0.75199997 4286289782
-0.12748227 0.0053836009 0.75 4291347856
-0.12555267 0.0053613991 0.74699998 4293124266
-0.12413308 0.0053607393 0.74699998 4292664529
-0.1225493 0.0053529097 0.74599999 4292795858
-0.12113174 0.0053522633 0.74599999 4292729300
-0.11907239 0.0053229299 0.74199998 4292795093
-0.11766257 0.0053223008 0.74199998 4292795347
-0.11578283 0.0053001638 0.73900002 4292795347
-0.11422411 0.0052923802 0.73799998 4292795345
-0.11251639 0.0052774353 0.736 4292729552
-0.11081636 0.0052625011 0.73400003 4292795599
-0.10942214 0.0052619143 0.73400003 4292861392
-0.10788078 0.0052541657 0.73299998 4292795086
-0.10619804 0.0052392585 0.73100001 4292663243
-0.10466633 0.0052315285 0.73000002 4292729036
-0.10299703 0.0052166414 0.72799999 4292663243
-0.10161454 0.0052160942 0.72799999 4292597198
-0.10009445 0.0052083898 0.727 4292597198
-0.098713994 0.0052078576 0.727 4292597450
-0.09733361 0.0052073314 0.727 4292597450
-0.095953308 0.0052068126 0.727 4292466632
-0.094312899 0.005191979 0.72500002 4292466632
-0.092936508 0.0051914756 0.72500002 4292466632
-0.091307603 0.0051766597 0.72299999 4292400839
-0.089935161 0.0051761721 0.72299999 4292597448
-0.088562779 0.0051756911 0.72299999 4292531655
-0.087069847 0.0051680598 0.722 4292268489
-0.085462093 0.0051532788 0.72000003 4292202440
-0.084095582 0.005152822 0.72000003 4292202692
-0.082729138 0.0051523708 0.72000003 4292268485
-0.081362762 0.0051519279 0.72000003 4292334535
-0.080218643 0.0051658005 0.722 4292531657
-0.078848571 0.0051653697 0.722 4292531909
-0.077478573 0.0051649469 0.722 4292531909
-0.076108634 0.0051645306 0.722 4292334531
-0.074738756 0.0051641217 0.722 4292268737
-0.073368922 0.0051637194 0.722 4292399553
-0.07199914 0.0051633245 0.722 4292597189
-0.070629433 0.0051629371 0.722 4292531905
-0.06925977 0.0051625567 0.722 4292531905
-0.067890167 0.0051621837 0.722 4292268489
-0.06661275 0.0051689669 0.72299999 4292070854
-0.065241352 0.005168607 0.72299999 4292136901
-0.063869998 0.005168255 0.72299999 4292136901
-0.062498704 0.0051679099 0.72299999 4292005563
-0.061296549 0.0051818672 0.72500002 4291742391
-0.060086854 0.0051958291 0.727 4291676863
-0.058708124 0.0051955041 0.727 4291676863
-0.057329442 0.0051951874 0.727 4291808188
-0.056027755 0.0052020219 0.72799999 4291808188
-0.054647267 0.0052017188 0.72799999 4291808440
-0.053413164 0.0052157119 0.73000002 4291939770
-0.052028969 0.0052154218 0.73000002 4291939254
-0.050644819 0.0052151405 0.73000002 4291807668
-0.049328186 0.0052220086 0.73100001 4291675835
-0.047942225 0.0052217408 0.73100001 4291610042
-0.046556305 0.0052214805 0.73100001 4291676089
-0.045170426 0.0052212272 0.73100001 4291807418
-0.043784585 0.0052209808 0.73100001 4291807414
-0.042398781 0.0052207429 0.73100001 4291807414
-0.041125223 0.0052347956 0.73299998 4291676600
-0.039735697 0.0052345702 0.73299998 4291676600
-0.038346205 0.0052343542 0.73299998 4291676602
-0.036956757 0.0052341451 0.73299998 4291676602
-0.034177944 0.0052337488 0.73299998 4291676602
-0.033772692 0.0053906399 0.755 4291742904
-0.029167334 0.0053329952 0.74699998 4291414455
-0.02775155 0.0053328346 0.74699998 4291545530
-0.026406314 0.0053469599 0.74900001 4291545530
-0.025020156 0.0053539537 0.75 4291479739
-0.023661697 0.005368093 0.75199997 4291413946
-0.022236543 0.0053679622 0.75199997 4291413944
-0.020866759 0.0053821155 0.75400001 4291479737
-0.01946364 0.0053891386 0.755 4291217083
-0.018128403 0.0054175826 0.759 4291151289
-0.016756034 0.005438894 0.76200002 4291546297
-0.015312027 0.0054388014 0.76200002 4293914845
-0.13068147 0.0068253991 0.75199997 4288646522
-0.12925217 0.0068246839 0.75199997 4291146913
-0.12782291 0.0068239751 0.75199997 4291940036
-0.12588951 0.006796055 0.74900001 4292663758
-0.12413374 0.0067772171 0.74699998 4292335059
-0.12271421 0.006776535 0.74699998 4292400852
-0.1211324 0.0067667901 0.74599999 4292400589
-0.11939397 0.0067479829 0.74400002 4292663504
-0.11766321 0.0067291879 0.74199998 4292729552
-0.11609681 0.00671947 0.741 4292729552
-0.11437953 0.0067006964 0.73900002 4292729550
-0.112517 0.0066728638 0.736 4292729550
-0.11081695 0.0066541103 0.73400003 4292664010
-0.10942272 0.006653497 0.73400003 4292664010
-0.10788136 0.0066438266 0.73299998 4292597961
-0.10648918 0.0066432292 0.73299998 4292597961
-0.10481029 0.0066245138 0.73100001 4292663243
-0.10342203 0.0066239317 0.73100001 4292663243
-0.10189426 0.0066142958 0.73000002 4292597452
-0.10050805 0.0066137291 0.73000002 4292531659
-0.099121891 0.0066131698 0.73000002 4292334535
-0.097468033 0.0065945 0.72799999 4292465864
-0.09595383 0.0065848995 0.727 4292268739
-0.094573587 0.0065843649 0.727 4292334533
-0.092937015 0.006565724 0.72500002 4292465862
-0.091308124 0.0065470939 0.72299999 4292465862
-0.089935645 0.0065465821 0.72299999 4292465864
-0.088808246 0.0065641878 0.72500002 4292465864
-0.087190919 0.0065455833 0.72299999 4292268739
-0.085699961 0.0065360428 0.722 4292202946
-0.084329642 0.0065355608 0.722 4292202944
-0.082959399 0.0065350882 0.722 4292268737
-0.081589207 0.0065346221 0.722 4292268737
-0.080219075 0.0065341629 0.722 4292202944
-0.078849025 0.0065337131 0.722 4292137153
-0.077479005 0.0065332679 0.722 4292137153
-0.076109059 0.006532833 0.722 4292267967
-0.074739158 0.0065324027 0.722 4292333760
-0.073369332 0.0065319818 0.722 4292267965
-0.07199955 0.0065315673 0.722 4292267965
-0.070629828 0.0065311599 0.722 4292267965
-0.069356091 0.0065398072 0.72299999 4292267965
-0.067984581 0.0065394146 0.72299999 4292136388
-0.066797383 0.0065571181 0.72500002 4292136388
-0.065422185 0.0065567396 0.72500002 4292071106
-0.064047039 0.0065563689 0.72500002 4291939520
-0.062844828 0.0065740915 0.727 4291545784
-0.061465986 0.0065737348 0.727 4291545784
-0.060169842 0.0065824278 0.72799999 4291676863
-0.058789212 0.0065820855 0.72799999 4291413692
-0.057408616 0.0065817512 0.72799999 4291544249
-0.056181997 0.0065995054 0.73000002 4291544249
-0.054797713 0.006599186 0.73000002 4291544501
-0.053486627 0.0066079125 0.73100001 4291610294
-0.052100535 0.0066076075 0.73100001 4291610292
-0.050714482 0.0066073099 0.73100001 4291610292
-0.049328469 0.0066070207 0.73100001 4291610294
-0.047942501 0.0066067404 0.73100001 4291544501
-0.046556566 0.0066064643 0.73100001 4291544247
-0.045170676 0.0066061975 0.73100001 4291478453
-0.043784831 0.0066059395 0.73100001 4291478703
-0.042515017 0.0066237603 0.73299998 4291676339
-0.041181564 0.0066325548 0.73400003 4291610805
-0.039790135 0.0066323173 0.73400003 4291610805
-0.038398743 0.0066320891 0.73400003 4291479737
-0.037007388 0.0066318684 0.73400003 4291479737
-0.035616066 0.0066316552 0.73400003 4291479739
-0.032341853 0.0068207807 0.755 4291413944
-0.030869901 0.0068115592 0.75400001 4291413942
-0.029440826 0.0068113809 0.75400001 4291413942
-0.027937468 0.0067931428 0.75199997 4291413946
-0.02651223 0.0067929798 0.75199997 4291347897
-0.025087019 0.0067928266 0.75199997 4291478715
-0.023724766 0.0068107466 0.75400001 4291347385
-0.022325382 0.0068196403 0.755 4291216310
-0.020894557 0.0068195094 0.755 4291413946
-0.019463751 0.006819386 0.755 4291283402
-0.018032972 0.0068192738 0.755 4290493887
-0.13068223 0.0082515003 0.75199997 4294967295
-0.12925288 0.0082507562 0.75199997 4294967295
-0.12782364 0.0082500186 0.75199997 4294967295
-0.1260583 0.0082273483 0.75 4294967295
-0.1244668 0.0082156584 0.74900001 4294573300
-0.12271491 0.0081930095 0.74699998 4291547079
-0.12113308 0.0081813401 0.74599999 4291283902
-0.11971559 0.0081806444 0.74599999 4292007882
-0.11798105 0.0081580263 0.74400002 4292662991
-0.11625415 0.0081354203 0.74199998 4292729040
-0.11468972 0.0081237881 0.741 4292664010
-0.11251765 0.0080683148 0.736 4292664010
-0.1108176 0.0080457442 0.73400003 4292598215
-0.10942333 0.0080451043 0.73400003 4292598215
-0.10788198 0.0080335112 0.73299998 4292663497
-0.10648978 0.0080328872 0.73299998 4292597448
-0.10509764 0.0080322707 0.73299998 4292531659
-0.10370558 0.0080316616 0.73299998 4292531659
-0.10203443 0.0080091478 0.73100001 4292531657
-0.10064632 0.0080085555 0.73100001 4292465864
-0.099258237 0.0080079697 0.73100001 4292334533
-0.097870246 0.0080073923 0.73100001 4292465862
-0.096086375 0.0079739634 0.72799999 4292268739
-0.094574131 0.0079624513 0.727 4292202946
