# .PCD v0.7 - Point Cloud Data file format
VERSION 0.7
FIELDS x y z rgba
SIZE 4 4 4 4
TYPE F F F U
COUNT 1 1 1 1
WIDTH 1081
HEIGHT 1
VIEWPOINT 0 0 0 1 0 0 0
POINTS 1081
DATA ascii
-0.18713273 0.097542629 0.84500003 4291210153
-0.18552402 0.097539827 0.84500003 4294306297
-0.1843507 0.097767882 0.847 4291477198
-0.13027668 0.094688706 0.82099998 4291277749
-0.12871608 0.094686441 0.82099998 4291474871
-0.12684582 0.094453543 0.81900001 4290817198
-0.12498319 0.094220661 0.81699997 4290093218
-0.12343045 0.09421847 0.81699997 4289372308
-0.12157939 0.093985647 0.815 4291148718
-0.11944147 0.093522228 0.81099999 4291806914
-0.11760956 0.09328948 0.80900002 4291477950
-0.1160723 0.093287379 0.80900002 4290557881
-0.11453509 0.093285307 0.80900002 4289373606
-0.10992508 0.090746492 0.787 4289898667
-0.10842982 0.09074451 0.787 4289964460
-0.1069346 0.090742558 0.787 4289503911
-0.10610936 0.091317117 0.792 4288253845
-0.085266061 0.091522604 0.79400003 4288909458
-0.083758593 0.091520987 0.79400003 4289107609
-0.082043968 0.09128885 0.792 4288712851
-0.080540419 0.091287293 0.792 4288188040
-0.079436064 0.091746777 0.796 4288188040
-0.077925019 0.091745242 0.796 4288187786
-0.076414019 0.091743745 0.796 4288056200
-0.075091295 0.091972776 0.79799998 4288187018
-0.073576599 0.091971308 0.79799998 4288187018
-0.072061971 0.091969885 0.79799998 4288448394
-0.070724204 0.092198975 0.80000001 4288448394
-0.06920588 0.09219759 0.80000001 4287989644
-0.067518383 0.091965728 0.79799998 4287989644
-0.066003971 0.091964401 0.79799998 4288187788
-0.064651228 0.092193589 0.80000001 4288582546
-0.063133106 0.0921923 0.80000001 4288582798
-0.061846092 0.092536762 0.80299997 4288911507
-0.06032237 0.092535518 0.80299997 4288977302
-0.058798697 0.092534304 0.80299997 4287266684
-0.057417728 0.092763603 0.80500001 4286937192
-0.055890337 0.09276244 0.80500001 4287068521
-0.054363005 0.092761315 0.80500001 4286675581
-0.0481342 0.0925266 0.80299997 4289108892
-0.032697536 0.091941841 0.79799998 4288715679
-0.028086483 0.09170936 0.796 4288517533
-0.026576836 0.09170875 0.796 4288648087
0.00058702624 0.090665512 0.787 4292661195
0.0020793313 0.09066543 0.787 4293319124
0.0035625566 0.090434991 0.78500003 4293518302
0.0050381934 0.090204537 0.78299999 4293978853
0.006522906 0.090204544 0.78299999 4294308336
0.007987164 0.089974172 0.78100002 4294308336
0.0094680833 0.089974232 0.78100002 4294242543
0.010934984 0.089859106 0.77999997 4292729048
0.012414009 0.089859217 0.77999997 4291084227
0.013893045 0.089859374 0.77999997 4290557883
0.015372078 0.08985953 0.77999997 4286814871
0.016807914 0.08962933 0.778 4282735705
0.01828317 0.089629553 0.778 4278191396
0.019809222 0.089860201 0.77999997 4278190105
0.021288289 0.089860484 0.77999997 4278190080
0.022767363 0.089860804 0.77999997 4279112467
0.024184277 0.089630723 0.778 4281408364
0.025593618 0.089400671 0.77600002 4279697745
0.027065145 0.089401066 0.77600002 4278452992
0.028536681 0.089401476 0.77600002 4280097797
0.029930903 0.089171514 0.77399999 4280559173
0.03139868 0.089171976 0.77399999 4280427331
0.032866471 0.089172475 0.77399999 4279639836
0.034289919 0.089057803 0.773 4278190080
0.035755854 0.08905834 0.773 4281139968
0.037221808 0.089058921 0.773 4293311654
0.038687788 0.089059524 0.773 4293978590
0.040205725 0.089175358 0.77399999 4294966513
0.041673645 0.089176029 0.77399999 4294307062
-0.22054724 0.1004949 0.85600001 4294967295
-0.21891646 0.10049196 0.85600001 4294967295
-0.21677801 0.10025421 0.85399997 4294967295
-0.21515109 0.10025125 0.85399997 4294967295
-0.21352419 0.10024831 0.85399997 4294306047
-0.20629017 0.099884458 0.85100001 4286739139
-0.20418827 0.099646784 0.84899998 4285818037
-0.2025713 0.099643894 0.84899998 4282205781
-0.20095438 0.099640988 0.84899998 4278190089
-0.19886793 0.099403366 0.847 4278190080
-0.19725496 0.099400468 0.847 4278190080
-0.19564202 0.099397607 0.847 4278190080
-0.19357103 0.09916003 0.84500003 4278190080
-0.19196209 0.099157184 0.84500003 4278190080
-0.1899026 0.098919638 0.84299999 4278190080
-0.18829758 0.098916806 0.84299999 4278190080
-0.18713552 0.099148646 0.84500003 4291215549
-0.1855268 0.099145815 0.84500003 4294570222
-0.13470028 0.097190879 0.829 4290227105
-0.13248198 0.096719585 0.82499999 4290621863
-0.12996159 0.096013874 0.81900001 4291211700
-0.12840478 0.096011579 0.81900001 4291277749
-0.12653829 0.095774874 0.81699997 4291541428
-0.12498543 0.095772617 0.81699997 4291607221
-0.12313048 0.095535956 0.815 4291740606
-0.12128322 0.095299326 0.81300002 4292201157
-0.11914907 0.0948283 0.80900002 4292070341
-0.11732095 0.094591729 0.80699998 4291543997
-0.11578745 0.094589613 0.80699998 4291017403
-0.11425401 0.094587527 0.80699998 4289635750
-0.11020643 0.092475727 0.78899997 4289503398
-0.10870735 0.092473723 0.78899997 4289569191
-0.10788772 0.093057752 0.79400003 4289634214
-0.1061113 0.092821375 0.792 4289765800
-0.1046067 0.092819415 0.792 4287990948
-0.086775281 0.093032084 0.79400003 4287923599
-0.0852677 0.093030401 0.79400003 4288844701
-0.083760194 0.093028761 0.79400003 4289041562
-0.082252756 0.09302716 0.79400003 4288778390
-0.080745362 0.093025573 0.79400003 4288384649
-0.079238027 0.093023993 0.79400003 4288055941
-0.077730745 0.093022458 0.79400003 4288383368
-0.076415516 0.093255244 0.796 4288383368
-0.074904561 0.093253747 0.796 4288382855
-0.073393643 0.093252279 0.796 4288448648
-0.072063401 0.093485132 0.79799998 4288579214
-0.070371985 0.093249425 0.796 4288645007
-0.068688214 0.093013741 0.79400003 4288252559
-0.067181304 0.09301237 0.79400003 4288450195
-0.065509021 0.092776746 0.792 4288384911
-0.064006008 0.092775442 0.792 4288450960
-0.062818713 0.093242705 0.796 4288845450
-0.061616283 0.093709983 0.80000001 4288911500
-0.060098227 0.093708746 0.80000001 4288583296
-0.058580227 0.093707539 0.80000001 4286017368
-0.057204917 0.093940601 0.80199999 4285951590
-0.055752624 0.094056569 0.80299997 4286741105
-0.054229066 0.094055429 0.80299997 4287004797
-0.032616317 0.093222558 0.796 4288189335
-0.00090310909 0.091925383 0.78500003 4292662743
0.00058394537 0.091691077 0.78299999 4291806916
0.002068694 0.09169098 0.78299999 4288122508
0.0035443623 0.091456734 0.78100002 4287466109
0.0050188778 0.091339596 0.77999997 4287531902
0.0064979298 0.091339603 0.77999997 4286149768
0.0079769799 0.091339625 0.77999997 4283978342
0.009431785 0.091105476 0.778 4282201924
0.010907046 0.091105565 0.778 4279569948
0.012382308 0.091105692 0.778 4279240972
0.013857575 0.091105826 0.778 4280162074
0.015332847 0.091106005 0.778 4280231464
0.016764916 0.090871982 0.77600002 4279244569
0.018236406 0.090872221 0.77600002 4279444510
0.019707903 0.090872467 0.77600002 4286944912
0.021179417 0.090872757 0.77600002 4292992680
0.022650929 0.090873063 0.77600002 4294308797
0.024060287 0.090639196 0.77399999 4293519336
0.025528036 0.090639561 0.77399999 4286281849
0.026995791 0.090639941 0.77399999 4279444258
0.028426796 0.090523265 0.773 4281747013
0.02989269 0.090523712 0.773 4283715186
0.0313586 0.090524189 0.773 4283780979
0.032824516 0.090524673 0.773 4282338862
0.034290463 0.09052521 0.773 4278190080
0.035663906 0.090291552 0.77100003 4279566355
0.037126102 0.090292148 0.77100003 4289104804
0.038688406 0.090526953 0.773 4292989117
-0.22003494 0.10188375 0.85399997 4294967295
-0.21277709 0.10151401 0.85100001 4291942881
-0.211156 0.10151107 0.85100001 4291087573
-0.20742536 0.10126661 0.84899998 4286424712
-0.20532341 0.10102512 0.847 4280505473
-0.20322916 0.10078365 0.84500003 4278193466
-0.20114259 0.1005422 0.84299999 4278190080
-0.19906372 0.10030077 0.84100002 4278190080
-0.19746207 0.10029788 0.84100002 4278190080
-0.19586052 0.10029498 0.84100002 4278190080
-0.194259 0.10029209 0.84100002 4278190086
-0.19219942 0.10005073 0.83899999 4278913817
-0.19060184 0.10004786 0.83899999 4279307310
-0.18900436 0.10004501 0.83899999 4278190090
-0.18740693 0.10004216 0.83899999 4278190080
-0.18625252 0.1002778 0.84100002 4291676100
-0.18465143 0.10027497 0.84100002 4294964991
-0.13216314 0.09804865 0.82300001 4290556586
-0.12996387 0.097569771 0.81900001 4291081399
-0.12809348 0.097329199 0.81699997 4291936708
-0.12654054 0.097326927 0.81699997 4292133569
-0.12468169 0.097086407 0.815 4292594120
-0.12283055 0.09684594 0.81300002 4292004548
-0.12098703 0.09660548 0.81099999 4291938754
-0.11885663 0.096126825 0.80699998 4292005063
-0.11703231 0.095886454 0.80500001 4291544512
-0.11521561 0.095646098 0.80299997 4291214782
-0.11354819 0.095524885 0.80199999 4289767336
-0.11118623 0.094808176 0.796 4289568419
-0.10939825 0.094567925 0.79400003 4289568419
-0.10788971 0.094565921 0.79400003 4289830310
-0.10611327 0.094325714 0.792 4289896103
-0.10460866 0.094323747 0.792 4289108900
-0.10310412 0.094321795 0.792 4287661453
-0.088506982 0.094779812 0.796 4288382586
-0.086776957 0.09453997 0.79400003 4288909712
-0.085269369 0.094538294 0.79400003 4288909712
-0.083761834 0.09453664 0.79400003 4288713110
-0.082254358 0.094535008 0.79400003 4288647317
-0.080746941 0.094533399 0.79400003 4288318856
-0.079239592 0.094531819 0.79400003 4288253063
-0.07773228 0.094530262 0.79400003 4288383368
-0.076417036 0.09476684 0.796 4288383368
-0.07452964 0.094289124 0.792 4288579464
-0.073026292 0.094287641 0.792 4288645257
-0.071523003 0.094286188 0.792 4288645257
-0.070019759 0.094284751 0.792 4288711050
-0.068689592 0.094521448 0.79400003 4288514954
-0.06718266 0.09452007 0.79400003 4288646541
-0.06551034 0.09428063 0.792 4288517005
-0.064007305 0.094279312 0.792 4288517005
-0.062820002 0.094754174 0.796 4288977043
-0.061617542 0.095229022 0.80000001 4288779407
-0.060099479 0.095227778 0.80000001 4287531137
-0.05858143 0.095226541 0.80000001 4285952105
-0.057206102 0.095463395 0.80199999 4285623394
-0.00089748378 0.092820629 0.77999997 4292466647
0.00058160949 0.092820518 0.77999997 4291347395
0.0020554138 0.092582427 0.778 4284505179
0.0035307065 0.092582382 0.778 4283779362
0.0050059953 0.092582345 0.778 4281542400
0.0064646224 0.092344344 0.77600002 4280951349
0.0079361172 0.092344381 0.77600002 4278846229
0.0094076116 0.092344448 0.77600002 4278780171
0.010879108 0.092344522 0.77600002 4279372051
0.012350606 0.092344634 0.77600002 4280294173
0.01382211 0.092344783 0.77600002 4280754724
0.015293615 0.092344947 0.77600002 4280427042
0.016721917 0.092107147 0.77399999 4279637526
0.018189646 0.09210737 0.77399999 4280229134
0.019657381 0.092107639 0.77399999 4291084979
0.021125123 0.092107907 0.77399999 4293256159
0.022563687 0.091989227 0.773 4294967034
0.023967382 0.091751553 0.77100003 4294244095
0.025429467 0.091751926 0.77100003 4288717489
0.026891565 0.091752313 0.77100003 4285162843
0.028353672 0.091752738 0.77100003 4287794307
0.029815808 0.091753185 0.77100003 4289109442
0.031277947 0.091753662 0.77100003 4287925425
0.032740109 0.091754176 0.77100003 4281817967
0.034113564 0.091516688 0.76899999 4278191385
0.035571966 0.091517247 0.76899999 4279828480
0.037030388 0.091517828 0.76899999 4286141264
0.038488831 0.091518447 0.76899999 4290949018
0.03994729 0.091519073 0.76899999 4294965475
0.041405778 0.091519743 0.76899999 4294900989
-0.2241292 0.1031528 0.85100001 4294967295
-0.2219848 0.1029074 0.84899998 4294505710
-0.2198481 0.102662 0.847 4290755509
-0.21823436 0.10265905 0.847 4286149818
-0.21662065 0.10265607 0.847 4285623474
-0.21551469 0.1028955 0.84899998 4280891968
-0.21339346 0.10265014 0.847 4278190080
-0.21177991 0.10264718 0.847 4280230962
-0.21016644 0.10264421 0.847 4280033327
-0.20855302 0.10264125 0.847 4287139123
-0.20645103 0.10239594 0.84500003 4288586569
-0.20435669 0.10215063 0.84299999 4287007403
-0.20227005 0.10190535 0.84100002 4281085776
-0.20066829 0.10190243 0.84100002 4278193676
-0.19859321 0.10165717 0.83899999 4278194447
-0.19699536 0.10165426 0.83899999 4281214234
-0.19539763 0.10165136 0.83899999 4283911491
-0.19379991 0.10164846 0.83899999 4285753710
-0.19174413 0.10140328 0.83700001 4286872192
-0.19015037 0.10140039 0.83700001 4281615986
-0.18855666 0.10139751 0.83700001 4278190114
-0.18696305 0.10139466 0.83700001 4278190080
-0.18536948 0.1013918 0.83700001 4292792013
-0.18421513 0.10163122 0.83899999 4294965749
-0.13216549 0.099612236 0.82300001 4290556590
-0.12996621 0.09912575 0.81900001 4291015865
-0.12809579 0.098881356 0.81699997 4292200396
-0.12623304 0.098637 0.815 4292331716
-0.12437797 0.098392673 0.81300002 4292397509
-0.12253059 0.098148391 0.81099999 4292069568
-0.12069087 0.097904116 0.80900002 4291609017
-0.11885884 0.097659886 0.80699998 4291609022
-0.11703447 0.097415686 0.80500001 4291806401
-0.11521775 0.097171508 0.80299997 4291345600
-0.11326712 0.096806362 0.80000001 4290029740
-0.11118829 0.096320249 0.796 4289700007
-0.10940032 0.096076183 0.79400003 4289371043
-0.10789172 0.096074142 0.79400003 4289568419
-0.10611524 0.09583012 0.792 4289568419
-0.10434647 0.095586151 0.79000002 4289175197
-0.10284571 0.095584199 0.79000002 4289307039
-0.10134502 0.095582247 0.79000002 4288452003
-0.10009713 0.095822297 0.792 4287267729
-0.088286333 0.096049666 0.79400003 4289304970
-0.086778648 0.096047945 0.79400003 4288778894
-0.085271046 0.096046254 0.79400003 4288581515
-0.08376348 0.096044578 0.79400003 4288317841
-0.082255989 0.096042931 0.79400003 4288252048
-0.080748543 0.096041299 0.79400003 4287989892
-0.079241164 0.096039712 0.79400003 4288187270
-0.077733845 0.09603814 0.79400003 4288448907
-0.076034546 0.095794685 0.792 4288383114
-0.074531138 0.095793173 0.792 4288514704
-0.073027767 0.095791675 0.792 4288975255
-0.071524456 0.095790207 0.792 4288976016
-0.070021175 0.095788755 0.792 4289173652
-0.068517968 0.095787361 0.792 4288977293
-0.067184031 0.096027836 0.79400003 4288779657
-0.065677129 0.09602648 0.79400003 4288976522
-0.064170256 0.096025132 0.79400003 4289108109
-0.062821284 0.096265689 0.796 4288516492
-0.061618831 0.096748151 0.80000001 4286805617
-0.060100712 0.096746862 0.80000001 4286411643
-0.05858266 0.096745633 0.80000001 4286411643
-0.057064641 0.096744411 0.80000001 4286676344
-0.0053555374 0.094664685 0.78299999 4290558135
-0.0038608201 0.094422691 0.78100002 4291545030
-0.0023706465 0.09405981 0.778 4292137162
-0.00089531118 0.094059683 0.778 4292597713
0.00057852722 0.093817756 0.77600002 4291939788
0.0020500589 0.093817659 0.77600002 4284175957
0.0035215872 0.093817614 0.77600002 4278193408
0.0049931137 0.093817599 0.77600002 4278190080
0.0064646364 0.093817584 0.77600002 4278190346
0.0079361601 0.093817621 0.77600002 4278851617
0.0093834372 0.093575872 0.77399999 4280163870
0.010851168 0.093575954 0.77399999 4280558628
0.012318903 0.093576081 0.77399999 4280557093
0.013786641 0.093576208 0.77399999 4279635991
0.015254383 0.093576387 0.77399999 4278977045
0.016722133 0.093576588 0.77399999 4279700769
0.018189888 0.093576819 0.77399999 4280880975
0.019632252 0.093456171 0.773 4291802612
0.021043541 0.093214668 0.77100003 4294109156
0.022505632 0.093214974 0.77100003 4294967295
0.023905559 0.0929735 0.76899999 4294967295
0.025363881 0.092973873 0.76899999 4294702840
0.026822213 0.092974268 0.76899999 4294768887
0.028280566 0.0929747 0.76899999 4294967295
0.029738922 0.09297514 0.76899999 4294967295
0.0311973 0.092975624 0.76899999 4292532700
0.032655697 0.092976138 0.76899999 4289508247
0.03402539 0.092734873 0.76700002 4278190080
0.035480019 0.092735425 0.76700002 4278190080
0.036934681 0.092736013 0.76700002 4281281072
0.038389355 0.092736624 0.76700002 4286934403
0.039844055 0.092737272 0.76700002 4294964991
0.041298777 0.09273795 0.76700002 4294967034
0.042753521 0.092738651 0.76700002 4294175462
-0.22360542 0.10452469 0.84899998 4294967295
-0.22146483 0.10427549 0.847 4293389535
-0.21985108 0.10427249 0.847 4283652171
-0.21823734 0.10426951 0.847 4282464004
-0.21662366 0.10426651 0.847 4281806080
-0.21500997 0.10426353 0.847 4278190100
-0.21339642 0.10426053 0.847 4280232007
-0.21128282 0.10401137 0.84500003 4285091710
-0.20967315 0.10400839 0.84500003 4286473363
-0.20806354 0.10400543 0.84500003 4291207336
-0.20547669 0.10351012 0.84100002 4293575884
-0.2038748 0.10350715 0.84100002 4292333792
-0.202273 0.10350421 0.84100002 4282399049
-0.200194 0.10325512 0.83899999 4278190080
-0.19859613 0.10325219 0.83899999 4278585344
-0.19699831 0.10324926 0.83899999 4282786879
-0.19493476 0.10300022 0.83700001 4290353074
-0.19334085 0.1029973 0.83700001 4290097132
-0.19128884 0.10274828 0.83499998 4288978908
-0.18969887 0.10274539 0.83499998 4284380046
-0.18765841 0.1024964 0.833 4278190092
-0.18607239 0.10249353 0.833 4278779904
-0.18448646 0.10249068 0.833 4293841873
-0.18290058 0.10248782 0.833 4294965759
-0.18218544 0.1029771 0.83700001 4289503407
-0.1315255 0.10068417 0.81900001 4290687666
-0.12933379 0.10019007 0.815 4290818743
-0.12747097 0.099941887 0.81300002 4291936967
-0.12592556 0.099939562 0.81300002 4291872707
-0.1237683 0.099445574 0.80900002 4291872707
-0.12223066 0.099443316 0.80900002 4291938503
-0.12039472 0.099195234 0.80699998 4291675587
-0.11856644 0.09894719 0.80500001 4291477438
-0.11674584 0.098699167 0.80299997 4291674561
-0.11507641 0.098574087 0.80199999 4291214530
-0.11326922 0.098326124 0.80000001 4290161842
-0.11119039 0.097832404 0.796 4290160556
-0.10940236 0.097584523 0.79400003 4289371297
-0.10789376 0.097582452 0.79400003 4289371810
-0.10611726 0.097334623 0.792 4289174431
-0.10434847 0.097086839 0.79000002 4289109403
-0.10284767 0.097084843 0.79000002 4289240990
-0.10160353 0.09732867 0.792 4289174945
-0.10009905 0.097326711 0.792 4288780443
-0.091303654 0.0975613 0.79400003 4288778124
-0.089795828 0.097559519 0.79400003 4288712847
-0.088288076 0.097557753 0.79400003 4288778896
-0.086780369 0.09755601 0.79400003 4288778896
-0.085272737 0.097554296 0.79400003 4288647054
-0.083765142 0.097552598 0.79400003 4288384397
-0.082257628 0.097550943 0.79400003 4288187018
-0.08075016 0.097549297 0.79400003 4288185990
-0.079242758 0.097547695 0.79400003 4288778126
-0.077539586 0.097300388 0.792 4288648337
-0.075844087 0.097053148 0.79000002 4288385165
-0.074344441 0.097051606 0.79000002 4287990409
-0.072844826 0.097050093 0.79000002 4288582546
-0.071525916 0.097294323 0.792 4288648339
-0.07002262 0.097292855 0.792 4288845462
-0.068519376 0.097291425 0.792 4288911509
-0.067185417 0.097535707 0.79400003 4288911509
-0.065678485 0.097534329 0.79400003 4289173652
-0.064171597 0.097532973 0.79400003 4288976016
-0.062822595 0.0977773 0.796 4287202688
-0.005342077 0.095905721 0.78100002 4290952891
-0.0038560652 0.09578272 0.77999997 4291413442
-0.0023708059 0.095536947 0.778 4291939786
-0.0008931398 0.095291205 0.77600002 4292597715
0.00057842594 0.095291071 0.77600002 4292465880
0.0020499867 0.095290996 0.77600002 4285360236
0.0035215439 0.095290944 0.77600002 4281800448
0.0049802298 0.095045313 0.77399999 4278976512
0.006447989 0.095045298 0.77399999 4278517760
0.0079157483 0.095045336 0.77399999 4280491286
0.0093835071 0.095045395 0.77399999 4280294177
0.010851269 0.095045485 0.77399999 4280557093
0.012319031 0.095045589 0.77399999 4279440395
0.013786799 0.095045738 0.77399999 4279900946
0.015234863 0.094923124 0.773 4281608486
0.016700745 0.094923332 0.773 4284898136
0.018166631 0.094923548 0.773 4287726467
0.019581731 0.094678216 0.77100003 4292068805
0.021043841 0.094678499 0.77100003 4294370797
0.022447577 0.094433203 0.76899999 4294966015
0.023905916 0.094433546 0.76899999 4294967295
0.025364267 0.094433926 0.76899999 4294966009
0.026752867 0.09418872 0.76700002 4294965484
0.028207451 0.094189145 0.76700002 4294967288
0.029662048 0.094189599 0.76700002 4294967295
0.031076087 0.094067268 0.76599997 4294506492
0.032528825 0.094067797 0.76599997 4288263880
0.033981573 0.094068334 0.76599997 4278192668
0.035434339 0.094068892 0.76599997 4278190080
0.036887132 0.094069488 0.76599997 4278190080
0.038339935 0.094070107 0.76599997 4287128647
0.039792769 0.094070762 0.76599997 4294964182
0.041245617 0.094071433 0.76599997 4294966268
0.042698491 0.094072141 0.76599997 4294833397
-0.22308166 0.10588904 0.847 4294899705
-0.22146784 0.10588604 0.847 4292927937
-0.21933492 0.10563301 0.84500003 4278190080
-0.21772499 0.10563002 0.84500003 4278190080
-0.21611515 0.10562702 0.84500003 4285362285
-0.21450529 0.10562401 0.84500003 4291410330
-0.21289554 0.105621 0.84500003 4294967266
-0.21078572 0.10536802 0.84299999 4294967295
-0.20868357 0.10511505 0.84100002 4294967295
-0.20658912 0.10486209 0.83899999 4293975807
-0.20499098 0.10485911 0.83899999 4293712639
-0.20339292 0.10485614 0.83899999 4291809733
-0.20179491 0.10485318 0.83899999 4279703821
-0.19971973 0.10460027 0.83700001 4278190080
-0.19812566 0.10459732 0.83700001 4278190080
-0.19653161 0.10459436 0.83700001 4286339452
-0.19447188 0.10434151 0.83499998 4294967295
-0.19288176 0.10433857 0.83499998 4294967295
-0.19083357 0.10408575 0.833 4292465112
-0.1892474 0.10408283 0.833 4286877602
-0.18721074 0.10383003 0.83099997 4278190091
-0.18562852 0.10382716 0.83099997 4278190080
-0.18448935 0.10407416 0.833 4293452255
-0.18290344 0.10407127 0.833 4294965749
-0.18175295 0.10431826 0.83499998 4288648850
-0.18016337 0.10431539 0.83499998 4288519833
-0.13308492 0.10224273 0.81900001 4290227885
-0.13120668 0.10199063 0.81699997 4290622643
-0.12933615 0.1017386 0.815 4290950070
-0.12747329 0.10148659 0.81300002 4291739843
-0.12530831 0.10098494 0.80900002 4291674302
-0.12346458 0.10073298 0.80699998 4291608508
-0.12193074 0.10073072 0.80699998 4291938251
-0.12039695 0.10072845 0.80699998 4291872457
-0.11827408 0.10022696 0.80299997 4291608256
-0.11660263 0.10009994 0.80199999 4291345085
-0.11479159 0.099848144 0.80000001 4291411141
-0.1129882 0.099596366 0.79799998 4290687418
-0.11147185 0.099594228 0.79799998 4290094763
-0.10968 0.099342525 0.796 4288778903
-0.10789582 0.099090852 0.79400003 4288582294
-0.10638729 0.099088795 0.79400003 4288121743
-0.10461463 0.098837174 0.792 4288582296
-0.10311002 0.098835155 0.792 4289042847
-0.10160547 0.098833174 0.792 4289174165
-0.10010099 0.098831214 0.792 4288977043
-0.098347612 0.098579712 0.79000002 4289107607
-0.096847057 0.098577805 0.79000002 4289173400
-0.095346555 0.09857592 0.79000002 4288646804
-0.093846142 0.098574057 0.79000002 4288646804
-0.092345767 0.098572209 0.79000002 4288712597
-0.09130545 0.099069491 0.79400003 4288975768
-0.089797609 0.099067688 0.79400003 4288647319
-0.088289835 0.099065915 0.79400003 4288515990
-0.086782098 0.099064142 0.79400003 4288450447
-0.085274436 0.09906242 0.79400003 4288516240
-0.08376684 0.099060722 0.79400003 4288384402
-0.08225929 0.09905903 0.79400003 4288384402
-0.080751806 0.099057391 0.79400003 4288384397
-0.079044752 0.098806232 0.792 4288647569
-0.077541165 0.09880463 0.792 4288713360
-0.075845636 0.098553568 0.79000002 4288713360
-0.074345961 0.098552026 0.79000002 4288647567
-0.072846331 0.098550506 0.79000002 4288845202
-0.07134676 0.098549008 0.79000002 4288844952
-0.070024058 0.098797016 0.792 4288647317
-0.068520799 0.098795585 0.792 4288581263
-0.067186818 0.099043638 0.79400003 4288515469
-0.065679856 0.099042252 0.79400003 4287922315
-0.064172938 0.099040873 0.79400003 4286540662
-0.062823929 0.099289015 0.796 4285951592
-0.0023648725 0.096764751 0.77600002 4292004548
-0.00089327188 0.096764609 0.77600002 4292728270
0.00057683239 0.096515082 0.77399999 4292597211
0.0020446295 0.096515 0.77399999 4288189337
0.0035124233 0.096514955 0.77399999 4281480818
0.0049802139 0.09651491 0.77399999 4278190124
0.0064396728 0.096390225 0.773 4278190080
0.0079055652 0.096390255 0.773 4282268996
0.0093835797 0.096515 0.77399999 4286870617
0.01085137 0.096515089 0.77399999 4290357647
0.012303246 0.096390508 0.773 4293449638
0.013769147 0.096390657 0.773 4293844140
0.016657749 0.096141644 0.77100003 4294967286
0.018119873 0.096141875 0.77100003 4294967295
0.019531205 0.095892735 0.76899999 4294967295
0.02098955 0.095893018 0.76899999 4294109686
0.022389527 0.095643945 0.76700002 4292135895
0.023844101 0.095644288 0.76700002 4289635259
0.025298683 0.095644653 0.76700002 4288779950
0.0267184 0.095520347 0.76599997 4290028972
0.028171111 0.095520779 0.76599997 4294966271
0.029623847 0.095521249 0.76599997 4294967295
0.030995451 0.095272325 0.764 4294967295
0.032444417 0.095272832 0.764 4293191386
0.033893399 0.095273383 0.764 4278387968
0.035249889 0.095024541 0.76200002 4278190080
0.036695115 0.095025137 0.76200002 4278190080
0.03824047 0.095275171 0.764 4280287242
0.039689533 0.095275819 0.764 4294428129
0.041138619 0.095276497 0.764 4294966265
0.042587727 0.095277213 0.764 4294967295
-0.22255796 0.10724587 0.84500003 4294505206
-0.22042495 0.10698901 0.84299999 4290625195
-0.21881881 0.10698599 0.84299999 4278190080
-0.21721268 0.10698298 0.84299999 4282056704
-0.21560664 0.10697997 0.84299999 4290868338
-0.21400058 0.10697694 0.84299999 4293377728
-0.21189076 0.10672012 0.84100002 4294956504
-0.20978853 0.10646333 0.83899999 4293842918
-0.20819029 0.10646033 0.83899999 4293580002
-0.20609963 0.10620356 0.83700001 4292923362
-0.20450532 0.10620058 0.83700001 4291805138
-0.20291106 0.1061976 0.83700001 4284980868
-0.20131683 0.1061946 0.83700001 4278199563
-0.19924547 0.10593788 0.83499998 4278190080
-0.19765519 0.10593491 0.83499998 4279111693
-0.19606496 0.10593196 0.83499998 4289561510
-0.19400899 0.10567527 0.833 4294966527
-0.1924227 0.10567233 0.833 4294967295
-0.19037828 0.10541567 0.83099997 4291872209
-0.18879591 0.10541275 0.83099997 4288518048
-0.18721364 0.10540984 0.83099997 4278190080
-0.18563141 0.10540693 0.83099997 4278190080
-0.18404923 0.105404 0.83099997 4293715684
-0.18246716 0.10540112 0.83099997 4294966271
-0.18132049 0.10565189 0.833 4288912552
-0.13620166 0.1038039 0.81900001 4289635496
-0.13276234 0.10354549 0.81699997 4290292912
-0.1308879 0.1032896 0.815 4290556084
-0.12902114 0.10303374 0.81300002 4290819256
-0.12684846 0.10252444 0.80900002 4291345600
-0.12500082 0.10226865 0.80699998 4291477690
-0.12316091 0.1020129 0.80500001 4291674813
-0.12163083 0.10201059 0.80500001 4291937219
-0.12010083 0.10200834 0.80500001 4291805890
-0.118129 0.10162592 0.80199999 4291345852
-0.11631405 0.10137028 0.80000001 4291280059
-0.11479378 0.10136808 0.80000001 4291542209
-0.11299033 0.10111249 0.79799998 4290818743
-0.11119459 0.10085692 0.796 4290094763
-0.10968212 0.10085482 0.796 4288844952
-0.1078979 0.1005993 0.79400003 4288713110
-0.10638934 0.10059723 0.79400003 4288450195
-0.10488084 0.10059519 0.79400003 4288646804
-0.10311201 0.10033976 0.792 4288778390
-0.10160746 0.10033778 0.792 4288778642
-0.10010295 0.1003358 0.792 4288581263
-0.098349541 0.10008049 0.79000002 4288646291
-0.096848965 0.10007855 0.79000002 4288777620
-0.095348455 0.10007664 0.79000002 4288646804
-0.093848005 0.10007475 0.79000002 4288646804
-0.092347607 0.10007288 0.79000002 4288516240
-0.090847276 0.10007106 0.79000002 4288779155
-0.089573212 0.1003226 0.792 4288254356
-0.088069201 0.10032082 0.792 4287991440
-0.086783864 0.10057238 0.79400003 4288187788
-0.085490957 0.10082394 0.796 4288384911
-0.083768532 0.1005689 0.79400003 4288516240
-0.082260966 0.10056721 0.79400003 4288516240
-0.080753453 0.10056555 0.79400003 4288516238
-0.079046369 0.10031057 0.792 4288516238
-0.077542774 0.10030896 0.792 4288515988
-0.075847194 0.10005409 0.79000002 4288647317
-0.074347503 0.10005252 0.79000002 4288516238
-0.072847843 0.10005098 0.79000002 4288713360
-0.071348242 0.10004947 0.79000002 4288844952
-0.070025519 0.10030127 0.792 4288515988
-0.06852223 0.10029982 0.792 4288777611
-0.067188241 0.10055169 0.79400003 4288579975
-0.065846696 0.10080355 0.796 4287463296
-0.064335957 0.10080216 0.796 4286279021
-0.0023650362 0.098238245 0.77600002 4291544260
-0.00089340599 0.098238096 0.77600002 4292662741
0.00057672826 0.097984783 0.77399999 4292861153
0.0020445548 0.097984709 0.77399999 4290032054
0.0035123774 0.097984634 0.77399999 4285429636
0.0049737631 0.097858034 0.773 4278190080
0.0064230245 0.097604834 0.77100003 4278190080
0.0078851525 0.097604856 0.77100003 4282464308
0.012271543 0.097605109 0.77100003 4294042077
0.01373368 0.097605258 0.77100003 4294305506
0.01519582 0.097605444 0.77100003 4294967281
0.016614756 0.097352438 0.76899999 4294967283
0.018073114 0.097352669 0.76899999 4294967295
0.019480681 0.097099729 0.76700002 4294967295
0.020935265 0.097100027 0.76700002 4293650154
0.022360666 0.096973747 0.76599997 4288584093
0.023813372 0.09697409 0.76599997 4287663493
0.025266089 0.096974477 0.76599997 4283979085
0.026649056 0.096721679 0.764 4285884192
0.028098008 0.096722111 0.764 4294897834
0.029546971 0.096722558 0.764 4294967295
0.030914808 0.096469849 0.76200002 4294967295
0.03236001 0.096470371 0.76200002 4293454576
0.033805232 0.096470915 0.76200002 4279769376
0.035250466 0.096471481 0.76200002 4278255616
0.036695726 0.096472099 0.76200002 4278190080
0.038141005 0.096472718 0.76200002 4279238656
0.039586298 0.096473366 0.76200002 4292918972
0.041031621 0.096474051 0.76200002 4293979114
0.042476963 0.096474767 0.76200002 4294967295
-0.22150744 0.10833746 0.84100002 4293386210
-0.21990502 0.10833443 0.84100002 4290754215
-0.21830268 0.10833141 0.84100002 4278190080
-0.21618503 0.10807075 0.83899999 4281204736
-0.21458657 0.10806773 0.83899999 4287847005
-0.21298815 0.10806472 0.83899999 4286928740
-0.21138984 0.1080617 0.83899999 4286007638
-0.20929144 0.10780108 0.83700001 4283374901
-0.207697 0.10779806 0.83700001 4280483850
-0.20561016 0.10753749 0.83499998 4278911004
-0.20401964 0.10753445 0.83499998 4278190098
-0.20194432 0.10727391 0.833 4282003712
-0.20035774 0.10727093 0.833 4289240680
-0.19877119 0.10726795 0.833 4293515431
-0.1971847 0.10726494 0.833 4293844140
-0.1955983 0.10726197 0.833 4294964977
-0.19354615 0.10700148 0.83099997 4294967295
-0.19196364 0.10699851 0.83099997 4294967295
-0.18992305 0.10673807 0.829 4289965233
-0.18834446 0.10673512 0.829 4287598690
-0.18676598 0.10673219 0.829 4278190080
-0.18518758 0.10672926 0.829 4280549376
-0.18360922 0.10672635 0.829 4294960354
-0.18203093 0.10672344 0.829 4294571254
-0.18088804 0.10697799 0.83099997 4287728782
-0.13587151 0.10510296 0.81699997 4289635496
-0.13243979 0.10484073 0.815 4290030255
-0.13056912 0.10458103 0.81300002 4289964462
-0.12870614 0.10432135 0.81099999 4290620596
-0.1265372 0.10380443 0.80699998 4291081147
-0.12469339 0.10354483 0.80500001 4291608247
-0.12285722 0.10328525 0.80299997 4291871163
-0.12087764 0.10289709 0.80000001 4291740093
-0.11935711 0.1028948 0.80000001 4291476920
-0.11754207 0.10263531 0.79799998 4291542200
-0.11602548 0.1026331 0.79799998 4291476407
-0.11422197 0.10237364 0.796 4291476155
-0.11270933 0.10237148 0.796 4290884018
-0.11119675 0.1023693 0.796 4290489519
-0.10940865 0.10210998 0.79400003 4289437088
-0.10789999 0.10210784 0.79400003 4288517784
-0.1061234 0.10184856 0.792 4288714907
-0.10461869 0.1018465 0.792 4288844948
-0.10285366 0.10158727 0.79000002 4288713362
-0.10135288 0.10158525 0.79000002 4288384915
-0.099852152 0.10158326 0.79000002 4288187536
-0.098226979 0.1014527 0.78899997 4288253330
-0.096728288 0.10145076 0.78899997 4288253330
-0.095229656 0.10144884 0.78899997 4288646291
-0.093731076 0.10144695 0.78899997 4288843669
-0.092232563 0.10144507 0.78899997 4288647821
-0.090734117 0.10144322 0.78899997 4288713614
-0.089575022 0.10182712 0.792 4288516751
-0.088070996 0.1018253 0.792 4288385165
-0.086567014 0.10182352 0.792 4288385165
-0.085492715 0.10233602 0.796 4288450958
-0.083770253 0.10207716 0.79400003 4288516238
-0.082055442 0.10181833 0.792 4288647567
-0.080551691 0.10181663 0.792 4288647567
-0.078848407 0.10155789 0.79000002 4288647567
-0.077348553 0.10155625 0.79000002 4288909462
-0.075848781 0.10155465 0.79000002 4289370013
-0.074349046 0.10155308 0.79000002 4288910473
-0.072849371 0.10155153 0.79000002 4288581765
-0.071530379 0.1018071 0.792 4288253330
-0.070027001 0.1018056 0.792 4287529606
-0.06852369 0.10180414 0.792 4287067767
-0.067189664 0.10205975 0.79400003 4286475887
-0.065682642 0.10205834 0.79400003 4286280054
-0.06417568 0.10205695 0.79400003 4287003778
-0.00089123903 0.099454686 0.77399999 4292793557
0.002041837 0.09932597 0.773 4291281606
0.0049608783 0.099068895 0.77100003 4278190080
0.0064063757 0.098811902 0.76899999 4278190080
0.0078647407 0.098811939 0.76899999 4281413937
0.0093231052 0.098811984 0.76899999 4287459212
0.010781472 0.098812066 0.76899999 4294960895
0.012239839 0.098812193 0.76899999 4294304220
0.013698212 0.098812319 0.76899999 4291672757
0.01515659 0.098812498 0.76899999 4294631584
0.016571762 0.098555729 0.76700002 4294966717
0.018026358 0.09855596 0.76700002 4294967295
0.019480959 0.098556213 0.76700002 4294967295
0.020908274 0.098427996 0.76599997 4294043615
0.022302613 0.098171338 0.764 4280621843
0.023751557 0.098171674 0.764 4278190080
0.02520051 0.098172061 0.764 4278190080
0.026579713 0.097915478 0.76200002 4280287237
0.028024895 0.09791591 0.76200002 4294428893
0.029470097 0.097916365 0.76200002 4294967294
0.03087474 0.097788364 0.76099998 4294967295
0.032318078 0.097788885 0.76099998 4294965755
0.033761423 0.097789414 0.76099998 4287925647
0.035112273 0.097533002 0.759 4278190159
0.03655187 0.097533606 0.759 4278190144
0.038091589 0.097791232 0.76099998 4278190080
0.039535023 0.097791895 0.76099998 4289239960
-0.22098365 0.10967536 0.83899999 4292729050
-0.2193851 0.10967235 0.83899999 4289965994
-0.21778655 0.10966927 0.83899999 4278255616
-0.21618806 0.10966624 0.83899999 4278910976
-0.2140781 0.10940179 0.83700001 4281804586
-0.2124835 0.10939875 0.83700001 4281149486
-0.21038505 0.10913432 0.83499998 4280162335
-0.20879437 0.10913129 0.83499998 4278586651
-0.20670746 0.10886689 0.833 4278190091
-0.20512067 0.10886385 0.833 4278190080
-0.20304528 0.10859947 0.83099997 4278190080
-0.20146246 0.10859648 0.83099997 4283971072
-0.19987968 0.10859346 0.83099997 4294037639
-0.19829693 0.10859047 0.83099997 4294963439
-0.19671427 0.10858746 0.83099997 4294964209
-0.19513166 0.10858447 0.83099997 4294967295
-0.19308329 0.10832015 0.829 4294964468
-0.1915046 0.10831719 0.829 4293714409
-0.18992598 0.10831422 0.829 4288977313
-0.18834743 0.10831126 0.829 4280964686
-0.18631835 0.10804701 0.82700002 4278190080
-0.18474373 0.10804407 0.82700002 4280221696
-0.18316916 0.10804113 0.82700002 4294962666
-0.18159467 0.1080382 0.82700002 4294965503
-0.1804556 0.10829656 0.829 4289175462
-0.13057154 0.106126 0.81300002 4289767851
-0.12807372 0.10534036 0.80699998 4290422701
-0.12622599 0.10507692 0.80500001 4290949046
-0.12423104 0.10468298 0.80199999 4291278512
-0.12209453 0.10415851 0.79799998 4291739063
-0.12057775 0.1041562 0.79799998 4291412410
-0.11876259 0.10389289 0.796 4291215032
-0.11724973 0.10389062 0.796 4291213751
-0.11573692 0.10388837 0.796 4291279544
-0.11422417 0.10388614 0.796 4291409849
-0.11242831 0.10362292 0.79400003 4290883504
-0.11091952 0.10362077 0.79400003 4290425011
-0.10941079 0.10361861 0.79400003 4289240994
-0.1076303 0.10335546 0.792 4288713883
-0.1061255 0.10335336 0.792 4288648089
-0.10462075 0.10335127 0.792 4288909721
-0.10272549 0.10295775 0.78899997 4288712599
-0.10122657 0.10295571 0.78899997 4287464842
-0.099727735 0.10295371 0.78899997 4287925393
-0.098228946 0.10295172 0.78899997 4288386446
-0.096730232 0.10294975 0.78899997 4288386446
-0.095231563 0.10294783 0.78899997 4288516240
-0.093732975 0.10294591 0.78899997 4288516240
-0.092234433 0.10294402 0.78899997 4288713101
-0.090735942 0.10294215 0.78899997 4288778894
-0.089350641 0.10307079 0.79000002 4288779409
-0.088072784 0.10332991 0.792 4288713360
-0.086568795 0.1033281 0.792 4288713614
-0.085279658 0.10358726 0.79400003 4288713614
-0.083560973 0.10332458 0.792 4288713360
-0.081849933 0.10306195 0.79000002 4288713360
-0.080248244 0.10292979 0.78899997 4288712847
-0.078750215 0.10292812 0.78899997 4288712847
-0.077252261 0.10292648 0.78899997 4289237398
-0.075754352 0.10292488 0.78899997 4289566107
-0.07435061 0.10305373 0.79000002 4289237910
-0.072850913 0.10305218 0.79000002 4288645772
-0.071531892 0.10331153 0.792 4287596934
-0.070028499 0.10331003 0.792 4286938748
0.002036477 0.10053316 0.77100003 4292466134
0.0049479911 0.10027226 0.76899999 4278190086
0.0064063868 0.10027228 0.76899999 4278190080
0.007844327 0.10001151 0.76700002 4280297255
0.009298929 0.10001156 0.76700002 4286734961
0.010753531 0.10001165 0.76700002 4292195780
0.012208138 0.10001177 0.76700002 4290492601
0.013662748 0.1000119 0.76700002 4287268744
0.015117361 0.10001209 0.76700002 4289038148
0.016550371 0.099881887 0.76599997 4294962602
0.017956095 0.099621341 0.764 4294967295
0.019405037 0.099621594 0.764 4294967039
0.020853991 0.099621899 0.764 4294240226
0.022244567 0.09936142 0.76200002 4280752661
0.023689745 0.099361785 0.76200002 4279238656
0.025134936 0.09936215 0.76200002 4279631872
0.026580136 0.099362582 0.76200002 4282977280
0.027988566 0.099232599 0.76099998 4294951586
0.0294319 0.099233061 0.76099998 4294768115
0.030875247 0.099233568 0.76099998 4294967294
0.03223367 0.098973259 0.759 4294967295
0.033584528 0.098713033 0.75700003 4287990155
0.035020337 0.098713607 0.75700003 4285616728
0.036456175 0.098714225 0.75700003 4279107584
0.037992131 0.098975651 0.759 4279697408
0.039327893 0.098715514 0.75700003 4287456620
0.04076378 0.098716199 0.75700003 4291341475
-0.22205473 0.11100877 0.83700001 4294967295
-0.21993317 0.11074047 0.83499998 4291479235
-0.2183422 0.11073743 0.83499998 4289045157
-0.21675128 0.11073438 0.83499998 4278190080
-0.2151604 0.11073135 0.83499998 4278190080
-0.21356957 0.11072829 0.83499998 4279310112
-0.21147107 0.11046001 0.833 4280225813
-0.20988415 0.11045699 0.833 4279633933
-0.20829727 0.11045395 0.833 4278387968
-0.20621414 0.11018573 0.83099997 4278190080
-0.20463121 0.11018268 0.83099997 4278583311
-0.20255964 0.10991451 0.829 4281542973
-0.2009806 0.10991147 0.829 4284826474
-0.19940163 0.10990846 0.829 4293642736
-0.19782269 0.10990544 0.829 4292525776
-0.19624382 0.10990243 0.829 4290091179
-0.19466503 0.10989944 0.829 4283306376
-0.19308627 0.10989643 0.829 4281401450
-0.19104557 0.1096283 0.82700002 4278255616
-0.18947075 0.10962534 0.82700002 4278190080
-0.18789598 0.10962235 0.82700002 4278190080
-0.1863213 0.10961939 0.82700002 4278190080
-0.18474667 0.10961643 0.82700002 4282057472
-0.18317209 0.10961347 0.82700002 4294963166
-0.18159761 0.10961052 0.82700002 4294569968
-0.12993158 0.10714132 0.80900002 4290030253
-0.12807614 0.106874 0.80699998 4290292145
-0.12622836 0.10660673 0.80500001 4290226351
-0.12423337 0.10620704 0.80199999 4290620580
-0.12179088 0.10541014 0.796 4290817959
-0.12027784 0.10540782 0.796 4290884014
-0.11846648 0.10514069 0.79400003 4291278771
-0.11695737 0.1051384 0.79400003 4291147696
-0.11544835 0.10513614 0.79400003 4290884268
-0.11365242 0.10486908 0.792 4290817970
-0.1121473 0.10486687 0.792 4290620848
-0.11064229 0.10486467 0.792 4290425263
-0.10913732 0.10486252 0.792 4289307039
-0.10736063 0.10459557 0.79000002 4288517787
-0.1057256 0.10446105 0.78899997 4288385944
-0.10422653 0.10445896 0.78899997 4288778905
-0.10246714 0.10419211 0.787 4288647319
-0.100972 0.10419007 0.787 4288254608
-0.099729747 0.10445283 0.78899997 4288254608
-0.098230928 0.10445082 0.78899997 4288255362
-0.096732184 0.10444883 0.78899997 4288386948
-0.0952335 0.10444688 0.78899997 4288713614
-0.093734883 0.10444497 0.78899997 4288318856
-0.092236318 0.10444304 0.78899997 4288318345
-0.090852819 0.10457355 0.79000002 4288647054
-0.089352489 0.10457169 0.79000002 4288910225
-0.088074602 0.10483458 0.792 4288976018
-0.086570583 0.10483278 0.792 4288976018
-0.085066617 0.10483098 0.792 4289633949
-0.083562702 0.10482921 0.792 4289173652
-0.081748039 0.1044304 0.78899997 4288976016
-0.080249928 0.10442869 0.78899997 4289107346
-0.078751892 0.10442702 0.78899997 4289107346
-0.0772539 0.10442536 0.78899997 4288975503
-0.075755961 0.10442372 0.78899997 4288449159
-0.074352197 0.10455447 0.79000002 4287463307
-0.07285247 0.10455292 0.79000002 4286674047
-0.071533434 0.10481605 0.792 4286016883
-0.070029996 0.10481451 0.792 4286345848
0.0034895451 0.10173275 0.76899999 4291546045
0.0049351035 0.10146812 0.76700002 4278387456
0.0063897371 0.10146814 0.76700002 4278190080
0.0078341402 0.10133584 0.76599997 4278850072
0.0092868749 0.10133591 0.76599997 4281666838
0.010739612 0.10133601 0.76599997 4282061339
0.012160516 0.10107154 0.764 4281798937
0.013609468 0.10107169 0.764 4280090624
0.015058418 0.10107185 0.764 4283245827
0.016464166 0.10080747 0.76200002 4291009401
0.017909339 0.1008077 0.76200002 4290089636
0.019354517 0.10080797 0.76200002 4288839570
0.020799706 0.10080827 0.76200002 4286937696
0.022215707 0.10067628 0.76099998 4281081862
0.023659021 0.10067665 0.76099998 4281215279
0.02510234 0.10067701 0.76099998 4281083437
0.02654567 0.10067742 0.76099998 4283048227
0.027989021 0.10067789 0.76099998 4289693321
0.029355029 0.10041375 0.759 4291869086
0.030794613 0.10041425 0.759 4292000673
0.03214927 0.10015016 0.75700003 4290819478
0.033585098 0.10015073 0.75700003 4284766522
0.034928408 0.099886715 0.755 4280229162
0.036360472 0.099887304 0.755 4278190080
0.037892673 0.10015256 0.75700003 4278190080
0.039328575 0.10015324 0.75700003 4280230190
0.040764485 0.10015391 0.75700003 4285952133
-0.22205783 0.11260065 0.83700001 4294967295
-0.21993622 0.11232852 0.83499998 4290887357
-0.21834525 0.11232546 0.83499998 4288123279
-0.2167543 0.1123224 0.83499998 4278190080
-0.21516344 0.11231933 0.83499998 4278190080
-0.21306109 0.11204724 0.833 4279703823
-0.21096635 0.11177517 0.83099997 4279831296
-0.20938325 0.11177211 0.83099997 4279173376
-0.20780019 0.11176906 0.83099997 4278910976
-0.20572092 0.11149702 0.829 4281212949
-0.20414174 0.11149399 0.829 4284041984
-0.20207398 0.11122198 0.82700002 4286541845
-0.20049874 0.11121894 0.82700002 4290811567
-0.19892357 0.11121593 0.82700002 4290482346
-0.19734846 0.1112129 0.82700002 4287728532
-0.19577341 0.11120987 0.82700002 4282530885
-0.1941984 0.11120685 0.82700002 4278190112
-0.19262344 0.11120383 0.82700002 4278190096
-0.19058652 0.1109319 0.82499999 4278190080
-0.18901551 0.1109289 0.82499999 4278190080
-0.18744455 0.11092591 0.82499999 4278190080
-0.18542306 0.11065403 0.82300001 4278190080
-0.18385604 0.11065105 0.82300001 4283048740
-0.18228909 0.11064811 0.82300001 4294961642
-0.18072219 0.11064515 0.82300001 4293846763
-0.12993406 0.10867886 0.80900002 4289964462
-0.12807858 0.10840773 0.80699998 4290226867
-0.12623078 0.10813662 0.80500001 4290029488
-0.12423577 0.10773123 0.80199999 4290029222
-0.12179322 0.1069229 0.796 4290095015
-0.12028015 0.10692056 0.796 4290357658
-0.1184688 0.10664959 0.79400003 4291147174
-0.11695968 0.1066473 0.79400003 4291017141
-0.11545061 0.10664501 0.79400003 4290556590
-0.11365463 0.10637414 0.792 4290489521
-0.11214951 0.10637191 0.792 4290621107
-0.11036506 0.10610108 0.79000002 4290557365
-0.10886388 0.10609892 0.79000002 4289373091
-0.10722686 0.10596245 0.78899997 4288845466
-0.10572772 0.1059603 0.78899997 4289042845
-0.10422862 0.10595819 0.78899997 4289174685
-0.10246921 0.10568755 0.787 4288845464
-0.10097403 0.10568547 0.787 4288714386
-0.099478953 0.10568344 0.787 4288845716
-0.097983934 0.10568142 0.787 4288845964
-0.096488953 0.10567944 0.787 4288845964
-0.094994046 0.10567746 0.787 4288779407
-0.093736805 0.10594408 0.78899997 4288318856
-0.092238225 0.10594217 0.78899997 4287857794
-0.090854697 0.10607453 0.79000002 4288581261
-0.089354336 0.10607266 0.79000002 4288975766
-0.087854035 0.1060708 0.79000002 4289041560
-0.086353779 0.10606899 0.79000002 4289041298
-0.084853582 0.10606718 0.79000002 4289238421
-0.083353445 0.10606541 0.79000002 4289239708
-0.081749752 0.1059294 0.78899997 4288976537
-0.080251627 0.10592768 0.78899997 4289172620
-0.078753561 0.10592598 0.78899997 4288909449
-0.077255547 0.10592432 0.78899997 4288187786
-0.075757585 0.10592267 0.78899997 4287464063
-0.074353792 0.10605531 0.79000002 4286020982
-0.072854035 0.10605371 0.79000002 4285626224
0.0034758826 0.1027907 0.76599997 4291939797
0.0049286499 0.10279066 0.76599997 4279768092
0.0063814158 0.10279066 0.76599997 4278255616
0.0078137266 0.10252231 0.764 4280620310
0.0092626987 0.10252236 0.764 4280557345
0.010711672 0.10252244 0.764 4279899671
0.012128815 0.1022542 0.76200002 4280030487
0.013574 0.10225433 0.76200002 4279504143
0.015019189 0.1022545 0.76200002 4282718208
0.016442778 0.10212051 0.76099998 4286665512
0.017886084 0.10212076 0.76099998 4286079344
0.019329395 0.10212101 0.76099998 4281013539
0.020718124 0.10185292 0.759 4280817198
0.022157662 0.10185326 0.759 4281409592
0.023597209 0.10185362 0.759 4281152566
0.025036765 0.10185398 0.759 4281086773
0.026476329 0.10185438 0.759 4282919208
0.027915915 0.10185485 0.759 4287129960
0.029278159 0.10158692 0.75700003 4286740592
0.030632835 0.10131902 0.755 4286082662
0.032064874 0.10131955 0.755 4283258960
0.033452563 0.10118591 0.75400001 4281219120
0.034882743 0.10118649 0.75400001 4278190080
0.036312938 0.10118711 0.75400001 4278190080
0.037793212 0.10132194 0.755 4278190080
0.039173394 0.10118841 0.75400001 4279378204
0.040603645 0.10118911 0.75400001 4284969071
-0.22046903 0.11337398 0.83099997 4294967295
-0.21888568 0.11337091 0.83099997 4290426034
-0.21730234 0.11336787 0.83099997 4285756027
-0.21571903 0.11336479 0.83099997 4278190080
-0.21413577 0.11336172 0.83099997 4278190080
-0.21255259 0.11335866 0.83099997 4285231993
-0.21046169 0.11308277 0.829 4291737977
-0.20888244 0.11307971 0.829 4292724873
-0.20680304 0.11280385 0.82700002 4294964676
-0.20522763 0.11280079 0.82700002 4294964676
-0.20365228 0.11279771 0.82700002 4294966218
-0.20158829 0.11252189 0.82499999 4294967252
-0.20001687 0.11251886 0.82499999 4290553560
-0.19844551 0.11251582 0.82499999 4279435312
-0.1968742 0.11251279 0.82499999 4278190080
-0.19482949 0.11223699 0.82300001 4278190080
-0.1932621 0.11223397 0.82300001 4278190080
-0.19169478 0.11223097 0.82300001 4278190080
-0.19012751 0.11222793 0.82300001 4278190080
-0.18856029 0.11222494 0.82300001 4278190080
-0.18653873 0.11194924 0.82099998 4278190080
-0.18497543 0.11194623 0.82099998 4285492076
-0.18341222 0.11194327 0.82099998 4287723185
-0.18184905 0.11194027 0.82099998 4294963455
-0.18028595 0.1119373 0.82099998 4293058785
-0.12576278 0.10925788 0.80199999 4290359487
-0.12392835 0.10898302 0.80000001 4290028970
-0.12148956 0.10816327 0.79400003 4288515988
-0.11998028 0.10816091 0.79400003 4288910473
-0.11847108 0.10815857 0.79400003 4290357919
-0.11666734 0.10788383 0.792 4290489260
-0.11516209 0.10788154 0.792 4290357673
-0.11365687 0.10787924 0.792 4290357421
-0.11215174 0.10787701 0.792 4290620594
-0.11036728 0.10760238 0.79000002 4290293932
-0.10886606 0.10760019 0.79000002 4289898917
-0.10722902 0.1074618 0.78899997 4289241503
-0.10546183 0.10718725 0.787 4288978587
-0.10396653 0.10718514 0.787 4289174683
-0.10221089 0.10691066 0.78500003 4288977304
-0.10071949 0.10690859 0.78500003 4289109907
-0.099480994 0.10717891 0.787 4289175701
-0.097985931 0.10717687 0.787 4289174935
-0.096490934 0.10717488 0.787 4289109142
-0.094996005 0.1071729 0.787 4289108109
-0.093501128 0.10717092 0.787 4288647558
-0.092006326 0.107169 0.787 4288713866
-0.090741575 0.10743942 0.78899997 4288845452
-0.089243092 0.10743754 0.78899997 4289175197
-0.087744661 0.10743568 0.78899997 4289240990
-0.086246274 0.10743383 0.78899997 4288845202
-0.084747955 0.10743202 0.78899997 4288779409
-0.083249688 0.10743023 0.78899997 4288516501
-0.081751496 0.10742848 0.78899997 4287661192
-0.08025334 0.10742675 0.78899997 4287068794
-0.078755237 0.10742503 0.78899997 4286476400
-0.077257201 0.10742335 0.78899997 4286542198
-0.07575921 0.1074217 0.78899997 4286344562
-0.074261278 0.10742006 0.78899997 4286414180
0.0034667563 0.10397344 0.764 4292728798
0.0049157613 0.1039734 0.764 4284965480
0.0063647651 0.10397342 0.764 4278190592
0.0077933129 0.10370125 0.76200002 4278193669
0.0092385225 0.10370132 0.76200002 4280887341
0.010683732 0.1037014 0.76200002 4281413685
0.012113024 0.10356541 0.76099998 4281675830
0.013556346 0.10356555 0.76099998 4281543988
0.01496025 0.10329356 0.759 4282788147
0.016313355 0.10274938 0.755 4283117112
