# .PCD v0.7 - Point Cloud Data file format
VERSION 0.7
FIELDS x y z rgba
SIZE 4 4 4 4
TYPE F F F U
COUNT 1 1 1 1
WIDTH 1048
HEIGHT 1
VIEWPOINT 0 0 0 1 0 0 0
POINTS 1048
DATA ascii
-0.076712161 -0.16022101 0.727 4291806662
-0.075124681 -0.15977891 0.72500002 4291872711
-0.073544845 -0.15933682 0.72299999 4291609538
-0.072172284 -0.15933554 0.72299999 4291609538
-0.070505984 -0.15867311 0.72000003 4291675065
-0.06913919 -0.15867186 0.72000003 4291740858
-0.067772441 -0.1586706 0.72000003 4291543997
-0.06631349 -0.15844898 0.71899998 4291675583
-0.064948715 -0.15844779 0.71899998 4291543995
-0.06358397 -0.15844657 0.71899998 4291543995
-0.062046189 -0.15800466 0.71700001 4291543997
-0.060600683 -0.15778315 0.71600002 4291478204
-0.059241746 -0.157782 0.71600002 4291544249
-0.057882838 -0.15778087 0.71600002 4291544249
-0.056523968 -0.15777978 0.71600002 4291544249
-0.055165131 -0.15777871 0.71600002 4291412406
-0.053806316 -0.15777764 0.71600002 4291215032
-0.052301038 -0.15733588 0.71399999 4291215032
-0.050874744 -0.15711451 0.713 4291412408
-0.048896622 -0.1551303 0.704 4291412408
-0.047560722 -0.15512934 0.704 4291412408
-0.047012769 -0.15777263 0.71600002 4291412408
-0.045654148 -0.15777169 0.71600002 4291478201
-0.044171829 -0.15733007 0.71399999 4291478201
-0.042817052 -0.15732916 0.71399999 4291609271
-0.041404244 -0.15710792 0.713 4291609271
-0.040051423 -0.15710706 0.713 4291477938
-0.03869864 -0.15710625 0.713 4291346352
-0.037345875 -0.15710542 0.713 4291346352
-0.035993129 -0.15710461 0.713 4291412145
-0.03454325 -0.15666316 0.71100003 4291542704
-0.033194348 -0.15666242 0.71100003 4291608497
-0.031800684 -0.15644133 0.70999998 4291412149
-0.030453727 -0.15644063 0.70999998 4291346100
-0.029147789 -0.1566603 0.71100003 4291215284
-0.027798975 -0.15665963 0.71100003 4291346613
-0.026450183 -0.15665901 0.71100003 4291412406
-0.025172018 -0.15709902 0.713 4291412406
-0.023819469 -0.15709841 0.713 4291346615
-0.022498449 -0.15731817 0.71399999 4291215286
-0.021144038 -0.15731762 0.71399999 4291346104
-0.01984508 -0.15775777 0.71600002 4291609020
-0.018512724 -0.15797757 0.71700001 4291674553
-0.017152673 -0.15797707 0.71700001 4291674553
-0.015792634 -0.15797663 0.71700001 4291608504
-0.014432606 -0.15797618 0.71700001 4291608504
-0.013072595 -0.15797576 0.71700001 4291675065
-0.011745262 -0.158416 0.71899998 4291740858
-0.010381479 -0.15841562 0.71899998 4291675067
-0.0090177078 -0.15841527 0.71899998 4291609017
-0.0076645911 -0.15863527 0.72000003 4291675067
-0.0062989402 -0.15863496 0.72000003 4291740860
-0.0049470011 -0.15907532 0.722 4291610044
-0.0035775742 -0.15907507 0.722 4291675837
-0.002208153 -0.15907483 0.722 4291806653
-0.00083989999 -0.15929495 0.72299999 4291806653
0.00053140603 -0.15929472 0.72299999 4291675583
0.0019132344 -0.16017586 0.727 4291609790
0.0032966468 -0.16039605 0.72799999 4291675837
0.0046774251 -0.16039594 0.72799999 4291675837
0.0060748444 -0.16083647 0.73000002 4291610305
0.0074594109 -0.1608364 0.73000002 4291544512
0.0088560926 -0.16105668 0.73100001 4291675837
0.010284591 -0.16171764 0.73400003 4291807166
0.01170856 -0.16215825 0.736 4291675837
0.01310451 -0.16215827 0.736 4291543995
0.014500462 -0.16215833 0.736 4291609790
0.016026007 -0.16348033 0.74199998 4291807168
0.017433343 -0.16348042 0.74199998 4291741641
-0.089202605 -0.16147369 0.73900002 4291810276
-0.087799259 -0.16147223 0.73900002 4291152346
-0.086279042 -0.16125226 0.73799998 4291216583
-0.084877677 -0.16125081 0.73799998 4291611085
-0.083250135 -0.16081239 0.736 4292004296
-0.081519015 -0.16015549 0.73299998 4292004296
-0.079908654 -0.15971713 0.73100001 4291675587
-0.0781985 -0.15906028 0.72799999 4291806916
-0.076816335 -0.15905893 0.72799999 4291806914
-0.075330593 -0.15883911 0.727 4291872707
-0.073746979 -0.1584008 0.72500002 4291543745
-0.072370633 -0.15839952 0.72500002 4291609538
-0.070700556 -0.15774278 0.722 4291477690
-0.069329992 -0.15774153 0.722 4291609020
-0.067771204 -0.1573033 0.72000003 4291478204
-0.066404499 -0.1573021 0.72000003 4291543997
-0.064947516 -0.15708241 0.71899998 4291412408
-0.063582785 -0.15708123 0.71899998 4291412408
-0.062218085 -0.15708001 0.71899998 4291346102
-0.060599536 -0.15642348 0.71600002 4291411895
-0.059240621 -0.15642235 0.71600002 4291346100
-0.057881735 -0.15642124 0.71600002 4291412149
-0.056522869 -0.15642013 0.71600002 4291346615
-0.055164061 -0.15641908 0.71600002 4291346615
-0.053880412 -0.15663646 0.71700001 4291346615
-0.052446518 -0.15641697 0.71600002 4291412408
-0.051087797 -0.15641595 0.71600002 4291346867
-0.049729098 -0.15641494 0.71600002 4291346867
-0.04857311 -0.15706933 0.71899998 4291346867
-0.047011815 -0.15641299 0.71600002 4291412660
-0.045653217 -0.15641207 0.71600002 4291346613
-0.04429464 -0.15641113 0.71600002 4291149491
-0.04281617 -0.15597336 0.71399999 4291280307
-0.041461449 -0.15597247 0.71399999 4291280307
-0.040106755 -0.15597162 0.71399999 4291149491
-0.038752086 -0.15597077 0.71399999 4291083698
-0.037397437 -0.15596995 0.71399999 4290885549
-0.035992347 -0.15575071 0.713 4290951598
-0.034639653 -0.15574995 0.713 4291016619
-0.033193614 -0.15531231 0.71100003 4291213998
-0.031844754 -0.15531158 0.71100003 4291017391
-0.030495925 -0.15531088 0.71100003 4291148720
-0.029229101 -0.15574707 0.713 4291083698
-0.027876519 -0.15574642 0.713 4291215284
-0.026523948 -0.15574576 0.713 4291346613
-0.025206709 -0.15596355 0.71399999 4291215284
-0.023852291 -0.15596299 0.71399999 4291017651
-0.022497887 -0.15596242 0.71399999 4291017651
-0.021202719 -0.15639871 0.71600002 4291148467
-0.019844554 -0.15639816 0.71600002 4291280309
-0.018563863 -0.15705298 0.71899998 4291345587
-0.017200036 -0.15705247 0.71899998 4291279794
-0.01583623 -0.15705203 0.71899998 4291017137
-0.014472432 -0.15705158 0.71899998 4291477688
-0.013108649 -0.15705116 0.71899998 4291478201
-0.011744875 -0.15705074 0.71899998 4291412408
-0.010381115 -0.15705036 0.71899998 4291411895
-0.0090173669 -0.15705003 0.71899998 4291477688
-0.0076855612 -0.15770498 0.722 4291674813
-0.0063161403 -0.15770468 0.722 4291609020
-0.0049467282 -0.15770438 0.722 4291477690
-0.0035773243 -0.15770413 0.722 4291609020
-0.0022109849 -0.15792233 0.72299999 4291609017
-0.00084201957 -0.15835896 0.72500002 4291609017
0.0005330565 -0.15835877 0.72500002 4291740606
0.0019133915 -0.15879546 0.727 4291806655
0.0032967813 -0.15901373 0.72799999 4291609790
0.0046903864 -0.15945047 0.73000002 4291543997
0.0060832528 -0.15966877 0.73100001 4291610044
0.0074696937 -0.15966871 0.73100001 4291543995
0.0088924794 -0.16032395 0.73400003 4291411895
0.010312631 -0.16076076 0.736 4291609017
0.011708556 -0.16076076 0.736 4291609020
0.013104479 -0.16076078 0.736 4291609020
0.014500407 -0.16076082 0.736 4291543999
0.015896339 -0.16076089 0.736 4291609792
-0.085221276 -0.16049919 0.741 4291086539
-0.083588056 -0.16006455 0.73900002 4291675846
-0.081851251 -0.15941334 0.736 4291807689
-0.080125898 -0.15876217 0.73299998 4291938754
-0.078519382 -0.15832762 0.73100001 4292004548
-0.077026017 -0.15810966 0.73000002 4291872959
-0.075432882 -0.15767515 0.72799999 4291872959
-0.074050814 -0.15767382 0.72799999 4291675585
-0.072568983 -0.15745595 0.727 4291675585
-0.070797205 -0.15658833 0.72299999 4291477954
-0.069328733 -0.15637049 0.722 4291412160
-0.067958221 -0.15636924 0.722 4291478204
-0.066403292 -0.15593489 0.72000003 4291478204
-0.065036654 -0.15593368 0.72000003 4291412410
-0.063670032 -0.15593247 0.72000003 4291412410
-0.062216938 -0.15571474 0.71899998 4291215034
-0.060683027 -0.15528044 0.71700001 4291346363
-0.059322231 -0.15527932 0.71700001 4291215034
-0.057961464 -0.15527819 0.71700001 4291149241
-0.056600727 -0.15527709 0.71700001 4291280055
-0.055240031 -0.15527603 0.71700001 4291280055
-0.054029658 -0.15570807 0.71899998 4291346100
-0.052518737 -0.15527391 0.71700001 4291412149
-0.051158138 -0.15527292 0.71700001 4291412399
-0.049797568 -0.1552719 0.71700001 4291346606
-0.048572138 -0.15570404 0.71899998 4291347119
-0.047076527 -0.15526998 0.71700001 4291347119
-0.045652289 -0.15505248 0.71600002 4291215534
-0.044293735 -0.15505157 0.71600002 4291149741
-0.042935219 -0.15505068 0.71600002 4291017651
-0.041460581 -0.15461668 0.71399999 4291017651
-0.040105902 -0.15461582 0.71399999 4291017651
-0.038859811 -0.1550481 0.71600002 4291083444
-0.037396643 -0.1546142 0.71399999 4290951346
-0.036042038 -0.15461338 0.71399999 4290951346
-0.034687478 -0.15461265 0.71399999 4290951346
-0.033332925 -0.15461189 0.71399999 4291017139
-0.031978399 -0.15461114 0.71399999 4290951857
-0.030623902 -0.15461044 0.71399999 4290951857
-0.029351411 -0.15504286 0.71600002 4290886066
-0.027993158 -0.15504219 0.71600002 4290886066
-0.02663492 -0.15504155 0.71600002 4290951857
-0.025276706 -0.1550409 0.71600002 4291083444
-0.023918513 -0.15504031 0.71600002 4291017651
-0.022560339 -0.15503976 0.71600002 4291017651
-0.021231791 -0.15525573 0.71700001 4291148467
-0.019871749 -0.1552552 0.71700001 4291148467
-0.018589184 -0.15590431 0.72000003 4291148467
-0.017223483 -0.15590379 0.72000003 4291148467
-0.015857799 -0.15590332 0.72000003 4291148469
-0.01449213 -0.15590291 0.72000003 4291674813
-0.013126471 -0.15590248 0.72000003 4291477940
-0.011760826 -0.15590209 0.72000003 4291412147
-0.010395192 -0.15590172 0.72000003 4291411895
-0.0090295682 -0.15590136 0.72000003 4291477688
-0.0076852436 -0.15633407 0.722 4291477688
-0.0063158465 -0.15633377 0.722 4291477688
-0.0049533076 -0.15655001 0.72299999 4291477688
-0.0035820312 -0.15654977 0.72299999 4291477688
-0.0022168756 -0.15698259 0.72500002 4291609022
-0.00084413966 -0.15741543 0.727 4291609022
0.00053544168 -0.15763175 0.72799999 4291740858
0.0019214437 -0.15806466 0.73000002 4291740858
0.0033104995 -0.15828101 0.73100001 4291543995
0.0047097714 -0.15871397 0.73299998 4291478201
0.0060999827 -0.15871386 0.73299998 4291543995
0.0075004124 -0.15893032 0.73400003 4291610044
0.0089167478 -0.15936333 0.736 4291346617
0.01034067 -0.15979636 0.73799998 4291346617
0.011740363 -0.15979634 0.73799998 4291411897
0.013140058 -0.15979634 0.73799998 4291411897
0.014539753 -0.1597964 0.73799998 4291412156
-0.082072273 -0.15844512 0.73799998 4291742145
-0.08023382 -0.15758495 0.73400003 4292004296
-0.078732841 -0.15736888 0.73299998 4292004296
-0.077024683 -0.15672345 0.73000002 4291807938
-0.075638801 -0.15672214 0.73000002 4291742145
-0.074252948 -0.15672082 0.73000002 4291676098
-0.072867148 -0.15671952 0.73000002 4291610305
-0.071285538 -0.15628883 0.72799999 4291543999
-0.069327481 -0.15499949 0.722 4291477950
-0.067956984 -0.15499826 0.722 4291478204
-0.066586524 -0.15499704 0.722 4291478204
-0.065035455 -0.1545665 0.72000003 4291346617
-0.063668862 -0.15456532 0.72000003 4291215032
-0.062302317 -0.15456416 0.72000003 4291148471
-0.060681906 -0.15391898 0.71700001 4291280057
-0.059321109 -0.15391783 0.71700001 4291149239
-0.058122035 -0.15434605 0.71899998 4291149239
-0.056757528 -0.15434499 0.71899998 4291149239
-0.05562418 -0.15498789 0.722 4291083446
-0.054103758 -0.15455751 0.72000003 4291214516
-0.052517708 -0.15391247 0.71700001 4291148467
-0.051157128 -0.15391144 0.71700001 4291017902
-0.049935486 -0.15433981 0.71899998 4291083696
-0.048571162 -0.15433881 0.71899998 4291214250
-0.04707557 -0.15390854 0.71700001 4291214250
-0.045715112 -0.1539076 0.71700001 4291148459
-0.044292834 -0.15369204 0.71600002 4291148459
-0.042934328 -0.15369114 0.71600002 4291017904
-0.041575853 -0.15369026 0.71600002 4291017904
-0.040217407 -0.15368941 0.71600002 4290951344
-0.038858987 -0.15368858 0.71600002 4290951344
-0.03750059 -0.15368778 0.71600002 4291017137
-0.036041263 -0.15325767 0.71399999 4290885551
-0.034686718 -0.15325692 0.71399999 4290819504
-0.033332188 -0.15325616 0.71399999 4290951346
-0.031977687 -0.15325545 0.71399999 4290754735
-0.030623207 -0.15325473 0.71399999 4290754735
-0.029350737 -0.15368335 0.71600002 4290754735
-0.027992504 -0.15368269 0.71600002 4290886064
-0.026634291 -0.15368204 0.71600002 4290952111
-0.0252761 -0.15368144 0.71600002 4290952111
-0.023951333 -0.15389547 0.71700001 4290951857
-0.022591284 -0.15389492 0.71700001 4291017651
-0.02129047 -0.15432362 0.71899998 4291017904
-0.019926658 -0.15432307 0.71899998 4291017904
-0.018588683 -0.15453723 0.72000003 4291148467
-0.01722301 -0.15453675 0.72000003 4291214516
-0.015901394 -0.15496552 0.722 4291214516
-0.014531951 -0.1549651 0.722 4291280309
-0.013162525 -0.15496467 0.722 4291214512
-0.011793109 -0.15496427 0.722 4291214512
-0.010423705 -0.1549639 0.722 4290951857
-0.0090543106 -0.15496355 0.722 4291346615
-0.007695572 -0.15517786 0.72299999 4291346613
-0.0063243015 -0.15517756 0.72299999 4291346613
-0.0049530384 -0.15517728 0.72299999 4291412408
-0.0035916928 -0.15560628 0.72500002 4291412408
-0.0022166518 -0.15560608 0.72500002 4291412408
-0.00084509951 -0.15624972 0.72799999 4291478201
0.00053709117 -0.1566788 0.73000002 4291478455
0.0019242312 -0.15689327 0.73100001 4291478455
0.0033196895 -0.15732238 0.73299998 4291478455
0.0047163051 -0.15753689 0.73400003 4291478455
0.0061083902 -0.1575368 0.73400003 4291478201
0.0075209108 -0.15796596 0.736 4291478201
0.0089410162 -0.15839516 0.73799998 4291215032
0.010340684 -0.15839514 0.73799998 4291346617
0.011740352 -0.15839513 0.73799998 4291346613
0.013157832 -0.15860979 0.73900002 4291346613
0.0145594 -0.15860982 0.73900002 4291215286
-0.080232456 -0.15619121 0.73400003 4291610055
-0.078838892 -0.15618983 0.73400003 4291675848
-0.077339865 -0.15597568 0.73299998 4291676098
-0.075948305 -0.15597436 0.73299998 4291676098
-0.074353352 -0.15554745 0.73100001 4291609538
-0.072865851 -0.15533337 0.73000002 4291675587
-0.071480095 -0.15533209 0.73000002 4291543999
-0.069902353 -0.15490524 0.72799999 4291609792
-0.067955755 -0.15362734 0.722 4291478204
-0.066585317 -0.1536261 0.722 4291543997
-0.065034263 -0.15319934 0.72000003 4291148987
-0.063667692 -0.15319818 0.72000003 4291148987
-0.062733799 -0.15426087 0.72500002 4291017401
-0.061188549 -0.15383418 0.72299999 4291083194
-0.059816398 -0.15383305 0.72299999 4291083448
-0.058363445 -0.15361917 0.722 4291083448
-0.056993265 -0.15361807 0.722 4291017655
-0.055623114 -0.15361701 0.722 4291017655
-0.054102711 -0.15319039 0.72000003 4291017651
-0.05273642 -0.15318938 0.72000003 4290886064
-0.051370177 -0.15318835 0.72000003 4291148467
-0.049934495 -0.15297459 0.71899998 4291280309
-0.048570193 -0.15297361 0.71899998 4291148718
-0.047074635 -0.15254717 0.71700001 4291148718
-0.045714192 -0.15254623 0.71700001 4290951598
-0.044353783 -0.15254529 0.71700001 4290951598
-0.042993408 -0.15254441 0.71700001 4290952107
-0.041633058 -0.15254354 0.71700001 4291017900
-0.040272731 -0.1525427 0.71700001 4290951598
-0.038912438 -0.15254188 0.71700001 4290951598
-0.037499793 -0.15232831 0.71600002 4291016619
-0.036141444 -0.15232751 0.71600002 4291016619
-0.034783121 -0.15232675 0.71600002 4290885551
-0.033424828 -0.15232603 0.71600002 4290819758
-0.032066546 -0.15232529 0.71600002 4290688942
-0.030708298 -0.15232462 0.71600002 4290688942
-0.029391058 -0.15253666 0.71700001 4290623658
-0.027991857 -0.15232326 0.71600002 4290623658
-0.026633665 -0.15232262 0.71600002 4290886314
-0.025275499 -0.15232199 0.71600002 4290952107
-0.023950752 -0.15253414 0.71700001 4290952111
-0.022653734 -0.15295903 0.71899998 4291083698
-0.021289928 -0.1529585 0.71899998 4291017900
-0.019953856 -0.15317072 0.72000003 4290952107
-0.018588187 -0.15317023 0.72000003 4290952111
-0.017270375 -0.15359519 0.722 4291017904
-0.015900943 -0.15359475 0.722 4291083698
-0.014531524 -0.15359429 0.722 4291017904
-0.013162119 -0.15359388 0.722 4291083444
-0.011809059 -0.15380622 0.72299999 4291215286
-0.010437782 -0.15380585 0.72299999 4291149239
-0.0090665147 -0.15380548 0.72299999 4291478204
-0.0076952572 -0.15380517 0.72299999 4291346867
-0.0063240095 -0.15380485 0.72299999 4291346867
-0.0049527707 -0.15380459 0.72299999 4291346615
-0.0035914476 -0.1542298 0.72500002 4291215286
-0.0022256009 -0.15486775 0.72799999 4291346613
-0.000847221 -0.15529302 0.73000002 4291478455
0.00053800386 -0.15550555 0.73100001 4291412406
0.0019296495 -0.15593083 0.73299998 4291412406
0.0033243489 -0.15614344 0.73400003 4291412406
0.004729264 -0.15656877 0.736 4291412406
0.0061251177 -0.15656868 0.736 4291412149
0.0075414083 -0.15699406 0.73799998 4291214514
0.0089410534 -0.15699403 0.73799998 4291149239
0.010340699 -0.156994 0.73799998 4291346617
0.011740344 -0.15699399 0.73799998 4291346613
-0.079052351 -0.1552179 0.736 4291282374
-0.077338524 -0.15458387 0.73299998 4291807168
-0.075946979 -0.15458256 0.73299998 4291872961
-0.074555472 -0.15458122 0.73299998 4291675587
-0.073163994 -0.15457992 0.73299998 4291609538
-0.071576752 -0.15415688 0.73100001 4291477952
-0.070189156 -0.1541556 0.73100001 4291477952
-0.068707496 -0.15394348 0.73000002 4291346363
-0.067321889 -0.15394226 0.73000002 4291477950
-0.065755658 -0.15351927 0.72799999 4291148987
-0.064373918 -0.15351808 0.72799999 4291148987
-0.062905699 -0.15330605 0.727 4291149241
-0.061356675 -0.15288316 0.72500002 4291149241
-0.059980746 -0.15288202 0.72500002 4291083446
-0.058443181 -0.15245917 0.72299999 4291083446
-0.056992177 -0.15224719 0.722 4291017653
-0.055622049 -0.15224612 0.722 4291083446
-0.054101672 -0.15182334 0.72000003 4291148469
-0.052735403 -0.15182233 0.72000003 4291017139
-0.051369175 -0.15182132 0.72000003 4290819504
-0.050002959 -0.15182032 0.72000003 4290885553
-0.048636794 -0.15181933 0.72000003 4291016367
-0.047204997 -0.15160753 0.71899998 4291016367
-0.045840785 -0.15160659 0.71899998 4290951598
-0.044352885 -0.15118396 0.71700001 4290951598
-0.042992525 -0.15118307 0.71700001 4291016619
-0.041748326 -0.15160394 0.71899998 4291082412
-0.040384226 -0.15160309 0.71899998 4290819497
-0.039020158 -0.15160224 0.71899998 4290819497
-0.037656117 -0.15160143 0.71899998 4290621861
-0.036292098 -0.15160066 0.71899998 4290950826
-0.034976687 -0.15181074 0.72000003 4291016619
-0.033564128 -0.15159912 0.71899998 4290950826
-0.032200191 -0.15159841 0.71899998 4290426535
-0.030836267 -0.15159771 0.71899998 4290623658
-0.029472372 -0.15159704 0.71899998 4290623912
-0.028108487 -0.15159637 0.71899998 4290557863
-0.02674463 -0.15159573 0.71899998 4290820010
-0.025416099 -0.15180598 0.72000003 4290885803
-0.024016974 -0.15159452 0.71899998 4290819245
-0.022653176 -0.15159395 0.71899998 4290950574
-0.021319004 -0.15180427 0.72000003 4290950826
-0.019953344 -0.15180375 0.72000003 4291148205
-0.018587694 -0.15180324 0.72000003 4291017904
-0.017269904 -0.15222442 0.722 4291017904
-0.015922515 -0.15243478 0.72299999 4291017904
-0.014551223 -0.15243436 0.72299999 4291083698
-0.013252864 -0.15327729 0.727 4291083444
-0.011890342 -0.15348773 0.72799999 4291149493
-0.010538478 -0.15390904 0.73000002 4291149493
-0.0091163386 -0.15327618 0.727 4291149493
-0.0077375178 -0.15327586 0.727 4291149491
-0.0063674534 -0.15348639 0.72799999 4291215284
-0.0050210049 -0.15454029 0.73299998 4291017653
-0.0036308307 -0.15454 0.73299998 4291083446
-0.0022406636 -0.15453976 0.73299998 4291083444
-0.00085050345 -0.15453956 0.73299998 4291149493
0.00053965161 -0.15453938 0.73299998 4291215284
0.001932435 -0.15475006 0.73400003 4291149491
0.0033335364 -0.15517159 0.736 4291083444
0.004742221 -0.15559311 0.73799998 4291083444
0.0061418451 -0.15559304 0.73799998 4291279796
0.0075516859 -0.15580378 0.73900002 4291279796
0.0089532025 -0.15580373 0.73900002 4291017139
0.010354723 -0.15580373 0.73900002 4291477690
-0.07883618 -0.15340243 0.73400003 4290625477
-0.077442706 -0.15340111 0.73400003 4291478717
-0.076049276 -0.15339978 0.73400003 4292070854
-0.074655883 -0.15339847 0.73400003 4291806662
-0.073262528 -0.15339716 0.73400003 4291675333
-0.071771294 -0.15318686 0.73299998 4291477700
-0.070379928 -0.15318561 0.73299998 4291806664
-0.068988614 -0.15318437 0.73299998 4291477952
-0.067597322 -0.15318313 0.73299998 4291609538
-0.066025436 -0.15276398 0.73100001 4291214784
-0.064372733 -0.15213585 0.72799999 4291148991
-0.062904537 -0.15192573 0.727 4291148987
-0.061524782 -0.15192455 0.727 4291148987
-0.059979618 -0.15150547 0.72500002 4291083446
-0.058442079 -0.15108642 0.72299999 4291083446
-0.0569911 -0.15087637 0.722 4290951859
-0.055620994 -0.15087532 0.722 4291017653
-0.054250907 -0.15087426 0.722 4290886066
-0.052880865 -0.15087323 0.722 4290754481
-0.051510856 -0.15087222 0.722 4290819508
-0.050001983 -0.15045331 0.72000003 4290753459
-0.048635833 -0.15045235 0.72000003 4290819506
-0.047204059 -0.1502424 0.71899998 4290753713
-0.045839857 -0.15024148 0.71899998 4290819758
-0.044475708 -0.1502406 0.71899998 4290885551
-0.04311157 -0.15023971 0.71899998 4290950826
-0.041747466 -0.15023884 0.71899998 4290819497
-0.040439561 -0.15044695 0.72000003 4290950824
-0.039073613 -0.15044612 0.72000003 4290950824
-0.037707694 -0.15044534 0.72000003 4290687404
-0.036341801 -0.15044454 0.72000003 4290818991
-0.034975935 -0.15044379 0.72000003 4290950824
-0.033610083 -0.15044303 0.72000003 4290950824
-0.032244269 -0.15044232 0.72000003 4290426538
-0.030878466 -0.1504416 0.72000003 4290557867
-0.029512696 -0.15044093 0.72000003 4290623397
-0.028146941 -0.15044029 0.72000003 4290623397
-0.026781203 -0.15043963 0.72000003 4290688942
-0.025415493 -0.15043904 0.72000003 4290688942
-0.024116607 -0.15085633 0.722 4290753711
-0.02274714 -0.15085576 0.722 4290753711
-0.021318469 -0.15043734 0.72000003 4290819504
-0.019952828 -0.15043682 0.72000003 4291148469
-0.018638836 -0.15085419 0.722 4291017900
-0.017269434 -0.15085371 0.722 4291017900
-0.016010158 -0.15189792 0.727 4291017902
-0.014631301 -0.15189749 0.727 4290952109
-0.013252459 -0.15189709 0.727 4291083698
-0.011922626 -0.1525235 0.73000002 4291149491
-0.010538118 -0.15252313 0.73000002 4291083698
-0.0091661606 -0.15273172 0.73100001 4291083698
-0.0077797771 -0.1527314 0.73100001 4291149491
-0.0064108949 -0.15314896 0.73299998 4291215284
-0.0050207367 -0.15314868 0.73299998 4291083446
-0.0036454459 -0.15377523 0.736 4290886066
-0.0022496125 -0.15377499 0.736 4290951605
-0.00085378595 -0.1537748 0.736 4291149241
0.00054203533 -0.1537746 0.736 4291149491
0.001937852 -0.15377447 0.736 4291149491
0.003342723 -0.15419216 0.73799998 4291017653
0.0047423257 -0.15419205 0.73799998 4291017653
0.0061419262 -0.15419196 0.73799998 4291148471
0.0075824005 -0.15502761 0.74199998 4291148471
0.0089895846 -0.15502758 0.74199998 4291083448
0.010396768 -0.15502755 0.74199998 4291806914
-0.080231085 -0.15470105 0.74699998 4290757075
-0.078707442 -0.15449262 0.74599999 4291215297
-0.077084027 -0.15407707 0.74400002 4291675848
-0.075366534 -0.15345447 0.741 4291675585
-0.073760301 -0.15303899 0.73900002 4291675585
-0.072357513 -0.1530377 0.73900002 4291477954
-0.070474707 -0.15200101 0.73400003 4291477954
-0.069081493 -0.15199977 0.73400003 4291215036
-0.067596108 -0.15179145 0.73299998 4291477952
-0.066204868 -0.15179023 0.73299998 4291214784
-0.064636834 -0.15137488 0.73100001 4291148991
-0.062989905 -0.1507525 0.72799999 4291148987
-0.061608288 -0.15075135 0.72799999 4291148987
-0.060143963 -0.15054314 0.727 4291018166
-0.05860265 -0.15012787 0.72500002 4291018166
-0.057068963 -0.14971267 0.72299999 4290623410
-0.055696968 -0.14971159 0.72299999 4290820789
-0.054249875 -0.14950348 0.722 4290623410
-0.052879855 -0.14950246 0.722 4290623410
-0.051509861 -0.14950144 0.722 4290622895
-0.050139897 -0.14950047 0.722 4290688688
-0.048769973 -0.14949951 0.722 4290688688
-0.047268774 -0.14908443 0.72000003 4290622895
-0.045902703 -0.14908351 0.72000003 4290688170
-0.044536669 -0.1490826 0.72000003 4290753963
-0.043170664 -0.14908174 0.72000003 4290688167
-0.041804679 -0.14908086 0.72000003 4290688167
-0.040438719 -0.14908001 0.72000003 4290688421
-0.039072797 -0.14907919 0.72000003 4290688421
-0.037706904 -0.1490784 0.72000003 4290621863
-0.036441974 -0.14949173 0.722 4290621863
-0.035072334 -0.14949095 0.722 4290622115
-0.033702716 -0.14949022 0.722 4290753701
-0.032333124 -0.14948951 0.722 4290491558
-0.030963553 -0.14948879 0.722 4290557351
-0.029594008 -0.14948812 0.722 4290557603
-0.028224481 -0.14948747 0.722 4290623397
-0.026854971 -0.14948681 0.722 4290622893
-0.02548549 -0.14948623 0.722 4290688942
-0.024149425 -0.14969267 0.72299999 4290688942
-0.022778085 -0.1496921 0.72299999 4290688942
-0.021377152 -0.14948453 0.722 4290688688
-0.020007743 -0.14948402 0.722 4290754481
-0.018638346 -0.14948352 0.722 4290754987
-0.017388558 -0.15051824 0.727 4290952109
-0.016009711 -0.15051778 0.727 4290886062
-0.014651003 -0.15072438 0.72799999 4290886062
-0.013270288 -0.15072396 0.72799999 4290951598
-0.011938579 -0.1513447 0.73100001 4290951598
-0.010552196 -0.1513443 0.73100001 4290951598
-0.0091658253 -0.15134396 0.73100001 4290885549
-0.0077794665 -0.15134367 0.73100001 4290754735
-0.0064193523 -0.15196447 0.73400003 4290886064
-0.0050273212 -0.15196422 0.73400003 4290886837
-0.0036452019 -0.15237801 0.736 4290754994
-0.0022493927 -0.15237778 0.736 4290624178
-0.00085590873 -0.15279163 0.73799998 4290755507
0.00054073526 -0.15196332 0.73400003 4290623406
0.0019327356 -0.15196317 0.73400003 4290886835
0.0033428501 -0.15279116 0.73799998 4291018166
0.0047617075 -0.15341213 0.741 4291018166
0.0061669736 -0.15341203 0.741 4291017904
0.0075722383 -0.15341198 0.741 4291149491
0.0091955792 -0.15713854 0.759 4291346363
-0.080229715 -0.15328278 0.74699998 4293782772
-0.078706086 -0.15307622 0.74599999 4292072921
-0.077289909 -0.15307489 0.74599999 4290822597
-0.075670354 -0.15266317 0.74400002 4291216060
-0.074058428 -0.15225148 0.74199998 4291742405
-0.07255207 -0.15204501 0.741 4291741639
-0.070857503 -0.15142818 0.73799998 4291741639
-0.069268487 -0.15101658 0.736 4291543747
-0.067871548 -0.15101534 0.736 4291609540
-0.066474639 -0.15101413 0.736 4291148991
-0.064900927 -0.15060259 0.73400003 4291148991
-0.063421369 -0.15039624 0.73299998 4291148987
-0.062030274 -0.15039511 0.73299998 4291148987
-0.060473766 -0.14998361 0.73100001 4291018164
-0.059005711 -0.14977734 0.73000002 4291018164
-0.057620414 -0.14977624 0.73000002 4290821043
-0.056004051 -0.14915965 0.727 4291083959
-0.054323979 -0.14833793 0.72299999 4290623156
-0.052952081 -0.14833692 0.72299999 4290557363
-0.051722895 -0.14874627 0.72500002 4290753961
-0.050208367 -0.14833492 0.72299999 4290753961
-0.048769016 -0.14812879 0.722 4290622893
-0.047399145 -0.14812785 0.722 4290557100
-0.046029303 -0.14812693 0.722 4290556840
-0.044659484 -0.14812602 0.722 4290556840
-0.043289702 -0.14812514 0.722 4290621861
-0.041919947 -0.14812428 0.722 4290621861
-0.040550224 -0.14812344 0.722 4290556320
-0.039180517 -0.14812262 0.722 4290622113
-0.037810847 -0.14812182 0.722 4290687143
-0.036491677 -0.1483262 0.72299999 4290687143
-0.035217311 -0.14873576 0.72500002 4290621861
-0.033842023 -0.148735 0.72500002 4290687654
-0.032466762 -0.14873429 0.72500002 4290556838
-0.031005751 -0.14832327 0.72299999 4290688167
-0.02963433 -0.14832263 0.72299999 4290491549
-0.028262932 -0.14832194 0.72299999 4290557342
-0.027077518 -0.14934707 0.72799999 4290688167
-0.025696676 -0.14934646 0.72799999 4290753961
-0.024282455 -0.14914072 0.727 4290819497
-0.022840539 -0.14872988 0.72500002 4290819497
-0.021465443 -0.14872932 0.72500002 4290753452
-0.020145785 -0.14913908 0.727 4290753452
-0.01876693 -0.14913857 0.727 4290622893
-0.017459843 -0.14975356 0.73000002 4290886064
-0.01607533 -0.14975308 0.73000002 4290754987
-0.014690829 -0.14975265 0.73000002 4290754987
-0.013361027 -0.15036766 0.73299998 4291016619
-0.011970863 -0.15036726 0.73299998 4291082412
-0.01058071 -0.1503669 0.73299998 4290885551
-0.0091905696 -0.15036656 0.73299998 4290819758
-0.0078004398 -0.15036623 0.73299998 4290819504
-0.0064190654 -0.15057109 0.73400003 4290885553
-0.0050270567 -0.15057081 0.73400003 4290689203
-0.0036449609 -0.15098082 0.736 4290754996
-0.0022491743 -0.15098059 0.736 4290886064
-0.00085339439 -0.1509804 0.736 4290951857
0.00054090645 -0.15056995 0.73400003 4290688949
0.0019328832 -0.15056978 0.73400003 4291017914
0.0033248565 -0.15056966 0.73400003 4291149493
0.0048774816 -0.15569793 0.759 4291083444
0.0063168602 -0.15569784 0.759 4291738800
0.007756236 -0.15569775 0.759 4292791231
0.0091956118 -0.15569772 0.759 4292331716
-0.080228351 -0.15186454 0.74699998 4294967295
-0.078810237 -0.15186319 0.74699998 4293324019
-0.077288568 -0.15165855 0.74599999 4291416022
-0.075669043 -0.15125068 0.74400002 4291085256
-0.074057139 -0.15084277 0.74199998 4291348428
-0.072550789 -0.15063821 0.741 4291478717
-0.070952274 -0.15023039 0.73900002 4291676096
-0.069549598 -0.15022913 0.73900002 4291543745
-0.068146974 -0.15022792 0.73900002 4291543745
-0.066654071 -0.15002342 0.73799998 4291148991
-0.065076582 -0.14961566 0.736 4291148991
-0.06350673 -0.14920795 0.73400003 4291148989
-0.062029134 -0.14900352 0.73299998 4291148989
-0.060638092 -0.14900239 0.73299998 4291017912
-0.059247095 -0.14900127 0.73299998 4291017912
-0.057935059 -0.14920348 0.73400003 4290689203
-0.05654224 -0.14920242 0.73400003 4290689203
-0.054924034 -0.14859152 0.73100001 4290557104
-0.053463735 -0.14838725 0.73000002 4290688690
-0.051864576 -0.14777642 0.727 4291016367
-0.050346281 -0.14736891 0.72500002 4290753452
-0.048835609 -0.14696139 0.72299999 4290358953
-0.04746386 -0.14696047 0.72299999 4290490795
-0.046028398 -0.14675629 0.722 4290426538
-0.044658594 -0.14675538 0.722 4290426538
-0.043288827 -0.1467545 0.722 4290687654
-0.041919105 -0.14675365 0.722 4290687654
-0.04054939 -0.1467528 0.722 4290818724
-0.039233983 -0.14695525 0.72299999 4290884517
-0.037862431 -0.14695446 0.72299999 4290884266
-0.03659185 -0.14736019 0.72500002 4290818472
-0.035216562 -0.14735945 0.72500002 4290425252
-0.033981331 -0.14796847 0.72799999 4290688167
-0.032600395 -0.14796774 0.72799999 4290753961
-0.03117661 -0.1477638 0.727 4290688167
-0.029797625 -0.14776315 0.727 4290425504
-0.028457744 -0.14796574 0.72799999 4290688419
-0.027188487 -0.14857484 0.73100001 4290950824
-0.025766674 -0.14837098 0.73000002 4290950824
-0.024382081 -0.1483704 0.73000002 4290819493
-0.022902992 -0.14776008 0.727 4290819493
-0.021524126 -0.14775954 0.727 4290819243
-0.020256117 -0.148572 0.73100001 4290753450
-0.018921325 -0.14897799 0.73299998 4290557100
-0.017531127 -0.1489775 0.73299998 4290688942
-0.016140949 -0.14897707 0.73299998 4290688938
-0.014750781 -0.14897665 0.73299998 4290754987
-0.013378855 -0.14917947 0.73400003 4290688942
-0.011986816 -0.14917907 0.73400003 4290688942
-0.010594792 -0.14917871 0.73400003 4290885553
-0.0092027783 -0.14917839 0.73400003 4290885553
-0.0078320559 -0.14958452 0.736 4290885553
-0.0064362683 -0.14958423 0.736 4290885553
-0.005040491 -0.14958397 0.736 4290886064
-0.003654625 -0.14999016 0.73799998 4290886064
-0.002248958 -0.14958349 0.736 4291082666
-0.00085320103 -0.14958328 0.736 4291082666
0.00054107601 -0.14917663 0.73400003 4290951346
0.0019330297 -0.14917646 0.73400003 4291280055
0.0033249799 -0.14917633 0.73400003 4291346617
0.0048775859 -0.15425718 0.759 4291346617
0.0063169398 -0.15425706 0.759 4291869616
0.0077562933 -0.154257 0.759 4292659132
0.0091956453 -0.15425697 0.759 4293380833
0.010634998 -0.15425694 0.759 4293380833
-0.078808904 -0.15044501 0.74699998 4294967295
-0.07739085 -0.15044367 0.74699998 4294967295
-0.075667731 -0.14983818 0.74400002 4293585903
-0.074055858 -0.1494341 0.74199998 4291480784
-0.072647437 -0.14943282 0.74199998 4290624443
-0.070951022 -0.14882742 0.73900002 4290756030
-0.069548376 -0.14882618 0.73900002 4291347136
-0.068145774 -0.14882496 0.73900002 4291610051
-0.066652879 -0.14862235 0.73799998 4291544260
-0.06507542 -0.14821842 0.736 4291544260
-0.06367863 -0.14821726 0.736 4291214784
-0.062112633 -0.14781336 0.73400003 4291148991
-0.060719714 -0.14781223 0.73400003 4291083196
-0.059326831 -0.14781114 0.73400003 4291083196
-0.058091842 -0.14821281 0.736 4290754998
-0.056541178 -0.14780898 0.73400003 4290754998
-0.055073265 -0.14760655 0.73299998 4290689203
-0.053535964 -0.1472028 0.73100001 4290754996
-0.052148942 -0.14720178 0.73100001 4290753713
-0.050484195 -0.14639533 0.727 4290687920
-0.048969757 -0.14599164 0.72500002 4290425263
-0.047594227 -0.14599068 0.72500002 4290491056
-0.046091229 -0.14558704 0.72299999 4290688170
-0.044719566 -0.14558616 0.72299999 4290753963
-0.043347921 -0.14558527 0.72299999 4290621611
-0.041976314 -0.14558442 0.72299999 4290621611
-0.040604729 -0.1455836 0.72299999 4290556070
-0.039341703 -0.14598548 0.72500002 4290556070
-0.038071115 -0.14638743 0.727 4290621611
-0.036692027 -0.14638664 0.727 4290687404
-0.03536154 -0.14658725 0.72799999 4290621863
-0.034073953 -0.14698921 0.73000002 4290950572
-0.032734036 -0.14718989 0.73100001 4290687656
-0.031218804 -0.14658509 0.72799999 4290621863
-0.029837942 -0.14658442 0.72799999 4290491047
-0.028574374 -0.14718783 0.73100001 4290688170
-0.027262248 -0.14758989 0.73299998 4290688167
-0.025871964 -0.1475893 0.73299998 4290753961
-0.024414904 -0.14718601 0.73100001 4290688419
-0.023028456 -0.14718546 0.73100001 4290820006
-0.021701235 -0.14758761 0.73299998 4290426535
-0.020311028 -0.14758708 0.73299998 4290360742
-0.018920835 -0.14758657 0.73299998 4290491054
-0.017554581 -0.14778747 0.73400003 4290557104
-0.016162526 -0.14778702 0.73400003 4290623406
-0.014770482 -0.14778657 0.73400003 4290886835
-0.01341491 -0.14818886 0.736 4290623408
-0.012019102 -0.14818849 0.736 4290557615
-0.01066661 -0.14879215 0.73900002 4290688688
-0.009265136 -0.14879179 0.73900002 4290688688
-0.0078636725 -0.14879148 0.73900002 4290819504
-0.0064622192 -0.14879118 0.73900002 4290819504
-0.0050607752 -0.14879091 0.73900002 4290819758
-0.0036593385 -0.14879066 0.73900002 4290819758
-0.0022640198 -0.14919309 0.741 4290950311
-0.0008588045 -0.1491929 0.741 4291082153
0.00054714305 -0.14939407 0.74199998 4290951344
0.0019542447 -0.1493939 0.74199998 4291609017
0.0034202337 -0.15201117 0.755 4291543997
0.0048519815 -0.15201107 0.755 4291609790
0.0063003735 -0.15241367 0.75700003 4289375655
0.007735909 -0.15241358 0.75700003 4284835938
0.0091956751 -0.15281622 0.759 4283983282
0.010635004 -0.15281622 0.759 4283917489
-0.077285938 -0.14882605 0.74599999 4294967295
-0.075869836 -0.14882474 0.74599999 4294967295
-0.074453801 -0.14882345 0.74599999 4292927460
-0.07284198 -0.14842319 0.74400002 4291873491
-0.071141794 -0.14782348 0.741 4290952389
-0.069547154 -0.14742325 0.73900002 4291412160
-0.068144567 -0.14742206 0.73900002 4291543747
-0.066651702 -0.14722136 0.73799998 4291478463
-0.06507425 -0.1468212 0.736 4291544512
-0.063677482 -0.14682007 0.736 4291083455
-0.062111497 -0.14641996 0.73400003 4291083455
-0.060718603 -0.14641885 0.73400003 4291083194
-0.059487388 -0.1468167 0.736 4291148987
-0.058090761 -0.14681561 0.736 4291017401
-0.056540128 -0.14641561 0.73400003 4290951607
-0.055147368 -0.14641456 0.73400003 4290754994
-0.053681415 -0.14621407 0.73299998 4290821043
-0.05229063 -0.14621307 0.73299998 4290557361
-0.050760996 -0.14581315 0.73100001 4290426032
-0.04917144 -0.14521378 0.72799999 4290491056
-0.047724597 -0.14501338 0.727 4290491056
-0.046090327 -0.14421459 0.72299999 4290425261
-0.044718683 -0.14421372 0.72299999 4290425261
-0.043347064 -0.14421284 0.72299999 4290358694
-0.042091589 -0.14461091 0.72500002 4290555816
-0.040716227 -0.14461008 0.72500002 4290425002
-0.039449427 -0.14500821 0.727 4290358953
-0.038070332 -0.14500739 0.727 4290556840
-0.036741734 -0.14520608 0.72799999 4290491047
-0.035360802 -0.14520533 0.72799999 4290425002
-0.034073234 -0.14560352 0.73000002 4290687918
-0.032822885 -0.14620115 0.73299998 4290621863
-0.031346776 -0.14580157 0.73100001 4290621863
-0.029960245 -0.14580089 0.73100001 4290490021
-0.028651912 -0.14619917 0.73299998 4290490021
-0.027261628 -0.14619851 0.73299998 4290424998
-0.025871366 -0.14619792 0.73299998 4290491047
-0.024481129 -0.14619733 0.73299998 4290162594
-0.023090908 -0.14619677 0.73299998 4290623145
-0.021700706 -0.14619626 0.73299998 4290557613
-0.020310521 -0.14619571 0.73299998 4290426284
-0.018946165 -0.14639467 0.73400003 4290294443
-0.017554117 -0.14639419 0.73400003 4290426286
-0.016162084 -0.14639375 0.73400003 4290557613
-0.014770067 -0.14639333 0.73400003 4290821041
-0.013414514 -0.14679182 0.736 4290558383
-0.012067719 -0.14738977 0.73900002 4290426797
-0.010666257 -0.1473894 0.73900002 4290557615
-0.0092648063 -0.14738905 0.73900002 4290623408
-0.007863366 -0.14738873 0.73900002 4290819758
-0.0064619356 -0.14738844 0.73900002 4290753965
-0.00507421 -0.14778705 0.741 4290884517
-0.0036690049 -0.14778683 0.741 4291016104
-0.0022638056 -0.14778659 0.741 4291016619
-0.00085861335 -0.14778639 0.741 4291213998
0.00054878643 -0.14838454 0.74400002 4291476657
0.0019754611 -0.14958102 0.75 4292003001
0.0034158272 -0.15037864 0.75400001 4292466132
0.0048520821 -0.15057801 0.755 4292202704
0.0063004489 -0.15097679 0.75700003 4286951327
0.0077359625 -0.15097672 0.75700003 4280963907
0.0091957059 -0.15137556 0.759 4278200190
0.010635011 -0.15137555 0.759 4278198906
-0.07597024 -0.14760615 0.74699998 4294967295
-0.074452527 -0.14740729 0.74599999 4294967295
-0.072840728 -0.14701083 0.74400002 4294967295
-0.071236558 -0.14661439 0.74199998 4293651435
-0.069734156 -0.14641556 0.741 4292467159
-0.06814336 -0.14601919 0.73900002 4291217092
-0.066740841 -0.146018 0.73900002 4291479991
-0.06524992 -0.14581923 0.73799998 4291413942
-0.063849367 -0.14581807 0.73799998 4291544260
-0.062448852 -0.14581692 0.73799998 4291478467
-0.061048377 -0.14581582 0.73799998 4291412158
-0.059647951 -0.14581473 0.73799998 4291412158
-0.058247548 -0.14581364 0.73799998 4291083194
-0.056847185 -0.14581259 0.73799998 4291083194
-0.05514634 -0.14502124 0.73400003 4291018164
-0.053753644 -0.14502023 0.73400003 4290886835
-0.052360978 -0.14501925 0.73400003 4290688949
-0.050898902 -0.14482068 0.73299998 4290623156
-0.049508203 -0.14481972 0.73299998 4290688436
-0.047920607 -0.14422607 0.73000002 4290688436
-0.046408169 -0.14383003 0.72799999 4290490804
-0.045027055 -0.14382914 0.72799999 4290490804
-0.043645974 -0.14382827 0.72799999 4290687918
-0.04238103 -0.14422254 0.73000002 4290753711
-0.041052356 -0.14441925 0.73100001 4290621613
-0.039665673 -0.14441846 0.73100001 4290753200
-0.038226649 -0.14422011 0.73000002 4290687404
-0.03684191 -0.14421934 0.73000002 4290753198
-0.035505772 -0.14441615 0.73100001 4290687404
-0.034212533 -0.14481053 0.73299998 4290950576
-0.032822188 -0.1448098 0.73299998 4290753450
-0.031431857 -0.14480913 0.73299998 4291016621
-0.030041557 -0.14480849 0.73299998 4290556070
-0.028690366 -0.14500538 0.73400003 4290490021
-0.027298203 -0.14500475 0.73400003 4290425263
-0.025906067 -0.14500414 0.73400003 4290688436
-0.024480557 -0.14480601 0.73299998 4290360238
-0.023090361 -0.14480546 0.73299998 4290557361
-0.021700177 -0.14480491 0.73299998 4290426286
-0.020337727 -0.14500198 0.73400003 4290426286
-0.018945683 -0.14500147 0.73400003 4290623408
-0.017553655 -0.14500099 0.73400003 4290623408
-0.016161649 -0.14500056 0.73400003 4290623406
-0.01476965 -0.14500013 0.73400003 4290755248
-0.013468799 -0.14598747 0.73900002 4290754735
-0.012067346 -0.14598708 0.73900002 4290754735
-0.010665907 -0.14598671 0.73900002 4290819254
-0.0092644794 -0.14598639 0.73900002 4290885047
-0.0078843432 -0.14638115 0.741 4290687918
-0.0064791427 -0.14638087 0.741 4291017139
-0.005073952 -0.14638059 0.741 4291016869
-0.003668769 -0.14638035 0.741 4291346091
-0.0022635933 -0.14638011 0.741 4291018934
-0.00085958245 -0.14657749 0.74199998 4290492590
0.00055338041 -0.14815764 0.75 4290097314
0.001975606 -0.14815748 0.75 4290426535
0.0034159494 -0.14894749 0.75400001 4292662212
0.0048650345 -0.14954005 0.75700003 4293583314
0.0063171708 -0.14993504 0.759 4292534737
0.0077564539 -0.14993499 0.759 4292929495
0.0091957347 -0.14993495 0.759 4292139481
0.010635016 -0.14993493 0.759 4289770933
-0.074451253 -0.14599116 0.74599999 4294967295
-0.073035277 -0.14598987 0.74599999 4294967295
-0.071235329 -0.14520586 0.74199998 4294967295
-0.069732942 -0.14500894 0.741 4293651700
-0.068326592 -0.14500774 0.741 4292664549
-0.06692028 -0.14500657 0.741 4291480795
-0.065337181 -0.14461401 0.73900002 4291217623
-0.063934751 -0.14461286 0.73900002 4291150786
-0.062532358 -0.14461175 0.73900002 4291282372
-0.061129998 -0.14461063 0.73900002 4291346365
-0.059727684 -0.14460953 0.73900002 4291346365
-0.05832541 -0.14460847 0.73900002 4291017401
-0.05692317 -0.14460741 0.73900002 4291148987
-0.055445835 -0.14441067 0.73799998 4291083961
-0.053899106 -0.14401831 0.736 4291083961
-0.052502666 -0.14401731 0.736 4290688949
-0.051106256 -0.14401634 0.736 4290688949
-0.049709886 -0.1440154 0.736 4290688436
-0.048182264 -0.1436231 0.73400003 4290688436
-0.046726007 -0.14342652 0.73299998 4290491056
-0.045335419 -0.14342564 0.73299998 4290556850
-0.043944869 -0.14342476 0.73299998 4290753713
-0.042612407 -0.14361957 0.73400003 4290687920
-0.041220013 -0.14361873 0.73400003 4290687404
-0.039773397 -0.14342226 0.73299998 4290753198
-0.038382962 -0.14342149 0.73299998 4290687143
-0.036992557 -0.14342071 0.73299998 4290687143
-0.035602178 -0.14341998 0.73299998 4290686891
-0.034258496 -0.1436149 0.73400003 4290884014
-0.032866262 -0.14361417 0.73400003 4290621611
-0.031431179 -0.14341782 0.73299998 4290753198
-0.030040901 -0.14341718 0.73299998 4290687143
-0.028767906 -0.14400353 0.736 4290621350
-0.027371973 -0.14400288 0.736 4290489771
-0.025976066 -0.14400227 0.736 4290753200
-0.024580179 -0.14400171 0.736 4290688170
-0.023184318 -0.14400116 0.736 4290753963
-0.021729263 -0.14360933 0.73400003 4290294443
-0.020337224 -0.14360879 0.73400003 4290426286
-0.018945202 -0.1436083 0.73400003 4290754481
-0.017553199 -0.14360783 0.73400003 4290754481
-0.016161213 -0.14360739 0.73400003 4290754987
-0.014769239 -0.14360698 0.73400003 4290754987
-0.012115961 -0.14517137 0.74199998 4290949797
-0.010708856 -0.14517102 0.74199998 4290818474
-0.009301764 -0.14517069 0.74199998 4290950061
-0.0078946799 -0.14517038 0.74199998 4290621861
-0.0064876061 -0.14517008 0.74199998 4290950826
-0.0050805421 -0.14516981 0.74199998 4290950561
-0.0036734866 -0.14516959 0.74199998 4291740076
-0.002266437 -0.14516935 0.74199998 4290953936
0.00055649941 -0.14751673 0.75400001 4286349959
0.0019862868 -0.14751656 0.75400001 4287271061
0.0034296624 -0.14810337 0.75700003 4289108107
0.0048779859 -0.14849457 0.759 4291805619
0.0063172458 -0.14849447 0.759 4292335809
0.0077565033 -0.14849441 0.759 4293125582
0.0092199929 -0.14888567 0.76099998 4294499807
0.010663044 -0.14888564 0.76099998 4294696930
-0.071234107 -0.14379738 0.74199998 4294967295
-0.069825836 -0.14379618 0.74199998 4294967295
-0.068417601 -0.14379497 0.74199998 4294967295
-0.066919103 -0.14359999 0.741 4294045689
-0.065512843 -0.14359884 0.741 4291611348
-0.063933611 -0.14321013 0.73900002 4291347138
-0.062531233 -0.143209 0.73900002 4292004811
-0.061128899 -0.14320789 0.73900002 4291675587
-0.0597266 -0.1432068 0.73900002 4291609538
-0.058324352 -0.14320575 0.73900002 4291412158
-0.05692213 -0.14320469 0.73900002 4291215036
-0.055444822 -0.14300989 0.73799998 4291148989
-0.053898096 -0.14262129 0.736 4291148989
-0.052501678 -0.1426203 0.736 4291083448
-0.051105302 -0.14261937 0.736 4291017655
-0.04970894 -0.1426184 0.736 4290951607
-0.048312627 -0.14261745 0.736 4290885814
-0.04678886 -0.14222902 0.73400003 4290885814
-0.045396391 -0.14222813 0.73400003 4290754485
-0.044003963 -0.14222725 0.73400003 4290622645
-0.042727675 -0.14261395 0.736 4290688438
-0.041331518 -0.14261313 0.736 4290885551
-0.039826863 -0.14222479 0.73400003 4291017137
-0.038434554 -0.142224 0.73400003 4290818991
-0.037042268 -0.14222324 0.73400003 4290950576
-0.035650011 -0.14222248 0.73400003 4290819506
-0.034351122 -0.14260927 0.736 4290819506
-0.032955121 -0.14260857 0.736 4290818991
-0.031559151 -0.1426079 0.736 4290818991
-0.030163199 -0.14260723 0.736 4290884268
-0.02888453 -0.14318788 0.73900002 4290950061
-0.027445739 -0.14299348 0.73799998 4290622895
-0.025975483 -0.14260539 0.736 4290886066
-0.024579616 -0.1426048 0.736 4290755248
-0.023341268 -0.14357303 0.741 4290821041
-0.022113578 -0.14473501 0.74699998 4290754994
-0.020696912 -0.14473452 0.74699998 4290821043
-0.01928026 -0.14473401 0.74699998 4290754998
-0.017911455 -0.14512105 0.74900001 4290820791
0.0020048711 -0.14744177 0.76099998 4286479053
0.0034479054 -0.14744166 0.76099998 4286084934
0.0048909364 -0.14744154 0.76099998 4281347840
0.0063339658 -0.14744146 0.76099998 4282928128
0.0077769933 -0.14744139 0.76099998 4282138624
0.0092200199 -0.14744136 0.76099998 4283122461
-0.069824621 -0.14238773 0.74199998 4294967295
-0.068416409 -0.14238654 0.74199998 4294967295
-0.067008242 -0.14238536 0.74199998 4294176509
-0.065511696 -0.14219233 0.741 4291150032
-0.064105511 -0.1421912 0.741 4291476920
-0.062699348 -0.14219005 0.741 4292003264
-0.061293237 -0.14218897 0.741 4291872448
-0.059887163 -0.14218788 0.741 4291806655
-0.05832329 -0.14180306 0.73900002 4291478463
-0.056921098 -0.14180203 0.73900002 4291215547
-0.055518929 -0.14180098 0.73900002 4291148989
-0.0541168 -0.14179999 0.73900002 4291148989
-0.052857369 -0.14218277 0.741 4291083444
-0.051312648 -0.14179802 0.73900002 4291017651
-0.049910624 -0.14179707 0.73900002 4291017141
-0.04850864 -0.14179617 0.73900002 4291017141
-0.047042932 -0.14160335 0.73799998 4290885812
-0.045642897 -0.14160247 0.73799998 4290754483
-0.044242904 -0.14160159 0.73799998 4290622897
-0.042842943 -0.14160077 0.73799998 4290754483
-0.041443005 -0.14159995 0.73799998 4290885551
-0.040097363 -0.14179102 0.73900002 4291017137
-0.038695585 -0.14179023 0.73900002 4290687918
-0.037394769 -0.14217319 0.741 4290819504
-0.035989255 -0.14217243 0.741 4290950576
-0.03458377 -0.14217173 0.741 4290950576
-0.033178311 -0.14217101 0.741 4290950576
-0.031772874 -0.14217031 0.741 4290950576
-0.03036746 -0.14216967 0.741 4290884268
-0.029079329 -0.14274463 0.74400002 4290950061
-0.027593892 -0.14236027 0.74199998 4290622893
-0.026186647 -0.14235966 0.74199998 4290886064
-0.024779426 -0.14235908 0.74199998 4290689451
-0.023498219 -0.14312595 0.74599999 4290755500
-0.022113053 -0.14331728 0.74699998 4290624178
-0.020696407 -0.14331675 0.74699998 4290624178
-0.019331397 -0.1437 0.74900001 4290689455
-0.017910993 -0.14369951 0.74900001 4290623406
-0.016512621 -0.14389093 0.75 4290623399
0.0034480244 -0.14599739 0.76099998 4290819508
0.0048910324 -0.14599729 0.76099998 4286476914
0.006334038 -0.1459972 0.76099998 4285882216
-0.064104386 -0.14078474 0.741 4290621359
-0.062698252 -0.14078362 0.741 4291081910
-0.061292149 -0.14078251 0.741 4291346102
-0.059886102 -0.14078145 0.741 4291872446
-0.058558997 -0.14097038 0.74199998 4292069055
-0.057459224 -0.14172928 0.74599999 4292200898
-0.05589354 -0.14134829 0.74400002 4292070343
-0.05448195 -0.14134729 0.74400002 4292070343
-0.053070389 -0.14134629 0.74400002 4291610040
-0.05151999 -0.14096537 0.74199998 4291610040
-0.050112296 -0.14096442 0.74199998 4291609790
-0.048638992 -0.1407735 0.741 4291478204
-0.047233261 -0.14077261 0.741 4291215286
-0.045827564 -0.14077172 0.741 4291149493
-0.0444219 -0.14077087 0.741 4291149239
-0.043016262 -0.14077002 0.741 4291149239
-0.041610658 -0.1407692 0.741 4291148471
-0.04020508 -0.14076838 0.741 4291214264
-0.038799535 -0.1407676 0.741 4291017651
-0.037545409 -0.14133674 0.74400002 4291083444
-0.036134228 -0.14133599 0.74400002 4290951096
-0.03472307 -0.14133526 0.74400002 4291016889
-0.033311941 -0.14133459 0.74400002 4291017651
-0.031900831 -0.14133389 0.74400002 4291083444
-0.030571714 -0.14171316 0.74599999 4290885812
-0.029156866 -0.1417125 0.74599999 4290754483
-0.02766766 -0.14133197 0.74400002 4290885551
-0.026256647 -0.14133139 0.74400002 4291148467
-0.024845652 -0.14133081 0.74400002 4290952109
-0.023497676 -0.14171018 0.74599999 4290754987
-0.02211253 -0.14189959 0.74699998 4290689201
-0.020695908 -0.14189909 0.74699998 4291018166
-0.019330917 -0.14227851 0.74900001 4290755248
-0.017934449 -0.14246802 0.75 4290557613
-0.016512185 -0.14246756 0.75 4290622643
-0.069985889 -0.1521688 0.80900002 4290425002
