# .PCD v0.7 - Point Cloud Data file format
VERSION 0.7
FIELDS x y z rgba
SIZE 4 4 4 4
TYPE F F F U
COUNT 1 1 1 1
WIDTH 1033
HEIGHT 1
VIEWPOINT 0 0 0 1 0 0 0
POINTS 1033
DATA ascii
-0.10318752 -0.056339122 0.64300001 4292465360
-0.10196591 -0.056338519 0.64300001 4291873995
-0.10074437 -0.056337915 0.64300001 4292202704
-0.09967766 -0.056424931 0.64399999 4292202442
-0.098454341 -0.056424338 0.64399999 4292005063
-0.097231098 -0.056423746 0.64399999 4292005061
-0.096007906 -0.056423161 0.64399999 4291807938
-0.095079124 -0.056597795 0.64600003 4292070341
-0.093852237 -0.056597203 0.64600003 4292267719
-0.092625432 -0.056596622 0.64600003 4292397770
-0.091398671 -0.056596041 0.64600003 4292266441
-0.090171963 -0.05659546 0.64600003 4292069057
-0.088669933 -0.056419667 0.64399999 4292069057
-0.087447152 -0.056419101 0.64399999 4292068546
-0.086492188 -0.056593746 0.64600003 4292002753
-0.085265711 -0.056593183 0.64600003 4291936958
-0.08416938 -0.056680225 0.64700001 4292199873
-0.08294113 -0.056679681 0.64700001 4291872446
-0.081839211 -0.056766722 0.648 4291872446
-0.080609165 -0.056766171 0.648 4291807168
-0.079379179 -0.056765631 0.648 4291872961
-0.078269832 -0.056852683 0.64899999 4291872961
-0.07703805 -0.056852158 0.64899999 4291807168
-0.075806312 -0.056851622 0.64899999 4291937469
-0.074574642 -0.0568511 0.64899999 4292200898
-0.073343016 -0.056850582 0.64899999 4291608508
-0.072111443 -0.056850068 0.64899999 4291740095
-0.070879929 -0.056849562 0.64899999 4291740093
-0.06975577 -0.056936651 0.64999998 4291674300
-0.068522446 -0.056936152 0.64999998 4291607993
-0.067496225 -0.05711085 0.65200001 4291739322
-0.066360839 -0.057197955 0.653 4291607995
-0.065221697 -0.057285052 0.65399998 4291542202
-0.063980989 -0.057284586 0.65399998 4291542200
-0.062740318 -0.057284109 0.65399998 4291607993
-0.061499704 -0.057283644 0.65399998 4291345591
-0.060259126 -0.057283182 0.65399998 4291213749
-0.059108838 -0.05737032 0.65499997 4291148469
-0.057866454 -0.057369877 0.65499997 4291214262
-0.056797028 -0.057544615 0.65700001 4291147955
-0.055635493 -0.057631768 0.65799999 4291082162
-0.054387562 -0.057631336 0.65799999 4291214252
-0.053220421 -0.057718504 0.65899998 4291345839
-0.051970668 -0.057718087 0.65899998 4290886066
-0.050874889 -0.057892844 0.66100001 4290754481
-0.049621429 -0.057892453 0.66100001 4290886064
-0.048368003 -0.057892058 0.66100001 4291346615
-0.047613557 -0.058504738 0.66799998 4291017391
-0.046346929 -0.05850435 0.66799998 4291017391
-0.045215324 -0.058679141 0.67000002 4290885299
-0.044010572 -0.058766358 0.671 4290819506
-0.042802058 -0.058853559 0.67199999 4290950574
-0.041527998 -0.058853205 0.67199999 4290819245
-0.04037378 -0.059028026 0.67400002 4290819506
-0.039154004 -0.059115261 0.67500001 4290753713
-0.037930463 -0.059202511 0.676 4290885551
-0.036757372 -0.059377331 0.67799997 4291017137
-0.03552442 -0.059464596 0.67900002 4290557881
-0.03438855 -0.059727009 0.68199998 4290755259
-0.033095758 -0.059726711 0.68199998 4290754994
-0.16707981 -0.058232728 0.67900002 4293385962
-0.16554287 -0.058146458 0.67799997 4292464860
-0.16425207 -0.058145951 0.67799997 4291151040
-0.16296129 -0.058145426 0.67799997 4291677384
-0.16119367 -0.057973381 0.676 4292005833
-0.15967026 -0.057887089 0.67500001 4291940040
-0.15815075 -0.0578008 0.67400002 4291675848
-0.15640232 -0.05762874 0.67199999 4292202192
-0.1548924 -0.057542425 0.671 4292333258
-0.1529285 -0.05728462 0.66799998 4292399051
-0.15143012 -0.057198305 0.667 4292070089
-0.14926022 -0.056854729 0.66299999 4292070089
-0.14799851 -0.056854166 0.66299999 4292135114
-0.14651555 -0.056767862 0.662 4292200907
-0.14525585 -0.056767289 0.662 4292201161
-0.1437787 -0.056680966 0.66100001 4292398540
-0.14208977 -0.05650888 0.65899998 4292070343
-0.14062226 -0.056422558 0.65799999 4292070343
-0.13937041 -0.05642198 0.65799999 4292266439
-0.1374889 -0.056164153 0.65499997 4292463817
-0.13603489 -0.056077834 0.65399998 4292200909
-0.13458472 -0.055991493 0.653 4292200909
-0.13334265 -0.055990916 0.653 4292201159
-0.13189831 -0.055904578 0.65200001 4292398538
-0.13065825 -0.055903997 0.65200001 4292005063
-0.12941825 -0.055903398 0.65200001 4292268235
-0.12817831 -0.055902805 0.65200001 4292268489
-0.1269384 -0.055902205 0.65200001 4292268489
-0.12569861 -0.055901617 0.65200001 4292268238
-0.12445884 -0.055901013 0.65200001 4292268238
-0.12284117 -0.055728938 0.64999998 4292202444
-0.12160534 -0.055728342 0.64999998 4292268238
-0.12018438 -0.055642005 0.64899999 4292137164
-0.11895059 -0.055641416 0.64899999 4292268751
-0.11771684 -0.055640809 0.64899999 4291808200
-0.1161242 -0.055468757 0.64700001 4292334544
-0.11436165 -0.055210967 0.64399999 4292267467
-0.1131376 -0.055210371 0.64399999 4292333260
-0.11226117 -0.055381238 0.64600003 4292529610
-0.11068967 -0.055209186 0.64399999 4292529610
-0.10929582 -0.055122867 0.64300001 4292068796
-0.10807392 -0.055122275 0.64300001 4292331712
-0.10685208 -0.05512169 0.64300001 4292265666
-0.10563029 -0.055121105 0.64300001 4292397509
-0.10440858 -0.05512052 0.64300001 4292200644
-0.10334741 -0.055205654 0.64399999 4292463815
-0.1021239 -0.055205073 0.64399999 4291742407
-0.10090047 -0.055204496 0.64399999 4292005579
-0.099677078 -0.055203911 0.64399999 4292333512
-0.098453768 -0.05520333 0.64399999 4292267719
-0.097079523 -0.055117041 0.64300001 4292005061
-0.095858239 -0.055116467 0.64300001 4291676096
-0.095078535 -0.055373054 0.64600003 4291609792
-0.093851663 -0.055372491 0.64600003 4292267465
-0.092624851 -0.055371925 0.64600003 4292397255
-0.091398098 -0.055371359 0.64600003 4292331462
-0.090171404 -0.055370808 0.64600003 4291937471
-0.088944748 -0.055370245 0.64600003 4292003264
-0.087718159 -0.05536969 0.64600003 4292068546
-0.086491629 -0.055369142 0.64600003 4292002753
-0.085265152 -0.055368599 0.64600003 4292068542
-0.084168851 -0.055453766 0.64700001 4292068542
-0.082940578 -0.055453226 0.64700001 4291675583
-0.08183866 -0.055538397 0.648 4291675583
-0.080608629 -0.055537872 0.648 4291872961
-0.079501137 -0.055623055 0.64899999 4291675583
-0.07826931 -0.055622533 0.64899999 4291674815
-0.077037528 -0.055622011 0.64899999 4291477692
-0.075805813 -0.055621509 0.64899999 4291476920
-0.074574128 -0.055620991 0.64899999 4291674300
-0.07334251 -0.055620484 0.64899999 4291214003
-0.072110943 -0.055619989 0.64899999 4291608504
-0.070879422 -0.055619501 0.64899999 4291804856
-0.069755279 -0.055704717 0.64999998 4291739063
-0.068521954 -0.055704221 0.64999998 4291739059
-0.067495741 -0.055875145 0.65200001 4291805108
-0.066258736 -0.055874679 0.65200001 4291278258
-0.065121509 -0.05595991 0.653 4291673016
-0.063882694 -0.055959441 0.653 4291738809
-0.062835798 -0.056130379 0.65499997 4291738809
-0.061593283 -0.056129925 0.65499997 4291476407
-0.060350817 -0.056129474 0.65499997 4291278771
-0.059288897 -0.056300431 0.65700001 4291017653
-0.05804272 -0.056299999 0.65700001 4291017653
-0.056883041 -0.05638526 0.65799999 4291148469
-0.055635065 -0.056384832 0.65799999 4291148469
-0.054469794 -0.056470118 0.65899998 4290951598
-0.053220004 -0.056469701 0.65899998 4291214514
-0.052127991 -0.056640681 0.66100001 4290821043
-0.05087449 -0.056640286 0.66100001 4290754994
-0.049696103 -0.056725588 0.662 4290755248
-0.048440788 -0.0567252 0.662 4291083957
-0.04761317 -0.057238944 0.66799998 4290689451
-0.046346556 -0.057238568 0.66799998 4290821293
-0.045214955 -0.057409585 0.67000002 4290885299
-0.044010207 -0.057494909 0.671 4290885299
-0.042801712 -0.057580244 0.67199999 4291081649
-0.041527655 -0.057579897 0.67199999 4290950063
-0.04043334 -0.057836618 0.67500001 4291080627
-0.039153669 -0.05783629 0.67500001 4291212213
-0.037930135 -0.057921644 0.676 4290949546
-0.036757059 -0.058092698 0.67799997 4291212717
-0.035471793 -0.058092382 0.67799997 4290426032
-0.034287401 -0.058263451 0.68000001 4290623410
-0.032998409 -0.058263157 0.68000001 4290755507
-0.031709444 -0.058262881 0.68000001 4290821557
-0.031002071 -0.059376445 0.69300002 4291017651
-0.029688517 -0.059376169 0.69300002 4290754735
-0.16707933 -0.056944244 0.67900002 4293385962
-0.16554239 -0.056859892 0.67799997 4292530653
-0.16425155 -0.056859396 0.67799997 4291676611
-0.16296077 -0.056858905 0.67799997 4291873991
-0.16119316 -0.056690682 0.676 4292267719
-0.15966976 -0.056606308 0.67500001 4292333512
-0.1581502 -0.05652193 0.67400002 4291938505
-0.15640178 -0.056353696 0.67199999 4292135884
-0.15489186 -0.05626931 0.671 4292398790
-0.15338582 -0.056184921 0.67000002 4292596169
-0.15142958 -0.055932824 0.667 4292399051
-0.1494848 -0.055680718 0.66399997 4292399051
-0.14799796 -0.055596322 0.66299999 4292266187
-0.14651498 -0.055511929 0.662 4292266187
-0.14525527 -0.055511381 0.662 4292266702
-0.14377812 -0.055426978 0.66100001 4292661460
-0.14252046 -0.05542643 0.66100001 4292004811
-0.14062169 -0.055174321 0.65799999 4292070604
-0.13936983 -0.055173758 0.65799999 4292268238
-0.13748835 -0.054921653 0.65499997 4292662995
-0.13603432 -0.054837249 0.65399998 4292202192
-0.13458417 -0.054752834 0.653 4292136399
-0.13334206 -0.05475226 0.653 4292202444
-0.13210005 -0.054751705 0.653 4292597202
-0.13085808 -0.054751139 0.653 4292136138
-0.12961614 -0.054750558 0.653 4292399054
-0.12837431 -0.054749999 0.653 4292268489
-0.12693782 -0.054665573 0.65200001 4291939268
-0.12569802 -0.054664999 0.65200001 4292135884
-0.12445826 -0.054664426 0.65200001 4292727764
-0.12321856 -0.054663848 0.65200001 4292333260
-0.12197892 -0.054663274 0.65200001 4292136138
-0.12073936 -0.054662693 0.65200001 4292333260
-0.11894999 -0.054410607 0.64899999 4292991191
-0.11771627 -0.054410025 0.64899999 4292661708
-0.11612363 -0.054241791 0.64700001 4292793550
-0.11471623 -0.054157384 0.64600003 4292463563
-0.11348839 -0.054156806 0.64600003 4292266441
-0.11243435 -0.054240063 0.64700001 4292398538
-0.11068909 -0.053987987 0.64399999 4292332745
-0.10929526 -0.053903595 0.64300001 4292069570
-0.10807335 -0.053903025 0.64300001 4292332999
-0.10685151 -0.053902458 0.64300001 4292398792
-0.10562973 -0.053901896 0.64300001 4292595915
-0.10440801 -0.053901326 0.64300001 4292136136
-0.10334682 -0.05398459 0.64399999 4292465101
-0.10212334 -0.053984024 0.64399999 4292136136
-0.10089989 -0.053983461 0.64399999 4292333258
-0.099676512 -0.053982902 0.64399999 4292267719
-0.098453209 -0.053982355 0.64399999 4292136134
-0.097078972 -0.053897977 0.64300001 4291808448
-0.09585768 -0.053897422 0.64300001 4291874497
-0.095225155 -0.054232154 0.64700001 4291741891
-0.093996398 -0.05423161 0.64700001 4291939014
-0.092767686 -0.05423107 0.64700001 4292201157
-0.091539025 -0.054230515 0.64700001 4292201157
-0.090170845 -0.054146159 0.64600003 4291675585
-0.088944219 -0.05414563 0.64600003 4291806914
-0.087717623 -0.054145094 0.64600003 4291937989
-0.086491086 -0.054144565 0.64600003 4291806403
-0.085264631 -0.054144036 0.64600003 4291806138
-0.0841683 -0.054227322 0.64700001 4292069309
-0.082940049 -0.054226805 0.64700001 4291806653
-0.081838146 -0.054310106 0.648 4291477688
-0.080608115 -0.054309592 0.648 4291543997
-0.07950063 -0.054392893 0.64899999 4291478204
-0.078268796 -0.05439239 0.64899999 4291411643
-0.077037029 -0.054391887 0.64899999 4291411643
-0.075805299 -0.054391388 0.64899999 4291542711
-0.074573636 -0.054390907 0.64899999 4291806140
-0.073342018 -0.054390408 0.64899999 4291280307
-0.072110452 -0.054389928 0.64899999 4291477942
-0.070878953 -0.054389462 0.64899999 4291542711
-0.069754802 -0.054472793 0.64999998 4291476918
-0.068521492 -0.054472324 0.64999998 4291542702
-0.067495286 -0.054639474 0.65200001 4291608495
-0.066258281 -0.054639015 0.65200001 4291411895
-0.06512104 -0.054722365 0.653 4291346102
-0.063882247 -0.054721922 0.653 4291345337
-0.062835351 -0.054889068 0.65499997 4291345337
-0.061592843 -0.05488864 0.65499997 4291213749
-0.060350392 -0.054888204 0.65499997 4291147955
-0.059288453 -0.055055372 0.65700001 4291017653
-0.058042299 -0.055054959 0.65700001 4291017653
-0.056882627 -0.055138338 0.65799999 4291017655
-0.055634666 -0.05513794 0.65799999 4291017655
-0.054469395 -0.055221334 0.65899998 4291017139
-0.053219609 -0.055220932 0.65899998 4291017139
-0.051969871 -0.055220541 0.65899998 4290886837
-0.050951064 -0.055471539 0.662 4290689201
-0.049770791 -0.05555496 0.66299999 4290755248
-0.048513584 -0.055554584 0.66299999 4291150006
-0.047612812 -0.055973183 0.66799998 4291083948
-0.046346191 -0.055972822 0.66799998 4291347119
-0.045282077 -0.056223847 0.671 4290951092
-0.044009861 -0.056223504 0.671 4290885299
-0.042801365 -0.056306947 0.67199999 4290885299
-0.04152732 -0.056306612 0.67199999 4290819506
-0.040433012 -0.056557655 0.67500001 4291081910
-0.039211351 -0.05664112 0.676 4291213497
-0.037929822 -0.056640808 0.676 4290951857
-0.036648326 -0.056640506 0.676 4291017651
-0.035471495 -0.056807783 0.67799997 4290623658
-0.034287114 -0.056975067 0.68000001 4290557865
-0.032998126 -0.056974787 0.68000001 4290821043
-0.031709164 -0.056974504 0.68000001 4290886837
-0.030912325 -0.057895884 0.69099998 4290821039
-0.02960257 -0.057895612 0.69099998 4290689453
-0.02829284 -0.057895359 0.69099998 4290688688
-0.16683279 -0.055573788 0.67799997 4293189097
-0.1655419 -0.055573329 0.67799997 4292794595
-0.16376655 -0.05540894 0.676 4292004557
-0.16247958 -0.055408467 0.676 4291610055
-0.16119266 -0.055407986 0.676 4292002749
-0.15966927 -0.055325545 0.67500001 4292068542
-0.1581497 -0.055243086 0.67400002 4292199623
-0.15686676 -0.055242594 0.67400002 4292199623
-0.15489136 -0.0549962 0.671 4292003264
-0.15338531 -0.054913741 0.67000002 4292200644
-0.15211016 -0.05491323 0.67000002 4292135112
-0.14993455 -0.054584879 0.66600001 4292201161
-0.14822064 -0.054420445 0.66399997 4292463817
-0.14673576 -0.054337967 0.66299999 4292529610
-0.14547418 -0.054337449 0.66299999 4292333262
-0.14377759 -0.054173019 0.66100001 4292464849
-0.14251989 -0.054172482 0.66100001 4291611337
-0.14062117 -0.053926084 0.65799999 4291742923
-0.13936929 -0.053925548 0.65799999 4292202444
-0.13748777 -0.053679153 0.65499997 4292334031
-0.13603376 -0.053596668 0.65399998 4292136399
-0.13478972 -0.053596139 0.65399998 4292004557
-0.13334151 -0.053513642 0.653 4292005579
-0.13209948 -0.053513106 0.653 4292202958
-0.1308575 -0.053512555 0.653 4291741891
-0.12961558 -0.053512003 0.653 4292202442
-0.12837376 -0.053511459 0.653 4292333512
-0.12713195 -0.053510908 0.653 4292136134
-0.12569743 -0.053428408 0.65200001 4292201159
-0.12445769 -0.05342786 0.65200001 4292595917
-0.123218 -0.053427313 0.65200001 4292333262
-0.12197836 -0.053426757 0.65200001 4292135884
-0.1207388 -0.053426199 0.65200001 4292463563
-0.11949928 -0.053425636 0.65200001 4292463563
-0.1177157 -0.053179268 0.64899999 4292397768
-0.11648202 -0.053178709 0.64899999 4292661197
-0.1152484 -0.053178158 0.64899999 4292266441
-0.11383915 -0.053095665 0.648 4292463563
-0.11260756 -0.053095113 0.648 4292202440
-0.11137603 -0.053094562 0.648 4292202440
-0.11014458 -0.053094018 0.648 4292004548
-0.10874509 -0.053011529 0.64700001 4292136134
-0.10751565 -0.05301097 0.64700001 4292267465
-0.10628629 -0.05301043 0.64700001 4292136136
-0.10505696 -0.053009879 0.64700001 4291675585
-0.10334628 -0.052763544 0.64399999 4292070343
-0.10212278 -0.052763 0.64399999 4291872707
-0.10089935 -0.052762467 0.64399999 4291938501
-0.099675961 -0.05276192 0.64399999 4291872961
-0.098452657 -0.052761387 0.64399999 4291872961
-0.097229421 -0.052760854 0.64399999 4291676096
-0.096006222 -0.052760318 0.64399999 4291676096
-0.095224619 -0.053005561 0.64700001 4291545028
-0.093995847 -0.053005036 0.64700001 4291808200
-0.092767134 -0.053004511 0.64700001 4292005061
-0.091538504 -0.053003993 0.64700001 4291939268
-0.090309896 -0.053003468 0.64700001 4291675585
-0.088943675 -0.052921027 0.64600003 4291806914
-0.087717101 -0.052920513 0.64600003 4291872194
-0.086490579 -0.052920002 0.64600003 4291872194
-0.085396096 -0.053001411 0.64700001 4291608504
-0.084297873 -0.05308282 0.648 4291937469
-0.083067738 -0.053082328 0.648 4291806655
-0.081837647 -0.053081825 0.648 4291740606
-0.080607608 -0.05308133 0.648 4291543997
-0.079500124 -0.053162757 0.64899999 4291543997
-0.078268304 -0.053162273 0.64899999 4291280055
-0.07703653 -0.053161785 0.64899999 4291411897
-0.075804815 -0.053161304 0.64899999 4291609017
-0.074573152 -0.053160831 0.64899999 4291609017
-0.073341541 -0.053160362 0.64899999 4291149489
-0.07210999 -0.053159896 0.64899999 4291346867
-0.070878476 -0.053159434 0.64899999 4291215286
-0.06975434 -0.053240895 0.64999998 4291215286
-0.068521038 -0.053240448 0.64999998 4291346867
-0.067494825 -0.053403813 0.65200001 4291215538
-0.066257827 -0.053403374 0.65200001 4291150006
-0.065220326 -0.05356675 0.65399998 4291083957
-0.063979626 -0.053566311 0.65399998 4291149239
-0.062834918 -0.053647798 0.65499997 4291149239
-0.06178049 -0.053811185 0.65700001 4291016115
-0.060534246 -0.053810772 0.65700001 4291213751
-0.059378285 -0.053892259 0.65799999 4291149239
-0.058130234 -0.053891849 0.65799999 4291083446
-0.05696867 -0.053973347 0.65899998 4291083194
-0.055718813 -0.05397296 0.65899998 4290951607
-0.054468989 -0.053972561 0.65899998 4290556840
-0.053219225 -0.053972181 0.65899998 4291017391
-0.051969495 -0.053971808 0.65899998 4290821043
-0.051027659 -0.054299038 0.66299999 4290623408
-0.049770426 -0.054298673 0.66299999 4290426286
-0.048586391 -0.054380205 0.66399997 4290754994
-0.047612444 -0.054707441 0.66799998 4290754987
-0.046345845 -0.054707095 0.66799998 4291017902
-0.045281734 -0.054952446 0.671 4290951344
-0.044075109 -0.055034 0.67199999 4290951344
-0.042801037 -0.055033676 0.67199999 4290951092
-0.04165059 -0.055197146 0.67400002 4290885299
-0.040432695 -0.05527873 0.67500001 4290885814
-0.039211042 -0.05536031 0.676 4291017401
-0.037929516 -0.055360004 0.676 4290886835
-0.036648024 -0.055359706 0.676 4290821041
-0.035575841 -0.055686992 0.68000001 4290821043
-0.034387674 -0.055850495 0.68199998 4290623408
-0.033191957 -0.056014001 0.68400002 4290491056
-0.03198868 -0.056177516 0.68599999 4290885814
-0.030912058 -0.056586716 0.69099998 4290492590
-0.029602312 -0.056586452 0.69099998 4290361004
-0.028292593 -0.056586206 0.69099998 4290623410
-0.16683234 -0.054287218 0.67799997 4293124839
-0.16505313 -0.054126643 0.676 4292664288
-0.1637661 -0.054126199 0.676 4291939286
-0.16247912 -0.054125756 0.676 4291412942
-0.16095375 -0.054045238 0.67500001 4291609017
-0.15966879 -0.054044779 0.67500001 4291740860
-0.15814923 -0.053964242 0.67400002 4291871944
-0.15686627 -0.053963769 0.67400002 4292200909
-0.15512171 -0.053803172 0.67199999 4292004298
-0.15361375 -0.053722624 0.671 4292004298
-0.15210964 -0.053642072 0.67000002 4291938251
-0.14993402 -0.053321339 0.66600001 4292004044
-0.14822015 -0.053160723 0.66399997 4292200646
-0.14673527 -0.053080171 0.66299999 4292529610
-0.14547364 -0.053079668 0.66299999 4292529872
-0.14399458 -0.052999105 0.662 4292661458
-0.1425194 -0.05291855 0.66100001 4292202442
-0.14083435 -0.052757923 0.65899998 4292202442
-0.13936877 -0.052677352 0.65799999 4292267465
-0.13748726 -0.052436676 0.65499997 4292267465
-0.13603322 -0.052356109 0.65399998 4292004044
-0.1347892 -0.052355599 0.65399998 4291938251
-0.13334098 -0.052275024 0.653 4292070604
-0.13209894 -0.052274503 0.653 4292334033
-0.13085696 -0.052273981 0.653 4292136136
-0.12961504 -0.052273456 0.653 4292333258
-0.12837319 -0.052272931 0.653 4292333258
-0.12713143 -0.052272409 0.653 4292399051
-0.12569693 -0.052191827 0.65200001 4292397257
-0.12445715 -0.052191302 0.65200001 4292923601
-0.12321745 -0.052190773 0.65200001 4292529104
-0.12197783 -0.052190244 0.65200001 4292266189
-0.12073825 -0.052189711 0.65200001 4292266187
-0.11949874 -0.052189175 0.65200001 4292266187
-0.11771515 -0.051948506 0.64899999 4292135112
-0.11648147 -0.051947977 0.64899999 4292398540
-0.11524784 -0.051947445 0.64899999 4292267467
-0.11401431 -0.051946916 0.64899999 4292530640
-0.11278079 -0.051946387 0.64899999 4292267719
-0.11154737 -0.051945847 0.64899999 4292333512
-0.11014403 -0.051865283 0.648 4292004548
-0.10891264 -0.051864751 0.648 4292004548
-0.10768128 -0.051864222 0.648 4292004550
-0.10645001 -0.0518637 0.648 4292004550
-0.1052188 -0.051863175 0.648 4292004548
-0.10382716 -0.051782612 0.64700001 4292399305
-0.1024394 -0.051702056 0.64600003 4292070341
-0.10089881 -0.05154147 0.64399999 4292136134
-0.099675439 -0.051540952 0.64399999 4291939268
-0.098910764 -0.051780529 0.64700001 4292070854
-0.09768182 -0.051780015 0.64700001 4292005059
-0.096452929 -0.051779494 0.64700001 4291676350
-0.095224105 -0.051778987 0.64700001 4291741639
-0.093995333 -0.05177848 0.64700001 4292070604
-0.09276662 -0.05177797 0.64700001 4291807938
-0.091537975 -0.05177746 0.64700001 4291610303
-0.090309396 -0.051776964 0.64700001 4291675583
-0.089080855 -0.051776469 0.64700001 4291675583
-0.087852389 -0.051775981 0.64700001 4291806655
-0.086623959 -0.051775485 0.64700001 4291872448
-0.085527591 -0.051855013 0.648 4292002751
-0.084427468 -0.051934548 0.64899999 4292199873
-0.083195433 -0.05193406 0.64899999 4291806655
-0.081963442 -0.051933579 0.64899999 4291740606
-0.080731519 -0.051933102 0.64899999 4291609790
-0.079499647 -0.051932637 0.64899999 4291609790
-0.078267828 -0.051932164 0.64899999 4291411897
-0.077036053 -0.051931694 0.64899999 4291477690
-0.075804345 -0.051931236 0.64899999 4291674553
-0.07457269 -0.051930785 0.64899999 4291674553
-0.073341087 -0.051930331 0.64899999 4291149493
-0.072109535 -0.05192988 0.64899999 4291412408
-0.070878029 -0.051929433 0.64899999 4291478455
-0.0697539 -0.052009009 0.64999998 4291478455
-0.068520598 -0.052008584 0.64999998 4291346867
-0.067494385 -0.052168172 0.65200001 4291215538
-0.066359021 -0.052247763 0.653 4291215284
-0.065219902 -0.05232735 0.65399998 4291215284
-0.064077027 -0.052406941 0.65499997 4291215286
-0.063026361 -0.052566554 0.65700001 4291149493
-0.06178008 -0.052566148 0.65700001 4291081910
-0.060625974 -0.052645754 0.65799999 4291279546
-0.059377886 -0.052645352 0.65799999 4291017653
-0.058129832 -0.052644961 0.65799999 4291017653
-0.056968283 -0.052724581 0.65899998 4291083194
-0.055718426 -0.052724194 0.65899998 4291017401
-0.054468617 -0.052723829 0.65899998 4290951594
-0.053218845 -0.052723449 0.65899998 4291017387
-0.052126851 -0.052883107 0.66100001 4290951857
-0.051027298 -0.053042755 0.66299999 4290754735
-0.049845137 -0.053122405 0.66399997 4290754481
-0.048586044 -0.053122055 0.66399997 4290886066
-0.047612105 -0.053441726 0.66799998 4290951344
-0.046484265 -0.053601392 0.67000002 4290951344
-0.045348883 -0.053761065 0.67199999 4290951344
-0.044074778 -0.053760741 0.67199999 4291346102
-0.042800721 -0.053760428 0.67199999 4290951346
-0.041712072 -0.054000117 0.67500001 4290885553
-0.040492285 -0.054079801 0.676 4290885812
-0.03921074 -0.054079499 0.676 4291083448
-0.038041435 -0.054239202 0.67799997 4290886835
-0.036810383 -0.054318927 0.67900002 4290886835
-0.035575561 -0.054398648 0.68000001 4291017655
-0.034387399 -0.054558367 0.68199998 4290688690
-0.033143163 -0.054638099 0.68300003 4290819254
-0.031895157 -0.054717835 0.68400002 4291148219
-0.030777603 -0.055037569 0.68800002 4291082664
-0.029602066 -0.055277307 0.69099998 4290753699
-0.028292352 -0.055277068 0.69099998 4290754231
-0.1650527 -0.052843895 0.676 4292993253
-0.16376567 -0.052843481 0.676 4292137181
-0.16247869 -0.052843053 0.676 4291478994
-0.1609533 -0.05276446 0.67500001 4291806142
-0.15966833 -0.052764017 0.67500001 4292134850
-0.15814878 -0.052685414 0.67400002 4292070091
-0.15686582 -0.052684966 0.67400002 4292070091
-0.15512124 -0.052528184 0.67199999 4292004809
-0.15361328 -0.052449558 0.671 4291939016
-0.15210916 -0.052370928 0.67000002 4292070091
-0.14993358 -0.052057814 0.66600001 4292004298
-0.14821966 -0.051901016 0.66399997 4291937989
-0.14673479 -0.051822383 0.66299999 4292201161
-0.14547317 -0.051821902 0.66299999 4292266187
-0.14377658 -0.051665101 0.66100001 4292529358
-0.14208767 -0.051508304 0.65899998 4292136136
-0.14083385 -0.051507819 0.65899998 4292136136
-0.13936828 -0.051429179 0.65799999 4292070341
-0.13748676 -0.051194198 0.65499997 4292136134
-0.13603273 -0.051115565 0.65399998 4292004296
-0.13478869 -0.051115073 0.65399998 4291938503
-0.13334048 -0.051036417 0.653 4292135112
-0.13209845 -0.051035926 0.653 4292661712
-0.13085645 -0.051035423 0.653 4292267719
-0.12961455 -0.051034924 0.653 4292070341
-0.12837268 -0.051034424 0.653 4292070089
-0.12713091 -0.051033918 0.653 4292267467
-0.12569641 -0.050955262 0.65200001 4292199360
-0.12445664 -0.050954759 0.65200001 4292659911
-0.12321693 -0.050954249 0.65200001 4292461769
-0.12197731 -0.05095375 0.65200001 4292593355
-0.12073774 -0.050953235 0.65200001 4292463563
-0.11913166 -0.050796431 0.64999998 4292397770
-0.11771462 -0.050717771 0.64899999 4291806916
-0.11648095 -0.050717264 0.64899999 4292004296
-0.11524734 -0.05071675 0.64899999 4291807435
-0.11401379 -0.050716244 0.64899999 4291807435
-0.11260651 -0.050637592 0.648 4291872959
-0.11137497 -0.050637081 0.648 4292070595
-0.11031348 -0.050714716 0.64899999 4291675583
-0.10891212 -0.050636072 0.648 4291938754
-0.10768078 -0.050635569 0.648 4291807685
-0.1064495 -0.050635062 0.648 4291676098
-0.10521828 -0.050634556 0.648 4291872959
-0.10382667 -0.050555915 0.64700001 4291938752
-0.10259746 -0.050555404 0.64700001 4292069570
-0.10121167 -0.050476771 0.64600003 4292201157
-0.099984489 -0.050476264 0.64600003 4291938752
-0.099063113 -0.050632045 0.648 4292070595
-0.097832292 -0.050631553 0.648 4292071108
-0.096452422 -0.05055292 0.64700001 4291742143
-0.095223598 -0.050552428 0.64700001 4291676098
-0.093994826 -0.050551943 0.64700001 4291676098
-0.092766128 -0.050551455 0.64700001 4291609792
-0.091537483 -0.050550967 0.64700001 4291675585
-0.090308897 -0.050550487 0.64700001 4291806655
-0.089080364 -0.050550014 0.64700001 4291740606
-0.087851882 -0.050549537 0.64700001 4291674300
-0.086757362 -0.050627191 0.648 4291937471
-0.085527115 -0.050626718 0.648 4292002749
-0.084426999 -0.050704367 0.64899999 4291871163
-0.083194956 -0.050703909 0.64899999 4291674300
-0.08196298 -0.050703447 0.64899999 4291608506
-0.080731049 -0.050702989 0.64899999 4291346363
-0.07962168 -0.050780658 0.64999998 4291215034
-0.078387968 -0.050780207 0.64999998 4291411897
-0.077154301 -0.050779752 0.64999998 4291609020
-0.075920694 -0.050779313 0.64999998 4291674300
-0.074687153 -0.050778877 0.64999998 4291542713
-0.07345365 -0.050778441 0.64999998 4291083444
-0.072220206 -0.050778005 0.64999998 4291215286
-0.070986807 -0.050777577 0.64999998 4291215797
-0.069753461 -0.050777152 0.64999998 4291150004
-0.06873101 -0.050932977 0.65200001 4291215284
-0.067597486 -0.051010676 0.653 4291149491
-0.066358604 -0.05101027 0.653 4291017651
-0.06531921 -0.051166091 0.65499997 4291149493
-0.064272285 -0.05132192 0.65700001 4291346100
-0.063025959 -0.051321521 0.65700001 4291346100
-0.061873704 -0.051399242 0.65799999 4291017139
-0.060625583 -0.051398855 0.65799999 4291148469
-0.059377499 -0.051398475 0.65799999 4291148467
-0.058129448 -0.051398087 0.65799999 4291148467
-0.056967903 -0.051475842 0.65899998 4291148471
-0.055718049 -0.051475462 0.65899998 4291148471
-0.054468252 -0.051475108 0.65899998 4291148207
-0.053218488 -0.051474746 0.65899998 4291148207
-0.052126497 -0.051630627 0.66100001 4290951344
-0.051026948 -0.05178649 0.66299999 4291017137
-0.04984479 -0.051864263 0.66399997 4290951346
-0.048732053 -0.05202014 0.66600001 4291017139
-0.047611769 -0.052176032 0.66799998 4291017139
-0.046345178 -0.052175704 0.66799998 4291017139
-0.045213602 -0.052331612 0.67000002 4290885551
-0.044008877 -0.052409396 0.671 4291280309
-0.0428004 -0.052487198 0.67199999 4290820789
-0.041526385 -0.052486897 0.67199999 4290820789
-0.040432092 -0.052720919 0.67500001 4290951859
-0.039152443 -0.052720625 0.67500001 4290886066
-0.037928935 -0.052798443 0.676 4290557615
-0.036810104 -0.053032488 0.67900002 4290886837
-0.035575289 -0.053110324 0.68000001 4290754233
-0.034387134 -0.053266264 0.68199998 4290754233
-0.033142906 -0.053344116 0.68300003 4291081910
-0.031894907 -0.053421959 0.68400002 4291213497
-0.030732621 -0.053656019 0.68699998 4291081899
-0.029601824 -0.053968187 0.69099998 4290950313
-0.028292123 -0.05396796 0.69099998 4290687666
-0.026982442 -0.05396774 0.69099998 4290951094
-0.16554062 -0.051713694 0.67799997 4293584107
-0.16424976 -0.051713306 0.67799997 4292597734
-0.16247828 -0.051560361 0.676 4291610583
-0.1609529 -0.051483687 0.67500001 4291543493
-0.15966791 -0.05148327 0.67500001 4292135886
-0.15814836 -0.051406588 0.67400002 4292201161
-0.15686536 -0.051406164 0.67400002 4292201161
-0.15488997 -0.051176928 0.671 4292070089
-0.15361282 -0.0511765 0.671 4292267467
-0.15210873 -0.051099792 0.67000002 4292135884
-0.14993311 -0.050794281 0.66600001 4292070091
-0.14821921 -0.050641298 0.66399997 4291937991
-0.14673431 -0.050564595 0.66299999 4292135114
-0.14547271 -0.050564148 0.66299999 4292201161
-0.14377612 -0.050411161 0.66100001 4292266954
-0.14208721 -0.050258178 0.65899998 4292136136
-0.14083338 -0.05025772 0.65899998 4292070343
-0.1393678 -0.050181001 0.65799999 4292070341
-0.13790612 -0.050104275 0.65700001 4292267719
-0.13624027 -0.049951278 0.65499997 4292267465
-0.13478819 -0.049874552 0.65399998 4291938501
-0.13333999 -0.049797826 0.653 4291939018
-0.13209796 -0.049797352 0.653 4292925913
-0.13085598 -0.049796876 0.653 4292201159
-0.12961407 -0.049796402 0.653 4292069573
-0.12837221 -0.049795926 0.653 4292266702
-0.1271304 -0.049795445 0.653 4292727253
-0.12569588 -0.049718704 0.65200001 4292397509
-0.12445614 -0.049718224 0.65200001 4292726217
-0.12321644 -0.049717743 0.65200001 4292331210
-0.12197681 -0.049717255 0.65200001 4292397259
-0.12073723 -0.049716774 0.65200001 4292529610
-0.11894787 -0.049487524 0.64899999 4292463817
-0.11771414 -0.049487039 0.64899999 4292332745
-0.11648047 -0.049486559 0.64899999 4292530123
-0.11524683 -0.049486071 0.64899999 4292070093
-0.11401329 -0.049485587 0.64899999 4291872457
-0.11260601 -0.049408842 0.648 4292004548
-0.11137448 -0.049408361 0.648 4292399305
-0.110313 -0.049484123 0.64899999 4291676098
-0.10891162 -0.049407393 0.648 4291807685
-0.10768028 -0.049406905 0.648 4291939014
-0.106449 -0.04940642 0.648 4291807685
-0.10521778 -0.04940594 0.648 4291872446
-0.10398664 -0.049405452 0.648 4291872446
-0.10275555 -0.049404979 0.648 4291938754
-0.10136784 -0.049328256 0.64700001 4291938754
-0.10013877 -0.049327776 0.64700001 4291872959
-0.099062659 -0.049403541 0.648 4292004546
-0.097831801 -0.049403068 0.648 4292004546
-0.096451953 -0.049326364 0.64700001 4291872959
-0.095223121 -0.049325891 0.64700001 4291742143
-0.093994349 -0.049325418 0.64700001 4291742143
-0.092765659 -0.049324948 0.64700001 4291609792
-0.091537014 -0.049324486 0.64700001 4291675585
-0.090308413 -0.049324021 0.64700001 4291937471
-0.089079902 -0.049323563 0.64700001 4291806142
-0.087987214 -0.049399335 0.648 4291543997
-0.0867569 -0.049398884 0.648 4291543997
-0.085526645 -0.04939843 0.648 4291674813
-0.084426545 -0.049474213 0.64899999 4291411897
-0.083194494 -0.049473759 0.64899999 4291477438
-0.082088813 -0.04954955 0.64999998 4291477438
-0.080854997 -0.049549114 0.64999998 4291346365
-0.079621233 -0.049548674 0.64999998 4291215036
-0.078387521 -0.049548239 0.64999998 4291411897
-0.077153869 -0.04954781 0.64999998 4291609020
-0.075920261 -0.049547382 0.64999998 4291608508
-0.074686721 -0.049546957 0.64999998 4291542715
-0.073453218 -0.049546544 0.64999998 4291149239
-0.072219782 -0.049546126 0.64999998 4291149239
-0.070986398 -0.04954572 0.64999998 4291083446
-0.06996768 -0.049697757 0.65200001 4291083446
-0.0687306 -0.049697358 0.65200001 4291345589
-0.067597084 -0.049773183 0.653 4291345589
-0.06645982 -0.049849007 0.65399998 4291345591
-0.06551826 -0.050077278 0.65700001 4291279542
-0.064271897 -0.050076898 0.65700001 4291280309
-0.063025571 -0.050076511 0.65700001 4291411895
-0.061873324 -0.050152346 0.65799999 4291149491
-0.060625199 -0.050151974 0.65799999 4291215284
-0.059377123 -0.050151605 0.65799999 4291149491
-0.058217432 -0.050227463 0.65899998 4291346613
-0.056967545 -0.050227106 0.65899998 4290951605
-0.055717703 -0.050226752 0.65899998 4290951605
-0.054467894 -0.050226394 0.65899998 4291017139
-0.053379655 -0.05037849 0.66100001 4290819504
-0.052205015 -0.050454367 0.662 4290951346
-0.051026605 -0.050530247 0.66299999 4290951346
-0.049844455 -0.050606139 0.66399997 4290951344
-0.048731729 -0.050758243 0.66600001 4290951344
-0.047611449 -0.05091035 0.66799998 4291017141
-0.046344869 -0.050910044 0.66799998 4291017141
-0.045213293 -0.051062159 0.67000002 4291017904
-0.044008575 -0.051138073 0.671 4291149491
-0.04280011 -0.05121398 0.67199999 4290951605
-0.04152609 -0.051213697 0.67199999 4290951605
-0.040252108 -0.051213413 0.67199999 4291017137
-0.03915216 -0.051441766 0.67500001 4290819758
-0.037928667 -0.051517703 0.676 4290623410
-0.036864042 -0.051822267 0.68000001 4291149754
-0.035575025 -0.05182201 0.68000001 4290753979
-0.034437299 -0.052050389 0.68300003 4290688186
-0.033288229 -0.052278761 0.68599999 4291015604
-0.03203455 -0.052354723 0.68699998 4291081397
-0.030732384 -0.052354492 0.68699998 4290819504
-0.029601591 -0.052659087 0.69099998 4290753711
-0.028291896 -0.052658863 0.69099998 4290819506
-0.026982227 -0.052658647 0.69099998 4291017141
-0.16554026 -0.050427161 0.67799997 4293912556
-0.16424938 -0.050426792 0.67799997 4292794854
-0.16247787 -0.050277665 0.676 4291413201
-0.16095248 -0.050202906 0.67500001 4291347138
-0.15966751 -0.050202534 0.67500001 4291741639
-0.15814795 -0.050127771 0.67400002 4291937221
-0.15686497 -0.050127372 0.67400002 4292266187
-0.15488955 -0.049903855 0.671 4292070343
-0.15361242 -0.049903449 0.671 4292004550
-0.15210831 -0.049828663 0.67000002 4291741639
-0.15015781 -0.049605135 0.667 4291741639
-0.14866523 -0.049530342 0.66600001 4291543999
-0.14695521 -0.049381182 0.66399997 4292070343
-0.14547227 -0.049306393 0.66299999 4292201159
-0.14399318 -0.0492316 0.662 4292201159
-0.14251798 -0.0491568 0.66100001 4292201159
-0.14126036 -0.049156372 0.66100001 4292201159
-0.13936734 -0.048932824 0.65799999 4292266952
-0.13790564 -0.048858024 0.65700001 4292398538
-0.13623981 -0.048708852 0.65499997 4292202190
-0.13499384 -0.048708409 0.65499997 4291741639
-0.13354373 -0.048633602 0.65399998 4291806664
-0.13229978 -0.048633154 0.65399998 4292333008
-0.13105591 -0.0486327 0.65399998 4291807168
-0.12981208 -0.048632246 0.65399998 4292004548
-0.12856834 -0.048631798 0.65399998 4292200396
-0.12712994 -0.048556976 0.653 4292397518
-0.1258882 -0.048556518 0.653 4291741891
-0.12445565 -0.048481703 0.65200001 4292005063
-0.12321596 -0.048481237 0.65200001 4292004296
-0.12197632 -0.048480771 0.65200001 4292070089
-0.12073676 -0.048480321 0.65200001 4292397768
-0.11894741 -0.048256781 0.64899999 4292397768
-0.11771365 -0.048256315 0.64899999 4292398022
-0.11647998 -0.048255857 0.64899999 4292529608
-0.11524636 -0.048255391 0.64899999 4292004296
-0.11401281 -0.048254937 0.64899999 4291938503
-0.11277929 -0.048254468 0.64899999 4291939268
-0.11154588 -0.048254009 0.64899999 4291807938
-0.11031251 -0.04825354 0.64899999 4291347134
-0.1090792 -0.048253078 0.64899999 4291741891
-0.1076798 -0.048178259 0.648 4292201161
-0.10644852 -0.048177801 0.648 4292201161
-0.10521732 -0.048177343 0.648 4292069568
-0.10398617 -0.048176877 0.648 4292069568
-0.10275508 -0.048176419 0.648 4291872961
-0.10152405 -0.048175972 0.648 4291675583
-0.10029308 -0.048175506 0.648 4291674813
-0.099062182 -0.048175059 0.648 4292069570
-0.097831339 -0.048174601 0.648 4291938752
-0.096600555 -0.048174147 0.648 4291675837
-0.095369831 -0.048173696 0.648 4291478715
-0.09399391 -0.048098903 0.64700001 4291676350
-0.092765197 -0.04809846 0.64700001 4291609790
-0.091536559 -0.048098009 0.64700001 4291807168
-0.090307973 -0.048097573 0.64700001 4291937469
-0.089079462 -0.048097134 0.64700001 4291806140
-0.087986745 -0.048171028 0.648 4291544510
-0.086756453 -0.048170593 0.648 4291281594
-0.085526206 -0.048170168 0.648 4291478717
-0.084426098 -0.048244067 0.64899999 4291347388
-0.083322257 -0.04831798 0.64999998 4291477950
-0.082088389 -0.048317544 0.64999998 4291412156
-0.080854557 -0.048317119 0.64999998 4290951607
-0.079620801 -0.048316702 0.64999998 4291346365
-0.078387111 -0.048316296 0.64999998 4291674300
-0.077153452 -0.048315879 0.64999998 4291542713
-0.075919852 -0.048315469 0.64999998 4291542715
-0.074686311 -0.048315071 0.64999998 4291476666
-0.073452823 -0.048314668 0.64999998 4291346102
-0.072219379 -0.048314266 0.64999998 4291280309
-0.070985995 -0.048313875 0.64999998 4291214514
-0.069967285 -0.048462141 0.65200001 4291280307
-0.068730205 -0.048461758 0.65200001 4291607221
-0.0677002 -0.04861002 0.65399998 4291739063
-0.066459425 -0.04860964 0.65399998 4291542200
-0.065517887 -0.048832253 0.65700001 4291344565
-0.064271517 -0.048831876 0.65700001 4291147955
-0.063025199 -0.048831511 0.65700001 4291279542
-0.061872967 -0.048905477 0.65799999 4290820789
-0.060716968 -0.048979439 0.65899998 4290754996
-0.059466999 -0.048979085 0.65899998 4290754998
-0.058217071 -0.048978731 0.65899998 4290820791
-0.056967191 -0.048978392 0.65899998 4290951605
-0.055717349 -0.048978049 0.65899998 4290951605
-0.054467559 -0.048977714 0.65899998 4290951857
-0.053379323 -0.049126029 0.66100001 4290886064
-0.05220468 -0.049200024 0.662 4290886064
-0.051026285 -0.049274024 0.66299999 4290951857
-0.049994275 -0.049496673 0.66600001 4290952111
-0.048804581 -0.049570683 0.667 4290952111
-0.047753684 -0.049793329 0.67000002 4291147694
-0.046483323 -0.049793031 0.67000002 4291344816
-0.045280479 -0.049867053 0.671 4291280307
-0.044008281 -0.049866758 0.671 4291017391
-0.042799823 -0.049940795 0.67199999 4290623408
-0.041525811 -0.049940519 0.67199999 4290754994
-0.040251832 -0.04994024 0.67199999 4290951344
-0.039151896 -0.050162919 0.67500001 4290819758
-0.037928399 -0.050236966 0.676 4290623408
-0.036863789 -0.050533984 0.68000001 4290821043
-0.035574779 -0.050533731 0.68000001 4290360240
-0.034437057 -0.050756432 0.68300003 4290557363
-0.033287987 -0.050979126 0.68599999 4290818993
-0.032034319 -0.051053207 0.68699998 4290950322
-0.030732153 -0.051052976 0.68699998 4290557613
-0.029601369 -0.051350009 0.69099998 4290557613
-0.028291682 -0.051349793 0.69099998 4291017139
-0.026982017 -0.05134958 0.69099998 4291280055
-0.16553989 -0.04914064 0.67799997 4294307316
-0.16424903 -0.049140297 0.67799997 4293386984
-0.16247752 -0.048994996 0.676 4291939538
-0.16095212 -0.048922155 0.67500001 4291544006
-0.15966713 -0.048921805 0.67500001 4291938764
-0.15838222 -0.04892144 0.67500001 4291609542
-0.15709731 -0.048921071 0.67500001 4291938251
-0.15558167 -0.048848208 0.67400002 4291938503
-0.153612 -0.048630405 0.671 4291938503
-0.15210791 -0.04855755 0.67000002 4291741639
-0.15015741 -0.048339736 0.667 4291675846
-0.14866483 -0.048266873 0.66600001 4291807168
-0.14695479 -0.048121523 0.66399997 4292399305
-0.14547186 -0.048048656 0.66299999 4292201157
-0.14399277 -0.047975782 0.662 4292201157
-0.14251757 -0.047902908 0.66100001 4292070341
-0.14125994 -0.047902506 0.66100001 4292136134
-0.13957873 -0.047757149 0.65899998 4292135112
-0.13811514 -0.04768426 0.65799999 4292201161
-0.13665538 -0.047611378 0.65700001 4292004044
-0.1354056 -0.047610957 0.65700001 4291872457
-0.13374747 -0.047465596 0.65499997 4291938764
-0.13229935 -0.047392711 0.65399998 4292267986
-0.13105546 -0.047392283 0.65399998 4292332999
-0.12981163 -0.047391851 0.65399998 4292661708
-0.12856789 -0.047391422 0.65399998 4292266441
-0.12732418 -0.04739099 0.65399998 4292200648
-0.12608056 -0.047390562 0.65399998 4291807689
-0.12464609 -0.04731765 0.653 4292004811
-0.1234045 -0.047317222 0.653 4292201159
-0.12197588 -0.047244318 0.65200001 4292201159
-0.12073631 -0.047243878 0.65200001 4292201157
-0.11894696 -0.047026064 0.64899999 4292201157
-0.11771322 -0.047025628 0.64899999 4292201157
-0.11647953 -0.047025189 0.64899999 4292201157
-0.11524592 -0.047024745 0.64899999 4292201157
-0.11401236 -0.047024302 0.64899999 4292135364
-0.11277886 -0.047023859 0.64899999 4291872961
-0.11154542 -0.047023419 0.64899999 4291807168
-0.11048203 -0.047095433 0.64999998 4291740606
-0.10907876 -0.047022536 0.64899999 4291938241
-0.10784553 -0.047022093 0.64899999 4292200907
-0.10661234 -0.047021654 0.64899999 4292398542
-0.10521686 -0.046948761 0.648 4291938754
-0.10398571 -0.046948329 0.648 4291872961
-0.10275462 -0.046947889 0.648 4291938754
-0.10152362 -0.046947457 0.648 4291675583
-0.10029264 -0.046947017 0.648 4291609790
-0.099061742 -0.046946578 0.648 4291807168
-0.097830892 -0.046946149 0.648 4291609792
-0.09660013 -0.046945721 0.648 4291477950
-0.095369399 -0.046945285 0.648 4291610294
-0.093993463 -0.046872415 0.64700001 4291873209
-0.092764758 -0.046871983 0.64700001 4291806140
-0.091677599 -0.046944007 0.648 4291937469
-0.090307534 -0.046871137 0.64700001 4291806142
-0.089079022 -0.04687072 0.64700001 4291740093
-0.08798632 -0.046942741 0.648 4291543995
-0.086756028 -0.04694232 0.648 4291478201
-0.085525773 -0.04694191 0.648 4291478204
-0.084425688 -0.047013946 0.64899999 4291478204
-0.083321817 -0.047085967 0.64999998 4291478204
-0.082087971 -0.047085565 0.64999998 4291609790
-0.080854163 -0.047085166 0.64999998 4291082942
-0.079620391 -0.047084764 0.64999998 4291411906
-0.078386694 -0.047084361 0.64999998 4291477690
-0.077153057 -0.047083974 0.64999998 4291411897
-0.075919449 -0.047083579 0.64999998 4291476920
-0.074685916 -0.047083188 0.64999998 4291476920
-0.073452428 -0.047082812 0.64999998 4291346102
-0.072218992 -0.047082424 0.64999998 4290819758
-0.071204029 -0.047226917 0.65200001 4291148718
-0.070074208 -0.047298979 0.653 4291214512
-0.068835244 -0.04729861 0.653 4291214003
-0.067699835 -0.047370676 0.65399998 4291279796
-0.06645906 -0.047370311 0.65399998 4291214262
-0.065517515 -0.047587246 0.65700001 4290951346
-0.064368978 -0.047659323 0.65799999 4290951605
-0.063120767 -0.047658969 0.65799999 4291083448
-0.061872602 -0.047658622 0.65799999 4290951605
-0.060716629 -0.047730707 0.65899998 4290951605
-0.059466656 -0.04773036 0.65899998 4290951355
-0.058216736 -0.047730032 0.65899998 4290951355
-0.05696686 -0.047729701 0.65899998 4290754996
-0.055717025 -0.04772938 0.65899998 4290754996
-0.054632541 -0.047873911 0.66100001 4290755248
-0.053459756 -0.047946021 0.662 4290755248
-0.052204367 -0.047945704 0.662 4290952111
-0.050949018 -0.047945399 0.662 4290952111
-0.049993973 -0.048234802 0.66600001 4291017387
-0.048804283 -0.048306923 0.667 4291148972
-0.047753394 -0.048523903 0.67000002 4290950565
-0.046483029 -0.04852362 0.67000002 4291082151
-0.045280185 -0.048595753 0.671 4291016367
-0.044073585 -0.048667904 0.67199999 4290819245
-0.042799544 -0.048667617 0.67199999 4290623406
-0.041525535 -0.048667356 0.67199999 4291215799
-0.040371366 -0.048811942 0.67400002 4291083696
-0.039151635 -0.048884101 0.67500001 4290491558
-0.037928149 -0.048956275 0.676 4290754481
-0.036863536 -0.049245711 0.68000001 4291017653
-0.035679158 -0.049390301 0.68199998 4290688688
-0.03448724 -0.049534913 0.68400002 4291083446
-0.033336278 -0.049751934 0.68699998 4290952111
-0.032034092 -0.049751706 0.68699998 4291017904
-0.030731935 -0.049751502 0.68699998 4290951848
-0.02960116 -0.050040957 0.69099998 4290951848
-0.028291473 -0.050040741 0.69099998 4290951857
-0.16449095 -0.047924377 0.67900002 4293584107
-0.16295786 -0.047853474 0.67799997 4292334040
-0.16119023 -0.047711994 0.676 4291347399
-0.1599033 -0.047711652 0.676 4291544778
-0.15861647 -0.047711309 0.676 4291346113
-0.15732968 -0.047710959 0.676 4291477700
-0.15581213 -0.047640041 0.67500001 4291477952
-0.15429844 -0.047569104 0.67400002 4291806916
-0.15256158 -0.04742758 0.67199999 4291676100
-0.1508324 -0.047286075 0.67000002 4291610051
-0.14888765 -0.047073971 0.667 4291609538
-0.14739706 -0.047003031 0.66600001 4292004296
-0.1461297 -0.047002647 0.66600001 4291872961
-0.14399238 -0.046719972 0.662 4292004548
-0.14273278 -0.0467196 0.662 4292070341
-0.14125952 -0.046648629 0.66100001 4292070341
-0.13957833 -0.046507098 0.65899998 4291675587
-0.13832462 -0.046506707 0.65899998 4292004296
-0.13686296 -0.04643574 0.65799999 4291938505
-0.1356113 -0.046435349 0.65799999 4292070091
-0.13415547 -0.046364378 0.65700001 4292136651
-0.13250123 -0.04622284 0.65499997 4292070602
-0.13125543 -0.046222433 0.65499997 4292201157
-0.13000971 -0.046222031 0.65499997 4292530121
-0.12876406 -0.046221625 0.65499997 4291872711
-0.12732376 -0.046150643 0.65399998 4291806662
-0.12608013 -0.04615023 0.65399998 4291938503
-0.12464569 -0.046079259 0.653 4292004296
-0.12340406 -0.046078842 0.653 4292070343
-0.12197546 -0.046007872 0.65200001 4292004550
-0.12073587 -0.046007454 0.65200001 4292135364
-0.11894653 -0.045795351 0.64899999 4292201157
-0.11771278 -0.04579493 0.64899999 4292070341
-0.11647911 -0.045794513 0.64899999 4292070341
-0.11524549 -0.045794103 0.64899999 4292201157
-0.1141876 -0.045864236 0.64999998 4291938241
-0.11277842 -0.045793261 0.64899999 4292069057
-0.11154499 -0.045792837 0.64899999 4292069057
-0.1104816 -0.045862976 0.64999998 4291872448
-0.10907833 -0.045791999 0.64899999 4291806655
-0.10784511 -0.045791592 0.64899999 4291740356
-0.10661192 -0.045791171 0.64899999 4292135114
-0.1053788 -0.045790747 0.64899999 4291806914
-0.10398529 -0.04571978 0.648 4291806914
-0.1027542 -0.045719355 0.648 4291806662
-0.10152318 -0.045718942 0.648 4291675333
-0.10044698 -0.045789082 0.64899999 4291675583
-0.099214181 -0.045788672 0.64899999 4291675583
-0.097830467 -0.045717705 0.648 4291543745
-0.096599706 -0.045717295 0.648 4291675587
-0.095368966 -0.045716885 0.648 4291872700
-0.094138317 -0.045716476 0.648 4291609271
-0.092907742 -0.045716077 0.648 4291542198
-0.091677189 -0.045715671 0.648 4291739576
-0.090446718 -0.045715269 0.648 4291542198
-0.089216292 -0.045714855 0.648 4291871163
-0.087985925 -0.045714464 0.648 4291478201
-0.086755633 -0.045714073 0.648 4291478201
-0.085657358 -0.04578422 0.64899999 4291215032
-0.084555365 -0.045854371 0.64999998 4291346617
-0.083321452 -0.04585398 0.64999998 4291346617
-0.082087569 -0.045853596 0.64999998 4291346617
-0.080853768 -0.045853209 0.64999998 4290951605
-0.079620011 -0.045852832 0.64999998 4291346363
-0.078386307 -0.045852449 0.64999998 4291346617
-0.077152669 -0.045852073 0.64999998 4291346617
-0.075919077 -0.045851696 0.64999998 4291346104
-0.074685536 -0.045851331 0.64999998 4291346104
-0.073678061 -0.045992043 0.65200001 4291411895
-0.07244084 -0.045991682 0.65200001 4291280309
-0.071312875 -0.046061862 0.653 4291149491
-0.070181154 -0.046132039 0.65399998 4291083698
-0.068940297 -0.046131685 0.65399998 4290885553
-0.067699477 -0.046131335 0.65399998 4291280055
-0.066560335 -0.046201523 0.65499997 4291083961
-0.065616883 -0.046412781 0.65799999 4291017912
-0.064368635 -0.046412449 0.65799999 4290754998
-0.063120425 -0.04641211 0.65799999 4290886585
-0.061872274 -0.046411783 0.65799999 4290951605
-0.06071629 -0.046481978 0.65899998 4290951605
-0.059466325 -0.046481654 0.65899998 4291017403
-0.0582164 -0.046481334 0.65899998 4290951609
-0.057139426 -0.046622086 0.66100001 4290624178
-0.055885807 -0.046621777 0.66100001 4290492592
-0.054632235 -0.046621475 0.66100001 4290558383
-0.053459451 -0.046691697 0.662 4290624432
-0.052204061 -0.046691399 0.662 4290886062
-0.050948713 -0.046691105 0.662 4290952111
-0.049693417 -0.046690818 0.662 4291017391
-0.048584487 -0.046831589 0.66399997 4290951598
-0.047824383 -0.047325019 0.671 4291016619
-0.046552122 -0.047324743 0.671 4291082412
-0.045279909 -0.047324467 0.671 4290951344
-0.044073321 -0.047394734 0.67199999 4290951344
-0.042799283 -0.047394469 0.67199999 4290951859
-0.041525282 -0.047394216 0.67199999 4291083446
-0.040371109 -0.047535017 0.67400002 4291149752
-0.039209392 -0.047675826 0.676 4291083959
-0.038152333 -0.047957692 0.68000001 4291083444
-0.036863301 -0.04795745 0.68000001 4291083444
-0.035678931 -0.048098277 0.68199998 4290688942
-0.034587845 -0.048380144 0.68599999 4291017651
-0.033336058 -0.048450448 0.68699998 4290754481
