# .PCD v0.7 - Point Cloud Data file format
VERSION 0.7
FIELDS x y z rgba
SIZE 4 4 4 4
TYPE F F F U
COUNT 1 1 1 1
WIDTH 1063
HEIGHT 1
VIEWPOINT 0 0 0 1 0 0 0
POINTS 1063
DATA ascii
-0.052391808 0.11887448 0.59200001 4294967295
-0.051180668 0.1186723 0.59100002 4294967295
-0.050058033 0.11867093 0.59100002 4293848296
-0.048852645 0.11846878 0.58999997 4294110953
-0.047651086 0.11826669 0.58899999 4294967295
-0.046453346 0.11806461 0.588 4294967295
-0.045182355 0.1176618 0.58600003 4294967295
-0.043994173 0.11745977 0.58499998 4294967295
-0.042883124 0.11745857 0.58499998 4294967295
-0.041772109 0.1174574 0.58499998 4294967295
-0.040661108 0.11745623 0.58499998 4291282887
-0.039550141 0.1174551 0.58499998 4289046913
-0.038504913 0.1176548 0.58600003 4279704320
-0.037455909 0.11785449 0.58700001 4281154615
-0.036341224 0.11785345 0.58700001 4281943874
-0.035046529 0.11725011 0.58399999 4284432708
-0.033937588 0.11724912 0.58399999 4293380557
-0.032828666 0.11724814 0.58399999 4294967295
-0.031719774 0.11724721 0.58399999 4294967295
-0.030558484 0.11704553 0.583 4294967292
-0.029401012 0.11684389 0.58200002 4294967295
-0.02824736 0.11664226 0.58099997 4290360563
-0.027050801 0.11623991 0.579 4285360038
-0.025906684 0.11603834 0.57800001 4287537283
-0.024809301 0.11603758 0.57800001 4289971624
-0.02371194 0.11603684 0.57800001 4294703301
-0.022575472 0.11583536 0.57700002 4294967246
-0.02144281 0.11563391 0.57599998 4294967295
-0.020349294 0.11563325 0.57599998 4294967295
-0.019255796 0.11563262 0.57599998 4294967295
-0.018130783 0.11543125 0.57499999 4294967295
-0.017009579 0.11522994 0.574 4294967295
-0.015892187 0.11502863 0.57300001 4294967295
-0.014804437 0.1150281 0.57300001 4294967295
-0.013692765 0.11482687 0.57200003 4294967295
-0.012606941 0.1148264 0.57200003 4294967295
-0.011480845 0.11442446 0.56999999 4294967295
-0.01039884 0.11442406 0.56999999 4293717995
-0.009316843 0.11442366 0.56999999 4283520081
-0.0082348576 0.11442331 0.56999999 4278190080
-0.0071528796 0.11442298 0.56999999 4278193408
-0.0060709091 0.11442266 0.56999999 4279440395
-0.0049889474 0.11442239 0.56999999 4278190080
-0.0038932839 0.11402067 0.56800002 4285027630
-0.0028151316 0.11402046 0.56800002 4294633665
-0.0017339261 0.11381951 0.56699997 4294966774
-0.00065536221 0.11341787 0.565 4294439402
0.00041708146 0.11341774 0.565 4294177259
0.0014895215 0.11341762 0.565 4294243052
0.0025619587 0.11341755 0.565 4294506483
0.0036150957 0.11281528 0.56199998 4294045932
0.0046901656 0.11301597 0.56300002 4291810750
0.0057588015 0.11301596 0.56300002 4278190080
0.0068274369 0.113016 0.56300002 4278190080
0.0078960722 0.11301605 0.56300002 4278915084
0.010051168 0.11321697 0.56400001 4278976513
0.011082266 0.11281561 0.56199998 4280745984
0.012127397 0.11261505 0.56099999 4281008128
0.013192243 0.11261523 0.56099999 4278321152
0.014257099 0.11261545 0.56099999 4278190080
0.015240022 0.11201347 0.55800003 4279581184
0.016299194 0.11201374 0.55800003 4280107520
0.017358366 0.11201402 0.55800003 4285954655
0.018417548 0.11201434 0.55800003 4288520583
0.019441832 0.11181394 0.55699998 4292530321
0.020499127 0.11181429 0.55699998 4293319581
0.021517737 0.11161395 0.55599999 4294241507
0.022532552 0.11141364 0.55500001 4294966259
0.023543583 0.11121333 0.55400002 4294637288
0.024595223 0.1112138 0.55400002 4294571494
0.025646871 0.11121429 0.55400002 4292991206
0.026698533 0.11121482 0.55400002 4292728035
0.027800297 0.11141611 0.55500001 4290820299
0.028853878 0.11141668 0.55500001 4289899197
-0.087893195 0.12248712 0.60399997 4294967295
-0.086601086 0.12228228 0.60299999 4294967295
-0.085454531 0.12228023 0.60299999 4291282626
-0.084307998 0.12227819 0.60299999 4288387734
-0.083299443 0.12247898 0.60399997 4281150247
-0.0821511 0.12247699 0.60399997 4281218359
-0.080868691 0.12227225 0.60299999 4282797135
-0.079457924 0.12186476 0.60100001 4283189835
-0.078315414 0.12186284 0.60100001 4283189835
-0.075261921 0.12246544 0.60399997 4282400048
-0.073377639 0.12124706 0.59799999 4283321150
-0.071999408 0.12083974 0.59600002 4281090323
-0.070866644 0.12083796 0.59600002 4280366857
-0.070084915 0.12144441 0.59899998 4279107584
-0.068716317 0.12103718 0.597 4278190080
-0.067468554 0.12083271 0.59600002 4278780928
-0.066335924 0.12083099 0.59600002 4283386434
-0.065093942 0.12062659 0.59500003 4286937174
-0.063963287 0.12062493 0.59500003 4288516206
-0.062727071 0.12042058 0.59399998 4292460220
-0.061598398 0.12041897 0.59399998 4294631388
-0.060469761 0.12041737 0.59399998 4294967295
-0.059341151 0.1204158 0.59399998 4294967295
-0.058212582 0.12041427 0.59399998 4294967295
-0.056987938 0.12021003 0.59299999 4294967295
-0.055861332 0.12020854 0.59299999 4294967295
-0.054642465 0.12000437 0.59200001 4294967295
-0.053427417 0.11980021 0.59100002 4294967295
-0.052304711 0.11979882 0.59100002 4294835709
-0.05109543 0.1195947 0.58999997 4292665824
-0.049720582 0.11898524 0.58700001 4291678928
-0.048522763 0.1187812 0.58600003 4292532398
-0.047328774 0.1185772 0.58499998 4294967272
-0.046059601 0.11817053 0.583 4294967295
-0.044875167 0.11796658 0.58200002 4294967295
-0.043769766 0.11796537 0.58200002 4294967295
-0.042664398 0.11796418 0.58200002 4294967295
-0.041559048 0.11796299 0.58200002 4294967295
-0.040384211 0.11775915 0.58099997 4291677645
-0.039280817 0.11775804 0.58099997 4289700759
-0.038506001 0.11877036 0.58600003 4281937442
-0.034987524 0.11815917 0.583 4285675055
-0.033647995 0.11734749 0.579 4294952639
-0.032548551 0.11734653 0.579 4294967295
-0.031340484 0.11694023 0.57700002 4294967295
-0.030244878 0.11693934 0.57700002 4294967287
-0.02914929 0.11693845 0.57700002 4294966259
-0.028053723 0.1169376 0.57700002 4290431685
-0.026958175 0.11693677 0.57700002 4289116081
-0.025862647 0.11693598 0.57700002 4290166469
-0.024724215 0.11673254 0.57599998 4293192946
-0.023589594 0.11652911 0.57499999 4294967295
-0.022497918 0.11652841 0.57499999 4294967295
-0.021406259 0.11652773 0.57499999 4294967295
-0.020314617 0.11652705 0.57499999 4294967295
-0.01922299 0.11652641 0.57499999 4294967295
-0.018131375 0.1165258 0.57499999 4294835445
-0.016980512 0.11611993 0.57300001 4293322206
-0.015892724 0.11611937 0.57300001 4293782757
-0.014779112 0.11591619 0.57200003 4294570720
-0.013669309 0.11571305 0.57099998 4294967288
-0.012563315 0.11550992 0.56999999 4294967295
-0.011440987 0.11510418 0.56800002 4294967295
-0.010362752 0.11510379 0.56800002 4294573048
-0.0092845242 0.11510338 0.56800002 4284835940
-0.008206307 0.11510304 0.56800002 4281600289
-0.0071280976 0.11510269 0.56800002 4281139738
-0.0060392465 0.11489975 0.56699997 4280884763
-0.0049629519 0.11489947 0.56699997 4278386688
-0.0038798095 0.11469658 0.56599998 4283115264
-0.0028004691 0.11449371 0.565 4294958513
-0.0017279894 0.11449352 0.565 4294244078
-0.00065551436 0.11449336 0.565 4294178029
0.00041548058 0.11408794 0.56300002 4294440690
0.0014815154 0.11388517 0.56199998 4294243054
0.0025482851 0.11388509 0.56199998 4294571506
0.0036150524 0.11388503 0.56199998 4294637299
0.0046818187 0.11388501 0.56199998 4292073947
0.0057485825 0.11388499 0.56199998 4280033829
0.0068153464 0.11388502 0.56199998 4278190080
0.0078821117 0.11388507 0.56199998 4278190592
0.0089488765 0.11388516 0.56199998 4278190080
0.012084333 0.11327762 0.55900002 4278190080
0.01314541 0.1132778 0.55900002 4278190080
0.014231908 0.11348065 0.56 4280228893
0.015240274 0.11307563 0.55800003 4283715143
0.016299469 0.11307589 0.55800003 4285096796
0.01732756 0.11287351 0.55699998 4289960100
0.018384868 0.11287382 0.55699998 4291999682
0.019372374 0.11246887 0.55500001 4293777878
0.020425905 0.11246926 0.55500001 4294304222
0.021479441 0.11246965 0.55500001 4294967292
0.022532986 0.11247008 0.55500001 4294964979
0.02354404 0.11226786 0.55400002 4294177763
0.024595704 0.11226834 0.55400002 4293585883
0.025647378 0.11226883 0.55400002 4291350994
0.02669907 0.11226936 0.55400002 4290561478
-0.087749757 0.1234325 0.60299999 4294967295
-0.08645951 0.12322573 0.602 4294967295
-0.085173137 0.12301903 0.60100001 4291084990
-0.084030382 0.12301699 0.60100001 4288322202
-0.083025619 0.12321967 0.602 4279900698
-0.081881054 0.12321768 0.602 4279641662
-0.08060243 0.12301104 0.60100001 4281549659
-0.07932765 0.12280442 0.60000002 4282792258
-0.078187011 0.12280249 0.60000002 4282265914
-0.076918006 0.1225959 0.59899998 4281281072
-0.075779356 0.12259401 0.59899998 4280622886
-0.074266918 0.12197816 0.59600002 4280815904
-0.07313405 0.12197633 0.59600002 4283447623
-0.071880415 0.12176987 0.59500003 4283582049
-0.070749514 0.12176806 0.59500003 4288319401
-0.069384649 0.121357 0.59299999 4292267415
-0.068142526 0.12115061 0.59200001 4293122468
-0.067017451 0.1211489 0.59200001 4294967265
-0.065892406 0.12114719 0.59200001 4294967267
-0.064658001 0.12094089 0.59100002 4294967295
-0.063534923 0.12093924 0.59100002 4294967295
-0.062411893 0.1209376 0.59100002 4294967295
-0.061185189 0.12073137 0.58999997 4294967295
-0.059962314 0.12052517 0.58899999 4294967295
-0.058843192 0.1205236 0.58899999 4294967295
-0.057430074 0.1199082 0.58600003 4294966776
-0.056316722 0.11990671 0.58600003 4292597713
-0.055203393 0.11990523 0.58600003 4289242579
-0.054090101 0.11990378 0.58600003 4288650442
-0.052976836 0.11990234 0.58600003 4285691012
-0.051775087 0.11969632 0.58499998 4281414466
-0.05066378 0.11969494 0.58499998 4279445544
-0.049467809 0.11948897 0.58399999 4278192650
-0.048358463 0.11948763 0.58399999 4284042341
-0.04724915 0.11948632 0.58399999 4294967295
-0.046060868 0.11928045 0.583 4294967295
-0.044876408 0.11907461 0.58200002 4294967295
-0.043695774 0.11886879 0.58099997 4294967295
-0.042592268 0.11886758 0.58099997 4294967295
-0.041488796 0.1188664 0.58099997 4294967295
-0.04031584 0.11866067 0.57999998 4293059296
-0.03914671 0.11845496 0.579 4290952893
-0.038047113 0.11845386 0.579 4282070838
-0.036756102 0.11783905 0.57599998 4282070584
-0.03566226 0.11783801 0.57599998 4282925893
-0.034628447 0.1180416 0.57700002 4284430380
-0.033474624 0.11783601 0.57599998 4289693821
-0.032324627 0.11763047 0.57499999 4289566120
-0.031232772 0.11762954 0.57499999 4289171363
-0.030140933 0.11762864 0.57499999 4286411643
-0.028998598 0.11742321 0.574 4281740340
-0.027908703 0.11742236 0.574 4282265412
-0.026818823 0.11742151 0.574 4294437117
-0.025728961 0.1174207 0.574 4294967295
-0.024596199 0.11721537 0.57300001 4294967295
-0.023426222 0.1168055 0.57099998 4294967295
-0.022342116 0.11680479 0.57099998 4294967295
-0.021295249 0.11700867 0.57200003 4292794856
-0.020209277 0.117008 0.57200003 4288123553
-0.01915675 0.11721192 0.57300001 4279902847
-0.01806891 0.11721133 0.57300001 4278389351
-0.01698108 0.11721074 0.57300001 4282796288
-0.015865527 0.11700563 0.57200003 4285823004
-0.014753785 0.11680053 0.57099998 4290292651
-0.013597973 0.11618637 0.56800002 4294967295
-0.012519688 0.11618591 0.56800002 4294967295
-0.01142127 0.1159809 0.56699997 4294967295
-0.010326661 0.11577594 0.56599998 4294967034
-0.0092522027 0.11577556 0.56599998 4288650649
-0.0081777554 0.11577518 0.56599998 4280623724
-0.0071158665 0.11597941 0.56699997 4278386762
-0.006018234 0.11557002 0.565 4280293403
-0.004945708 0.11556973 0.565 4278190080
-0.0038731892 0.11556948 0.565 4280746496
-0.0028006774 0.11556928 0.565 4292720546
-0.0017281702 0.11556906 0.565 4294636515
-0.00065450743 0.11536437 0.56400001 4294768101
0.00041461707 0.11495513 0.56199998 4294308849
0.0014787808 0.11475044 0.56099999 4294177263
0.0025436794 0.11475039 0.56099999 4294242541
0.0036085758 0.11475032 0.56099999 4294571506
0.0046651405 0.11454574 0.56 4292864233
0.0057281358 0.11454574 0.56 4281416252
0.0067911306 0.11454576 0.56 4278190099
0.0078541255 0.11454581 0.56 4278190095
0.0089011984 0.11434136 0.55900002 4280689717
0.0099266544 0.11393236 0.55699998 4286084486
0.010983958 0.11393248 0.55699998 4289964158
0.012062887 0.1141372 0.55800003 4290951053
0.013122094 0.11413737 0.55800003 4294044617
0.014181307 0.11413758 0.55800003 4294505168
0.017296754 0.11372928 0.55599999 4293715184
0.018352192 0.11372958 0.55599999 4293649135
0.019372731 0.11352538 0.55500001 4292857821
0.020426283 0.11352575 0.55500001 4292199892
0.021441147 0.11332159 0.55400002 4289765564
0.022492817 0.113322 0.55400002 4289107634
-0.08687868 0.12334114 0.597 4294967295
-0.085743465 0.12333909 0.597 4294967295
-0.084466562 0.12313045 0.59600002 4291216579
-0.083333306 0.12312845 0.59600002 4288977302
-0.08220011 0.12312647 0.59600002 4280753433
-0.081474975 0.12374422 0.59899998 4279965696
-0.080067918 0.1233291 0.597 4282136863
-0.078800708 0.12312058 0.59600002 4282265639
-0.077667676 0.12311866 0.59600002 4281673502
-0.076149434 0.12249706 0.59299999 4280687888
-0.075022146 0.12249516 0.59299999 4281871906
-0.073770322 0.12228676 0.59200001 4284105804
-0.072645023 0.12228492 0.59200001 4287395454
-0.071398981 0.12207658 0.59100002 4289764756
-0.070275657 0.12207479 0.59100002 4290620065
-0.069152392 0.12207302 0.59100002 4294366935
-0.06802915 0.12207128 0.59100002 4294962671
-0.066792741 0.12186301 0.58999997 4294967295
-0.065671474 0.1218613 0.58999997 4294967295
-0.064550251 0.12185962 0.58999997 4294967295
-0.063429058 0.12185798 0.58999997 4294967295
-0.062307894 0.12185635 0.58999997 4294967295
-0.061083067 0.12164821 0.58899999 4294967295
-0.059862077 0.1214401 0.588 4294967295
-0.058545023 0.1210255 0.58600003 4294111986
-0.057333589 0.12081742 0.58499998 4292336340
-0.056125998 0.1206094 0.58399999 4291349445
-0.055016451 0.12060794 0.58399999 4286423204
-0.053906918 0.12060647 0.58399999 4282475881
-0.052797444 0.12060505 0.58399999 4281413183
-0.051687978 0.12060364 0.58399999 4280360495
-0.050578553 0.12060226 0.58399999 4280950306
-0.049384445 0.12039438 0.583 4278779905
-0.048276979 0.12039305 0.583 4284371456
-0.047169548 0.12039175 0.583 4294967211
-0.046062138 0.12039045 0.583 4294967295
-0.044800535 0.11997619 0.58099997 4294967295
-0.043621775 0.11976848 0.57999998 4294967295
-0.042446841 0.11956078 0.579 4294967295
-0.041347146 0.11955959 0.579 4294967295
-0.040177956 0.11935196 0.57800001 4294111986
-0.038944982 0.11893786 0.57599998 4290691268
-0.03778534 0.11873027 0.57499999 4281282869
-0.036693349 0.11872923 0.57499999 4282005041
-0.03560137 0.11872818 0.57499999 4283123778
-0.034509417 0.11872717 0.57499999 4283514420
-0.033417486 0.11872616 0.57499999 4285948761
-0.032269359 0.11851873 0.574 4284900719
-0.031125054 0.11831132 0.57300001 4282663500
-0.030036993 0.11831043 0.57300001 4282134584
-0.028898422 0.11810305 0.57200003 4278714372
-0.027812297 0.11810221 0.57200003 4282985472
-0.026726188 0.11810138 0.57200003 4294961835
-0.0256401 0.11810059 0.57200003 4294967295
-0.024554033 0.11809982 0.57200003 4294967295
-0.023385925 0.11768613 0.56999999 4294967295
-0.022303689 0.11768541 0.56999999 4294967295
-0.021258695 0.11789118 0.57099998 4292073173
-0.020174591 0.11789051 0.57099998 4279835675
-0.01912394 0.11809635 0.57200003 4279828487
-0.018037971 0.11809575 0.57200003 4279435265
-0.016863104 0.11747576 0.56900001 4279894016
-0.015782857 0.11747521 0.56900001 4282853913
-0.014625102 0.11685532 0.56599998 4291275650
-0.013526634 0.11664835 0.565 4294967265
-0.012454019 0.11664789 0.565 4294967295
-0.011381411 0.11664744 0.565 4294967295
-0.010308817 0.11664704 0.565 4294967295
-0.0092362296 0.11664665 0.565 4289045155
-0.0081636533 0.11664628 0.565 4285755255
-0.0070910854 0.11664595 0.565 4278912783
-0.0060185255 0.11664565 0.565 4279571733
-0.0049372185 0.11643891 0.56400001 4278190080
-0.0038665715 0.11643866 0.56400001 4278190080
-0.0027959298 0.11643845 0.56400001 4290228652
-0.0017252931 0.11643823 0.56400001 4293059285
-0.00065350119 0.11623164 0.56300002 4294506731
0.00041375268 0.11581858 0.56099999 4294308336
0.0014760457 0.11561202 0.56 4294176750
0.0025390731 0.11561193 0.56 4294110955
0.0036020987 0.11561187 0.56 4294637299
0.0046567917 0.11540539 0.55900002 4293588724
0.0057076872 0.11519894 0.55800003 4284114276
0.0067669125 0.11519896 0.55800003 4281601796
0.0078261383 0.11519901 0.55800003 4285417790
0.0088694403 0.11499263 0.55699998 4286545511
0.009908949 0.11478628 0.55599999 4287795579
0.010964382 0.11478641 0.55599999 4292129722
-0.086735219 0.12426949 0.59600002 4294967295
-0.085601866 0.12426744 0.59600002 4294967295
-0.084326841 0.12405691 0.59500003 4290690235
-0.083195493 0.12405491 0.59500003 4286419854
-0.082064167 0.1240529 0.59500003 4278191617
-0.080796838 0.12384243 0.59399998 4278192677
-0.079533376 0.12363198 0.59299999 4284906390
-0.078273781 0.1234216 0.59200001 4289305211
-0.077148311 0.12341968 0.59200001 4290752657
-0.076022886 0.12341779 0.59200001 4293911983
-0.074897505 0.12341592 0.59200001 4294504121
-0.073772162 0.12341407 0.59200001 4294966779
-0.07252413 0.12320377 0.59100002 4294967295
-0.071400769 0.12320196 0.59100002 4294967295
-0.070158526 0.1229917 0.58999997 4294967295
-0.069037132 0.12298995 0.58999997 4294967295
-0.067800656 0.12277974 0.58899999 4294965757
-0.066681243 0.12277804 0.58899999 4294965237
-0.065450542 0.12256788 0.588 4294570222
-0.064333096 0.1225662 0.588 4292925659
-0.063108169 0.12235612 0.58700001 4292136399
-0.06199269 0.12235448 0.58700001 4288253638
-0.060773548 0.12214445 0.58600003 4287266487
-0.059558216 0.12193443 0.58499998 4283653212
-0.058346741 0.12172446 0.58399999 4279969060
-0.057139084 0.12151448 0.583 4280231464
-0.056031384 0.12151299 0.583 4280033829
-0.054923698 0.1215115 0.583 4280495674
-0.053816065 0.12151006 0.583 4280693310
-0.052708454 0.12150863 0.583 4282270790
-0.05160087 0.12150721 0.583 4282797135
-0.050406702 0.1212974 0.58200002 4283189581
-0.049301084 0.12129606 0.58200002 4280623653
-0.048195496 0.12129471 0.58200002 4284239163
-0.047089931 0.12129342 0.58200002 4294967020
-0.045747362 0.1206669 0.579 4294967295
-0.04464756 0.12066565 0.579 4294967295
-0.043472562 0.12045601 0.57800001 4294967295
-0.042374719 0.12045481 0.57800001 4294967295
-0.041276898 0.12045364 0.57800001 4294967295
-0.040040057 0.1200357 0.57599998 4294440951
-0.03881086 0.11961779 0.574 4291150788
-0.03772071 0.11961669 0.574 4280887080
-0.036630582 0.11961564 0.574 4281873454
-0.035540484 0.1196146 0.574 4282926143
-0.034390382 0.1194052 0.57300001 4282990904
-0.033302225 0.1194042 0.57300001 4283254333
-0.032214087 0.11940323 0.57300001 4282727737
-0.031071659 0.11919393 0.57200003 4282464308
-0.02998546 0.11919301 0.57200003 4282664004
-0.028899288 0.11919213 0.57200003 4280098077
-0.027764514 0.1189829 0.57099998 4281607959
-0.02668028 0.11898208 0.57099998 4291937460
-0.025506409 0.11856452 0.56900001 4294967279
-0.024426008 0.11856375 0.56900001 4294967294
-0.023345631 0.11856301 0.56900001 4294967295
-0.022265265 0.11856229 0.56900001 4294967295
-0.02114768 0.11835324 0.56800002 4293454056
-0.020069249 0.11835256 0.56800002 4280229663
-0.01899083 0.11835193 0.56800002 4278723354
-0.017912429 0.11835133 0.56800002 4280960059
-0.016863672 0.11855909 0.56900001 4281873454
-0.015783399 0.11855855 0.56900001 4282136883
-0.014599775 0.11772457 0.565 4290814847
-0.013503175 0.1175157 0.56400001 4294967272
-0.012432433 0.11751524 0.56400001 4294967295
-0.011381841 0.11772316 0.565 4294967295
-0.010309218 0.11772273 0.565 4294967287
-0.0092202574 0.11751398 0.56400001 4289571742
-0.0081351027 0.11730529 0.56300002 4285887593
-0.0070663048 0.11730495 0.56300002 4278452992
-0.005997513 0.11730462 0.56300002 4278192140
-0.0049199751 0.11709598 0.56199998 4278190080
-0.0038530964 0.11709573 0.56199998 4278190080
-0.0027862247 0.11709551 0.56199998 4286809733
-0.0017132389 0.11667861 0.56 4291677361
-0.00065017369 0.11667845 0.56 4294704096
0.00041288763 0.11667829 0.56 4294702840
0.0014706739 0.11626147 0.55800003 4294110703
0.0025299322 0.11626139 0.55800003 4294242541
0.0035891887 0.11626135 0.55800003 4294571506
0.0046484419 0.1162613 0.55800003 4294177779
0.005697466 0.11605293 0.55699998 4292993505
0.0067548198 0.11605295 0.55699998 4293455841
0.007812174 0.11605301 0.55699998 4294311150
0.0088695297 0.11605307 0.55699998 4294375144
0.0098912418 0.11563648 0.55500001 4294506731
0.010944803 0.1156366 0.55500001 4293189090
-0.086591743 0.1251941 0.59500003 4294967295
-0.085460275 0.12519205 0.59500003 4294967295
-0.084187135 0.12497961 0.59399998 4290690750
-0.083057649 0.1249776 0.59399998 4286682771
-0.081928216 0.1249756 0.59399998 4283327072
-0.080662787 0.12476326 0.59299999 4285691486
-0.07940121 0.12455091 0.59200001 4288849550
-0.078275695 0.12454897 0.59200001 4291474608
-0.077150196 0.12454703 0.59200001 4293316812
-0.076024771 0.12454516 0.59200001 4294964723
-0.07477285 0.1243329 0.59100002 4294967295
-0.073524751 0.12412067 0.58999997 4294967295
-0.072403245 0.12411885 0.58999997 4294967295
-0.071160927 0.12390666 0.58899999 4294967295
-0.070041381 0.12390488 0.58899999 4294967295
-0.068804845 0.12369274 0.588 4294967295
-0.067687273 0.12369101 0.588 4294242289
-0.066569738 0.1236893 0.588 4293782242
-0.065452226 0.1236876 0.588 4292729554
-0.064115934 0.12326521 0.58600003 4291086526
-0.062894784 0.12305322 0.58499998 4289112736
-0.061783083 0.12305159 0.58499998 4281826920
-0.060567703 0.12283964 0.58399999 4280774489
-0.05945798 0.12283807 0.58399999 4278197056
-0.058248367 0.12262619 0.583 4278200397
-0.057042595 0.12241432 0.58200002 4281149482
-0.055936765 0.12241283 0.58200002 4281544240
-0.054642539 0.12199069 0.57999998 4282399047
-0.05354058 0.12198924 0.57999998 4283056977
-0.052438639 0.1219878 0.57999998 4283648589
-0.051336724 0.12198639 0.57999998 4283714382
-0.050234847 0.121985 0.57999998 4283451724
-0.049133003 0.12198364 0.57999998 4280951589
-0.048031185 0.12198231 0.57999998 4283382567
-0.046848495 0.1217707 0.579 4294963676
-0.045748632 0.12176942 0.579 4294967295
-0.044571694 0.12155786 0.57800001 4294967295
-0.043473788 0.12155663 0.57800001 4294967295
-0.042302594 0.12134511 0.57700002 4294967295
-0.041135225 0.12113363 0.57599998 4294967295
-0.039832648 0.12050158 0.57300001 4294967294
-0.038744349 0.12050048 0.57300001 4291217094
-0.037590355 0.12028909 0.57200003 4280690214
-0.036504 0.12028802 0.57200003 4281676332
-0.035417672 0.12028698 0.57200003 4283255107
-0.034331366 0.12028597 0.57200003 4282795840
-0.033070717 0.11965409 0.56900001 4282466875
-0.031990156 0.11965314 0.56900001 4282664004
-0.030909609 0.1196522 0.56900001 4282861383
-0.029829089 0.1196513 0.56900001 4282992701
-0.028799111 0.11986071 0.56999999 4280689946
-0.027668102 0.11964956 0.56900001 4279575296
-0.026587639 0.11964874 0.56900001 4290760097
-0.025462365 0.11943766 0.56800002 4293980137
-0.024383839 0.11943687 0.56800002 4294967295
-0.023346357 0.11964642 0.56900001 4294967295
-0.022226838 0.11943542 0.56800002 4294967295
-0.021148359 0.11943474 0.56800002 4294572537
-0.020069897 0.11943407 0.56800002 4283453520
-0.018991452 0.11943343 0.56800002 4280231716
-0.017913021 0.11943281 0.56800002 4282468422
-0.015589764 0.11817007 0.56199998 4281544240
-0.014522764 0.11816955 0.56199998 4289952863
-0.013479718 0.11837931 0.56300002 4294967267
-0.012410846 0.11837884 0.56300002 4294967295
-0.011341983 0.1183784 0.56300002 4294769400
-0.010273129 0.11837798 0.56300002 4291548626
-0.0092042852 0.1183776 0.56300002 4288127133
-0.0081209987 0.11816695 0.56199998 4283330147
-0.0070540723 0.11816662 0.56199998 4278197265
-0.0059871534 0.11816632 0.56199998 4278190080
-0.0049114856 0.11795577 0.56099999 4278190080
-0.0038464784 0.11795552 0.56099999 4278190080
-0.0027765199 0.11774505 0.56 4286943366
-0.0017073029 0.11732433 0.55800003 4289113251
-0.0006480072 0.11732417 0.55800003 4294245105
0.00041128471 0.11732402 0.55800003 4294833908
0.0014679371 0.11711363 0.55699998 4294505199
0.002525324 0.11711355 0.55699998 4294833908
0.0035827085 0.11711349 0.55699998 4294570992
0.0046400912 0.11711345 0.55699998 4294505199
-0.08644826 0.12611495 0.59399998 4294967295
-0.08517506 0.1259006 0.59299999 4294967295
-0.084047422 0.12589855 0.59299999 4294046193
-0.082919829 0.12589654 0.59299999 4294243826
-0.081654347 0.12568225 0.59200001 4294704377
-0.080392703 0.125468 0.59100002 4294967295
-0.079269029 0.12546603 0.59100002 4294967295
-0.078145392 0.1254641 0.59100002 4294967295
-0.077021778 0.12546219 0.59100002 4294967295
-0.07589823 0.12546031 0.59100002 4294967295
-0.07477472 0.12545843 0.59100002 4294967295
-0.073526606 0.12524429 0.58999997 4294967295
-0.072282337 0.12503017 0.58899999 4293453792
-0.07116273 0.12502837 0.58899999 4291940299
-0.06992425 0.12481432 0.588 4290953404
-0.068689592 0.12460028 0.58700001 4284701872
-0.067573898 0.12459854 0.58700001 4283386012
-0.066458233 0.12459683 0.58700001 4280629520
-0.065231286 0.12438286 0.58600003 4278326784
-0.064008176 0.12416892 0.58499998 4279902464
-0.062681392 0.12374278 0.583 4280428800
-0.061467856 0.12352891 0.58200002 4285496632
-0.060361873 0.1235273 0.58200002 4287075408
-0.059357733 0.12373798 0.583 4280437400
-0.058149997 0.12352417 0.58200002 4278198896
-0.057044119 0.12352265 0.58200002 4278398766
-0.055842139 0.1233089 0.58099997 4279648576
-0.054549787 0.12288295 0.579 4282071365
-0.053449705 0.1228815 0.579 4282466123
-0.052349642 0.12288007 0.579 4282992201
-0.051249605 0.12287866 0.579 4283255374
-0.050149608 0.12287728 0.579 4283189830
-0.048964929 0.12266371 0.57800001 4280492574
-0.047866888 0.12266239 0.57800001 4282855461
-0.046687961 0.12244886 0.57700002 4294763738
-0.045591872 0.12244757 0.57700002 4294967295
-0.044418696 0.1222341 0.57599998 4294967295
-0.04324935 0.12202065 0.57499999 4294967295
-0.042083841 0.12180725 0.574 4294967295
-0.04092215 0.12159389 0.57300001 4294967295
-0.039764266 0.12138053 0.57200003 4294967295
-0.038610216 0.12116718 0.57099998 4293321939
-0.037525717 0.12116611 0.57099998 4280755732
-0.036441229 0.12116502 0.57099998 4280754724
-0.035232939 0.12073959 0.56900001 4283320651
-0.034152303 0.12073859 0.56900001 4283057992
-0.033071693 0.1207376 0.56900001 4282992199
-0.031934876 0.12052445 0.56800002 4282071871
-0.030856203 0.12052351 0.56800002 4281018927
-0.029777559 0.12052261 0.56800002 4280032284
-0.028749451 0.12073391 0.56900001 4281348144
-0.027620317 0.12052087 0.56800002 4281871967
-0.026541723 0.12052003 0.56800002 4291543538
-0.025463155 0.12051924 0.56800002 4294308334
-0.024384597 0.12051846 0.56800002 4294967295
-0.023306062 0.1205177 0.56800002 4294967295
-0.022227546 0.12051699 0.56800002 4294967295
-0.021111805 0.12030411 0.56699997 4294967295
-0.020035215 0.12030345 0.56699997 4286150520
-0.018691147 0.11860542 0.55900002 4281281072
-0.01762978 0.11860482 0.55900002 4283320399
-0.016568424 0.11860424 0.55900002 4282926928
-0.015562561 0.11902804 0.56099999 4281742398
-0.014497433 0.1190275 0.56099999 4287592987
-0.013432319 0.11902701 0.56099999 4289237811
-0.012367213 0.11902653 0.56099999 4286142572
-0.011281974 0.11881392 0.56 4279959566
-0.010218789 0.11881349 0.56 4278190080
-0.0091719627 0.11902526 0.56099999 4278190080
-0.0080924481 0.11881275 0.56 4278190080
-0.0070167379 0.11860024 0.55900002 4278190080
-0.005955487 0.11859994 0.55900002 4278520608
-0.0048942426 0.11859967 0.55900002 4284375928
-0.0038330047 0.11859941 0.55900002 4285294722
-0.002766815 0.11838702 0.55800003 4289900232
-0.0017013667 0.11796248 0.55599999 4291214543
-0.00064584066 0.11796233 0.55599999 4294965247
0.00041041826 0.11817434 0.55699998 4294965492
0.0014678352 0.11817422 0.55699998 4294899442
-0.086159259 0.12681785 0.59200001 4294967295
-0.085033461 0.1268158 0.59200001 4294967295
-0.083907716 0.12681375 0.59200001 4294967295
-0.082781993 0.12681174 0.59200001 4294967295
-0.081518412 0.12659557 0.59100002 4294967295
-0.080258615 0.12637936 0.58999997 4294967295
-0.079136841 0.1263774 0.58999997 4294967295
-0.078015082 0.1263755 0.58999997 4294967295
-0.076763041 0.12615938 0.58899999 4294967295
-0.075643264 0.12615749 0.58899999 4294967295
-0.074270479 0.12572727 0.58700001 4294243056
-0.073154576 0.1257254 0.58700001 4292730333
-0.07203871 0.12572357 0.58700001 4292138196
-0.070922889 0.12572177 0.58700001 4288460702
-0.069688171 0.12550582 0.58600003 4285565810
-0.06822326 0.12486154 0.583 4279847255
-0.067115143 0.12485981 0.583 4278860360
-0.06600707 0.1248581 0.583 4278190080
-0.064787701 0.12464224 0.58200002 4278654726
-0.063681588 0.12464058 0.58200002 4281409808
-0.062467992 0.12442477 0.58099997 4286212953
-0.061363842 0.12442313 0.58099997 4289566609
-0.060259733 0.12442153 0.58099997 4290816676
-0.059257478 0.1246341 0.58200002 4289111491
-0.057951704 0.12420426 0.57999998 4279900727
-0.056457531 0.12334617 0.57599998 4279704336
-0.055363052 0.12334467 0.57599998 4282072884
-0.05426861 0.1233432 0.57599998 4282727776
-0.05317419 0.12334175 0.57599998 4283056740
-0.052079812 0.12334032 0.57599998 4283517793
-0.050985452 0.12333892 0.57599998 4283057242
-0.049977753 0.12355169 0.57700002 4282992701
-0.048881549 0.1235503 0.57700002 4281084704
-0.047868203 0.12376311 0.57800001 4282787616
-0.046608336 0.12333355 0.57599998 4294696148
-0.045435105 0.12311815 0.57499999 4294967295
-0.044265706 0.12290279 0.574 4294967295
-0.043024916 0.12247334 0.57200003 4294967295
-0.041938391 0.12247214 0.57200003 4294967295
-0.040851887 0.12247096 0.57200003 4294967295
-0.039695878 0.12225568 0.57099998 4294967295
-0.038543705 0.12204047 0.56999999 4293519334
-0.037329633 0.12161117 0.56800002 4281610800
-0.03625083 0.12161011 0.56800002 4280294173
-0.035172045 0.12160907 0.56800002 4282925893
-0.034093287 0.12160806 0.56800002 4283187004
-0.033014543 0.12160707 0.56800002 4282923833
-0.031879593 0.12139199 0.56699997 4281152064
-0.030802801 0.12139107 0.56699997 4282138959
-0.029726023 0.12139016 0.56699997 4283718227
-0.028649265 0.12138926 0.56699997 4286415484
-0.027572529 0.12138842 0.56699997 4289241492
-0.026495812 0.1213876 0.56699997 4292794313
-0.02541911 0.12138679 0.56699997 4294966527
-0.024256567 0.12095784 0.565 4294967295
-0.022896471 0.11945851 0.55800003 4294967295
-0.021797778 0.11924372 0.55699998 4294967295
-0.020740131 0.11924302 0.55699998 4294967295
-0.019753179 0.11967053 0.55900002 4285952627
-0.018691769 0.1196699 0.55900002 4282725690
-0.017630372 0.1196693 0.55900002 4283646536
-0.016568987 0.11966872 0.55900002 4282928210
-0.015507618 0.11966817 0.55900002 4282664781
-0.014446259 0.11966763 0.55900002 4281812499
-0.013408858 0.11988121 0.56 4280759812
-0.012323581 0.11966667 0.55900002 4278191388
-0.011242111 0.11945216 0.55800003 4278190093
-0.010182697 0.11945174 0.55800003 4278190080
-0.0091232909 0.11945134 0.55800003 4278190080
-0.0080494434 0.11923689 0.55699998 4278323976
-0.0069919531 0.11923657 0.55699998 4282666571
-0.0059131631 0.11880812 0.55500001 4286150238
-0.0048594857 0.11880784 0.55500001 4287400305
-0.0037989584 0.11859354 0.55400002 4291669686
-0.0027471918 0.11859331 0.55400002 4292327616
-0.0016984913 0.11880717 0.55500001 4294502117
-0.00064599817 0.11902106 0.55599999 4294830826
-0.086015768 0.1277293 0.59100002 4294967295
-0.084891863 0.12772726 0.59100002 4294967295
-0.083626248 0.12750909 0.58999997 4294967295
-0.082504332 0.12750709 0.58999997 4294967295
-0.081244513 0.12728898 0.58899999 4294967293
-0.080124542 0.12728702 0.58899999 4294176496
-0.07887052 0.12706897 0.588 4292268499
-0.077488087 0.12663485 0.58600003 4287926468
-0.076243609 0.12641683 0.58499998 4286807986
-0.075002991 0.12619886 0.58399999 4282932053
-0.07389275 0.126197 0.58399999 4278589715
-0.072782524 0.12619516 0.58399999 4278190081
-0.07167235 0.12619333 0.58399999 4278190080
-0.070441388 0.12597546 0.583 4282206464
-0.069333173 0.12597369 0.583 4282864640
-0.067990944 0.12553975 0.58099997 4283585913
-0.066886611 0.12553804 0.58099997 4286743976
-0.06566909 0.12532026 0.57999998 4290690946
-0.064566731 0.12531857 0.57999998 4292269977
-0.063354984 0.12510085 0.579 4294965467
-0.06225457 0.1250992 0.579 4294967273
-0.061154217 0.12509759 0.579 4294967295
-0.060053889 0.12509599 0.579 4294967295
-0.058648128 0.12444625 0.57599998 4292533987
-0.057553563 0.12444472 0.57599998 4284704620
-0.056361016 0.12422714 0.57499999 4285302415
-0.055268411 0.12422565 0.57499999 4289710547
-0.05417585 0.12422417 0.57499999 4292069589
-0.053083312 0.12422273 0.57499999 4291609038
-0.051900387 0.12400527 0.574 4291083668
-0.050809808 0.12400387 0.574 4283320094
-0.049805872 0.12421851 0.57499999 4282795590
-0.048713461 0.12421717 0.57499999 4282071867
-0.047621071 0.12421584 0.57499999 4282068256
-0.046528708 0.12421453 0.57499999 4292529599
-0.045357358 0.12399722 0.574 4294967295
-0.044112708 0.12356392 0.57200003 4294967295
-0.042950906 0.12334668 0.57099998 4294967295
-0.041792933 0.12312947 0.56999999 4294967295
-0.040710203 0.1231283 0.56999999 4294967295
-0.039488457 0.12269513 0.56800002 4294967295
-0.038409568 0.12269399 0.56800002 4294374642
-0.037264992 0.12247689 0.56699997 4282334524
-0.036188059 0.12247582 0.56699997 4279966239
-0.035111144 0.12247478 0.56699997 4282466373
-0.034034256 0.12247377 0.56699997 4282793530
-0.03295739 0.12247276 0.56699997 4282727737
-0.031880546 0.12247181 0.56699997 4286865266
-0.030749394 0.12225488 0.56599998 4294962687
-0.029622063 0.12203798 0.565 4294967295
-0.028549079 0.1220371 0.565 4294967295
-0.027476117 0.12203625 0.565 4294967295
-0.026403166 0.12203542 0.565 4294967295
-0.025150908 0.12117063 0.56099999 4294967295
-0.023913864 0.12030593 0.55699998 4294242804
-0.022856159 0.12030517 0.55699998 4292201942
-0.021798473 0.12030447 0.55699998 4291215047
-0.020740805 0.12030378 0.55699998 4289966496
-0.019718491 0.12051911 0.55800003 4283518782
-0.018658951 0.12051849 0.55800003 4281020724
-0.017599426 0.12051788 0.55800003 4281613117
-0.016539915 0.12051728 0.55800003 4280956477
-0.015480416 0.12051673 0.55800003 4280298804
-0.014420932 0.12051621 0.55800003 4280690218
-0.013361457 0.12051571 0.55800003 4283782233
-0.012279949 0.12029926 0.55699998 4287005810
-0.011202245 0.12008282 0.55599999 4289374358
-0.010146601 0.12008241 0.55599999 4292136871
-0.0090909675 0.12008204 0.55599999 4292729009
-0.0080353413 0.12008167 0.55599999 4293780704
-0.0069671692 0.11986535 0.55500001 4294767856
-0.005902803 0.11964908 0.55400002 4294703342
-0.0048509971 0.11964879 0.55400002 4294967285
-0.0037991977 0.11964854 0.55400002 4293254379
-0.0027474042 0.11964831 0.55400002 4292728035
-0.0016956162 0.11964811 0.55400002 4290753994
-0.00064383267 0.11964794 0.55400002 4290293443
-0.086017795 0.128855 0.59100002 4294967295
-0.084750235 0.12863493 0.58999997 4294967295
-0.08348652 0.12841488 0.58899999 4294967295
-0.082226641 0.12819487 0.588 4294769139
-0.0809706 0.12797487 0.58700001 4293716195
-0.079854436 0.1279729 0.58700001 4290563275
-0.078470029 0.12753494 0.58499998 4289971138
-0.077093288 0.12709701 0.583 4283993983
-0.075854518 0.12687711 0.58200002 4281559641
-0.074748002 0.12687522 0.58200002 4278191360
-0.073641531 0.12687337 0.58200002 4278191360
-0.072535105 0.12687156 0.58200002 4278190080
-0.071428709 0.12686972 0.58200002 4280890664
-0.070443168 0.12708591 0.583 4284898903
-0.069097079 0.12664816 0.58099997 4286806900
-0.067875661 0.12642843 0.57999998 4291604413
-0.066773213 0.1264267 0.57999998 4291538364
-0.065557569 0.12620702 0.579 4292659370
-0.064457074 0.12620533 0.579 4294962640
-0.063356638 0.12620367 0.579 4294967033
-0.061933633 0.12554811 0.57599998 4294967295
-0.06062771 0.12511058 0.574 4294967295
-0.059433136 0.12489104 0.57300001 4294967295
-0.058344226 0.1248895 0.57300001 4293719029
-0.057255339 0.12488795 0.57300001 4290297537
-0.056166489 0.12488643 0.57300001 4289968576
-0.055077661 0.12488493 0.57300001 4293850363
-0.053988874 0.12488347 0.57300001 4294967295
-0.052900117 0.12488203 0.57300001 4291940049
-0.051811378 0.1248806 0.57300001 4291673018
-0.050722681 0.1248792 0.57300001 4283448893
-0.049547385 0.12465987 0.57200003 4281615166
-0.048460644 0.12465854 0.57200003 4280694064
-0.047622394 0.12531099 0.57499999 4282199846
-0.0452796 0.12487256 0.57300001 4294966000
-0.044036821 0.12443542 0.57099998 4294967295
-0.042801674 0.12399837 0.56900001 4294967295
-0.041647479 0.12377925 0.56800002 4294967295
-0.040497094 0.12356015 0.56699997 4294967295
-0.039420053 0.123559 0.56699997 4294967295
-0.03834305 0.12355788 0.56699997 4294967295
-0.037266068 0.1235568 0.56699997 4283650899
-0.036061458 0.12311991 0.565 4279508257
-0.034988325 0.12311888 0.565 4282139720
-0.033915207 0.12311785 0.565 4282859848
-0.032842115 0.12311686 0.565 4281741623
-0.031769041 0.12311591 0.565 4289034353
-0.03069599 0.12311496 0.565 4294965231
-0.029518101 0.12267826 0.56300002 4294967295
-0.028398355 0.12245946 0.56199998 4294967295
-0.027331062 0.12245861 0.56199998 4294967295
-0.026217051 0.12223988 0.56099999 4294967295
-0.025017193 0.12158541 0.55800003 4293585642
-0.023914615 0.12136675 0.55699998 4292796126
-0.022856884 0.12136599 0.55699998 4288328875
-0.021799175 0.12136528 0.55699998 4285565569
-0.020741478 0.12136461 0.55699998 4279980360
-0.019719137 0.12158183 0.55800003 4279914567
-0.018659569 0.12158119 0.55800003 4279252008
-0.01760002 0.12158059 0.55800003 4280173110
-0.016540483 0.12158 0.55800003 4280496682
-0.015453213 0.12136154 0.55699998 4282075715
-0.014395597 0.12136101 0.55699998 4285227631
-0.013337997 0.12136053 0.55699998 4286609283
-0.01225836 0.12114216 0.55599999 4291472058
-0.011202678 0.12114173 0.55599999 4293051089
-0.010128757 0.12092342 0.55500001 4294239463
-0.0090749916 0.12092303 0.55500001 4294568171
-0.0080212392 0.12092267 0.55500001 4294965235
-0.0069549382 0.12070446 0.55400002 4294833649
-0.0059030983 0.12070415 0.55400002 4294637036
-0.0048512649 0.12070387 0.55400002 4294307814
-0.0037994387 0.12070362 0.55400002 4291942618
-0.0027426584 0.12048549 0.55299997 4291284432
-0.0016927416 0.1204853 0.55299997 4288524458
-0.085728772 0.12954094 0.58899999 4294967295
-0.08446499 0.12931895 0.588 4294967295
-0.083205052 0.12909701 0.58700001 4291215810
-0.081948943 0.12887508 0.58600003 4287925910
-0.080834642 0.12887311 0.58600003 4279175442
-0.079584308 0.12865122 0.58499998 4278916617
-0.0782037 0.12820946 0.583 4279969562
-0.076962963 0.12798762 0.58200002 4278200358
-0.075726055 0.12776582 0.58099997 4283399291
-0.074621417 0.12776394 0.58099997 4290166661
-0.073516846 0.12776208 0.58099997 4291087763
-0.072287656 0.12754035 0.57999998 4294966476
-0.071185045 0.12753856 0.57999998 4294967253
-0.070082463 0.12753674 0.57999998 4294967295
-0.068979919 0.12753497 0.57999998 4294967295
-0.067760378 0.12731333 0.579 4294967295
-0.066659808 0.12731162 0.579 4294834175
-0.065446042 0.12709002 0.57800001 4294373598
-0.064236097 0.12686846 0.57700002 4294834149
-0.062811151 0.12620717 0.574 4294965757
-0.061612681 0.12598565 0.57300001 4294967295
-0.060523678 0.12598407 0.57300001 4294967295
-0.059434712 0.12598248 0.57300001 4294967295
-0.058243945 0.12576106 0.57200003 4294967295
-0.057156939 0.12575951 0.57200003 4294967295
-0.056069966 0.12575802 0.57200003 4294967295
-0.05498302 0.1257565 0.57200003 4294967295
-0.053896114 0.12575504 0.57200003 4294967285
-0.0527169 0.12553373 0.57099998 4291018416
-0.051631946 0.1255323 0.57099998 4290491013
-0.050547019 0.12553093 0.57099998 4282859025
-0.049288873 0.12508987 0.56900001 4282073668
-0.048123091 0.1248687 0.56800002 4281349688
-0.047043949 0.12486736 0.56800002 4281806114
-0.045883909 0.12464621 0.56699997 4290951598
-0.044806726 0.12464495 0.56699997 4294965728
-0.043652445 0.12442388 0.56599998 4294967291
-0.042577211 0.12442267 0.56599998 4294967295
-0.041428685 0.12420165 0.565 4294967295
-0.040355403 0.12420048 0.565 4294967295
-0.039282139 0.12419932 0.565 4294967295
-0.038208906 0.12419821 0.565 4294967295
-0.037135702 0.12419713 0.565 4285361771
-0.036062513 0.12419605 0.565 4280427042
-0.034927424 0.12397519 0.56400001 4282203453
-0.03385618 0.12397417 0.56400001 4283123537
-0.032726832 0.12375338 0.56300002 4281676091
-0.031657536 0.12375243 0.56300002 4287191860
-0.030588252 0.12375147 0.56300002 4294429090
-0.02941413 0.12331096 0.56099999 4291672264
-0.028348695 0.12331007 0.56099999 4288579994
-0.027283272 0.12330923 0.56099999 4283788908
-0.026077664 0.12264899 0.55800003 4279841585
-0.024973141 0.12242841 0.55699998 4278588160
-0.023915371 0.12242762 0.55699998 4278190080
-0.022816578 0.12220709 0.55599999 4278192640
-0.021760738 0.12220637 0.55599999 4278457344
-0.020704916 0.12220568 0.55599999 4281682213
-0.019719785 0.12264461 0.55800003 4285761378
-0.018660195 0.12264396 0.55800003 4290491529
-0.017569076 0.12242357 0.55699998 4291807646
-0.016511407 0.12242299 0.55699998 4294966229
-0.015453754 0.12242242 0.55699998 4294967261
-0.014396113 0.12242188 0.55699998 4294967295
-0.01223677 0.12198134 0.55500001 4294967295
-0.011182962 0.12198089 0.55500001 4294967295
-0.010110911 0.12176069 0.55400002 4293714932
-0.0090590194 0.12176029 0.55400002 4292793830
-0.0080071371 0.12175994 0.55400002 4290028235
-0.085730813 0.13066295 0.58899999 4294967295
-0.083605103 0.12910806 0.58200002 4294967295
-0.082498305 0.12910604 0.58200002 4290690235
-0.081531398 0.1293259 0.583 4287664254
-0.080284812 0.12910208 0.58200002 4279045632
-0.07904207 0.12887831 0.58099997 4279372301
-0.077803187 0.12865457 0.57999998 4280096280
-0.076568119 0.12843084 0.579 4280164096
-0.075467251 0.12842897 0.579 4290427789
-0.074366413 0.1284271 0.579 4290955469
-0.073265612 0.12842524 0.579 4294179326
-0.072040208 0.1282016 0.57800001 4294967295
-0.070941374 0.1281998 0.57800001 4294967295
-0.069842577 0.12819801 0.57800001 4294967295
-0.068505943 0.12775265 0.57599998 4294967295
-0.06741102 0.12775092 0.57599998 4294967294
-0.066431262 0.12797098 0.57700002 4293585381
-0.065108038 0.12752569 0.57499999 4290167976
-0.064015113 0.12752403 0.57499999 4292602318
-0.062703364 0.12707883 0.57300001 4294833908
-0.061614301 0.12707719 0.57300001 4294967295
-0.060525276 0.12707557 0.57300001 4294967295
-0.059332561 0.12685223 0.57200003 4294967295
-0.058245499 0.12685066 0.57200003 4294967295
-0.05715847 0.12684911 0.57200003 4294967295
-0.056071475 0.12684759 0.57200003 4294967295
-0.054888383 0.12662436 0.57099998 4294243574
-0.053614888 0.12617935 0.56900001 4290957520
-0.052533682 0.12617792 0.56900001 4288917680
-0.051452503 0.12617648 0.56900001 4285892476
-0.050371356 0.12617511 0.56900001 4281879103
-0.049203608 0.12595196 0.56800002 4282992199
-0.04803969 0.12572888 0.56699997 4281808182
-0.046962425 0.12572756 0.56699997 4281674781
-0.045804266 0.12550452 0.56599998 4290293664
-0.044728953 0.12550326 0.56599998 4293714900
-0.04357655 0.12528028 0.565 4294967295
-0.042503193 0.12527904 0.565 4294967295
-0.041429862 0.12527786 0.565 4294967295
-0.040356554 0.1252767 0.565 4294967295
-0.039213743 0.12505382 0.56400001 4294967295
-0.038142383 0.12505269 0.56400001 4294967295
-0.037071057 0.12505163 0.56400001 4287400587
-0.035935916 0.12482882 0.56300002 4281938244
-0.034804594 0.12460607 0.56199998 4282464588
-0.033737119 0.12460503 0.56199998 4283057742
-0.032611545 0.12438234 0.56099999 4282334276
-0.031546019 0.12438139 0.56099999 4286335284
-0.030480515 0.12438045 0.56099999 4290480243
-0.029362595 0.12415782 0.56 4288647054
-0.028248494 0.12393524 0.55900002 4283449407
-0.027089573 0.12349096 0.55699998 4279046144
-0.02603174 0.12349015 0.55699998 4279440899
-0.024929091 0.12326764 0.55599999 4278193664
-0.023873191 0.12326688 0.55599999 4278190848
-0.022776272 0.12304443 0.55500001 4279111168
-0.021722304 0.12304372 0.55500001 4284835398
-0.020705592 0.12326472 0.55599999 4287991159
-0.019685097 0.12348576 0.55699998 4289109896
-0.018627377 0.12348512 0.55699998 4292986064
-0.01756967 0.12348448 0.55699998 4294367717
-0.016482336 0.12326221 0.55599999 4294967295
-0.015398809 0.12303996 0.55500001 4294967295
-0.014344939 0.12303944 0.55500001 4294967295
-0.01329108 0.12303893 0.55500001 4294967295
-0.012215185 0.12281679 0.55400002 4294967295
-0.011163247 0.12281634 0.55400002 4294637560
-0.085378483 0.12954962 0.579 4294967295
-0.084277287 0.12954758 0.579 4294967295
-0.083319806 0.12976931 0.57999998 4294967295
-0.082216807 0.12976733 0.57999998 4290954176
-0.081253663 0.12998906 0.58099997 4288453527
-0.080010876 0.12976336 0.57999998 4281084454
-0.078907982 0.12976143 0.57999998 4281741623
-0.077670962 0.12953578 0.579 4281083437
-0.076437786 0.12931015 0.57800001 4282134580
-0.075338803 0.12930825 0.57800001 4293056218
-0.074111395 0.12908268 0.57700002 4294967295
-0.073014379 0.12908083 0.57700002 4294967295
-0.071792737 0.12885529 0.57599998 4294967295
-0.070697695 0.1288535 0.57599998 4294967295
-0.069602676 0.1288517 0.57599998 4291151832
-0.068507701 0.12884994 0.57599998 4281414469
-0.067412756 0.1288482 0.57599998 4278210315
-0.0662027 0.12862277 0.57499999 4279329053
-0.064996496 0.12839739 0.574 4282865187
-0.063905455 0.12839572 0.574 4288589179
-0.062595576 0.12794667 0.57200003 4293189058
-0.061508395 0.12794507 0.57200003 4293978573
-0.060421254 0.12794347 0.57200003 4292530392
-0.059230406 0.1277182 0.57099998 4291017153
-0.058145221 0.12771663 0.57099998 4284504246
-0.056960139 0.12749141 0.56999999 4283385764
-0.055876922 0.12748989 0.56999999 4281350220
-0.054697599 0.12726474 0.56900001 4279902774
-0.053522114 0.12703961 0.56800002 4280558376
-0.052350458 0.12681451 0.56699997 4281413685
-0.051273055 0.1268131 0.56699997 4282333253
-0.050195679 0.12681168 0.56699997 4282596426
-0.04911834 0.12681033 0.56699997 4283189835
-0.047956295 0.12658533 0.56599998 4281742388
-0.046798084 0.12636036 0.565 4281543195
-0.045724619 0.12635906 0.565 4289833113
-0.044651192 0.12635781 0.565 4293386189
-0.043577787 0.12635657 0.565 4294967293
-0.042504404 0.12635534 0.565 4294967295
-0.041357715 0.12613049 0.56400001 4294967295
-0.040214855 0.12590569 0.56300002 4294967295
-0.03907581 0.12568091 0.56199998 4294967295
-0.038008232 0.12567981 0.56199998 4294967295
-0.036940668 0.1256787 0.56199998 4288585374
-0.03587313 0.12567765 0.56199998 4281153370
-0.034743685 0.125453 0.56099999 4279705924
-0.033618059 0.12522835 0.56 4281281849
-0.032554388 0.12522736 0.56 4281084470
-0.031490732 0.12522639 0.56 4283048477
-0.0304271 0.12522547 0.56 4282061582
-0.029311055 0.12500094 0.55900002 4283578889
-0.028249361 0.12500006 0.55900002 4283381511
-0.027041776 0.12432837 0.55599999 4285757027
-0.025985815 0.12432755 0.55599999 4289244056
-0.024929874 0.12432674 0.55599999 4293056679
-0.023873949 0.12432598 0.55599999 4293714609
-0.022777002 0.12410162 0.55500001 4294967272
-0.021723006 0.12410089 0.55500001 4294967277
-0.020669028 0.1241002 0.55500001 4294967295
-0.019650409 0.12432314 0.55599999 4294967295
-0.015371608 0.12387356 0.55400002 4292200657
-0.013243672 0.12364891 0.55299997 4288578742
-0.085380509 0.1306527 0.579 4294967292
-0.084279321 0.13065068 0.579 4294967295
-0.083178163 0.13064866 0.579 4294967295
-0.082077026 0.13064666 0.579 4290954174
-0.08111579 0.13087033 0.57999998 4288584343
-0.079874881 0.13064273 0.579 4281215527
-0.078773856 0.13064077 0.579 4281610287
-0.077538714 0.13041322 0.57800001 4281017894
-0.076307423 0.13018569 0.57700002 4283316276
-0.075079978 0.12995818 0.57599998 4293579984
-0.073984794 0.12995631 0.57599998 4294967295
-0.072889663 0.12995449 0.57599998 4294967295
-0.071669921 0.12972702 0.57499999 4294967295
-0.070576742 0.12972523 0.57499999 4294900989
-0.069483615 0.12972346 0.57499999 4289315509
-0.068390511 0.12972169 0.57499999 4279512352
-0.067297451 0.12971994 0.57499999 4278191104
-0.06608928 0.12949263 0.574 4279841305
-0.064884946 0.12926532 0.57300001 4278198321
-0.063684449 0.12903807 0.57200003 4286164414
-0.062597215 0.12903641 0.57200003 4290097566
-0.061402477 0.1288092 0.57099998 4290689703
-0.060317207 0.12880757 0.57099998 4290556852
-0.059231974 0.12880599 0.57099998 4287398788
-0.058044937 0.12857886 0.56999999 4281945440
-0.056861732 0.12835173 0.56900001 4278852912
-0.055780392 0.12835023 0.56900001 4281081640
-0.054602951 0.12812316 0.56800002 4281410605
-0.053429332 0.12789612 0.56699997 4281478447
-0.052259561 0.12766913 0.56599998 4281741875
-0.051093597 0.12744214 0.565 4282335039
-0.050020009 0.12744077 0.565 4283124555
