# .PCD v0.7 - Point Cloud Data file format
VERSION 0.7
FIELDS x y z rgba
SIZE 4 4 4 4
TYPE F F F U
COUNT 1 1 1 1
WIDTH 1073
HEIGHT 1
VIEWPOINT 0 0 0 1 0 0 0
POINTS 1073
DATA ascii
0.13531291 -0.14666866 0.68300003 4293519588
0.13681075 -0.14688459 0.68400002 4293519588
0.13851435 -0.14731526 0.68599999 4293519588
0.13981797 -0.14731646 0.68599999 4293585381
0.1411216 -0.14731765 0.68599999 4293716712
0.14242527 -0.14731883 0.68599999 4293585127
0.14393847 -0.14753473 0.68699998 4293585381
0.14524409 -0.14753589 0.68699998 4293716710
0.14654975 -0.14753705 0.68699998 4293520101
0.14785542 -0.1475382 0.68699998 4293651687
0.14937826 -0.14775409 0.68800002 4293717482
0.1511239 -0.14818473 0.69 4293585640
0.15243535 -0.14818585 0.69 4293651689
0.15396966 -0.14840175 0.69099998 4293717482
0.15528308 -0.14840284 0.69099998 4293651689
0.15727636 -0.14904822 0.69400001 4293651689
0.15905255 -0.14947882 0.69599998 4293651435
0.16037555 -0.14947993 0.69599998 4293717228
0.16193086 -0.14969574 0.69700003 4293651689
0.16325578 -0.14969678 0.69700003 4293651689
0.16481683 -0.14991258 0.69800001 4293717482
0.16661973 -0.15034313 0.69999999 4293717482
0.16938999 -0.15163282 0.70599997 4293585642
0.17073208 -0.15163377 0.70599997 4293585642
0.17231795 -0.15184957 0.70700002 4293585642
0.17390761 -0.15206529 0.708 4293585642
0.1757486 -0.15249577 0.70999998 4293454054
0.17734779 -0.15271147 0.71100003 4294243826
0.17920212 -0.15314195 0.713 4294308084
0.037763435 -0.15465827 0.727 4292137162
0.039034717 -0.15423326 0.72500002 4292202953
0.040242691 -0.15359551 0.722 4292466382
0.0416122 -0.15359598 0.722 4292597198
0.042684071 -0.15253282 0.71700001 4292597198
0.043982707 -0.15232061 0.71600002 4292662991
0.045214236 -0.15189566 0.71399999 4292926163
0.046503425 -0.15168348 0.713 4292992206
0.047721725 -0.15125859 0.71100003 4292992206
0.049001459 -0.15104644 0.70999998 4292992208
0.050348345 -0.15104707 0.70999998 4292992208
0.051549636 -0.15062219 0.708 4293189841
0.052818064 -0.15041013 0.70700002 4293255635
0.054159325 -0.1504108 0.70700002 4293189587
0.055186596 -0.1495605 0.70300001 4293386966
0.056520328 -0.14956121 0.70300001 4293386966
0.057607181 -0.14892368 0.69999999 4293386966
0.058766879 -0.14849894 0.69800001 4293518552
0.059919 -0.14807418 0.69599998 4293650138
0.061239541 -0.14807494 0.69599998 4293584345
0.062560104 -0.14807573 0.69599998 4293584345
0.063880704 -0.14807653 0.69599998 4293452759
0.065201327 -0.14807735 0.69599998 4293452759
0.066330828 -0.14765269 0.69400001 4293452507
0.067647688 -0.14765352 0.69400001 4293386714
0.068964615 -0.14765438 0.69400001 4293321693
0.070281573 -0.14765528 0.69400001 4293321693
0.071289025 -0.14701787 0.69099998 4293584347
0.072495274 -0.14680602 0.69 4293584347
0.073804706 -0.14680694 0.69 4293584860
0.074787602 -0.14616959 0.68699998 4293650654
0.076091409 -0.14617051 0.68699998 4293716188
0.077282593 -0.14595869 0.68599999 4293584345
0.078584574 -0.14595966 0.68599999 4293650656
0.079886578 -0.14596066 0.68599999 4293650656
0.081188612 -0.14596164 0.68599999 4293715934
0.082250208 -0.14553712 0.68400002 4293650140
0.083548509 -0.14553812 0.68400002 4293584095
0.084846862 -0.14553916 0.68400002 4293847267
0.086019292 -0.14532743 0.68300003 4293715934
0.087315798 -0.14532848 0.68300003 4293715934
0.088612363 -0.14532955 0.68300003 4293649888
0.089908943 -0.14533062 0.68300003 4293715682
0.091072001 -0.14511891 0.68199998 4293585129
0.09236677 -0.14511999 0.68199998 4293519336
0.093386881 -0.14469552 0.68000001 4293782244
0.09467791 -0.14469664 0.68000001 4293782244
0.095968969 -0.14469776 0.68000001 4293782244
0.097689159 -0.14533727 0.68300003 4293782244
0.098986 -0.14533839 0.68300003 4293716708
0.10013602 -0.14512673 0.68199998 4293585379
0.10143102 -0.14512789 0.68199998 4293716708
0.10272606 -0.14512904 0.68199998 4293585379
0.10356357 -0.14449181 0.67900002 4293716708
0.104853 -0.144493 0.67900002 4293585379
0.10614243 -0.14449416 0.67900002 4293585379
0.10743192 -0.14449534 0.67900002 4293585379
0.10872145 -0.14449653 0.67900002 4293716708
0.110011 -0.14449772 0.67900002 4293782757
0.11130059 -0.14449888 0.67900002 4293716708
0.11259022 -0.14450008 0.67900002 4293782757
0.1138799 -0.14450128 0.67900002 4293716708
0.11533921 -0.14471532 0.68000001 4293782757
0.11663084 -0.1447165 0.68000001 4293585379
0.11792253 -0.14471772 0.68000001 4293519586
0.11956484 -0.14514455 0.68199998 4293519586
0.1210376 -0.14535861 0.68300003 4293519586
0.12233509 -0.14535983 0.68300003 4293519588
0.12363261 -0.14536105 0.68300003 4293519588
0.12511306 -0.14557509 0.68400002 4293585379
0.12641253 -0.14557631 0.68400002 4293585379
0.12752531 -0.14536469 0.68300003 4293585381
0.12882298 -0.14536591 0.68300003 4293980139
0.13012066 -0.14536713 0.68300003 4293585381
0.13141838 -0.14536832 0.68300003 4293519588
0.13252179 -0.1451567 0.68199998 4293585127
0.13381769 -0.1451579 0.68199998 4293519334
0.13531171 -0.14537194 0.68300003 4293650404
0.13680957 -0.145586 0.68400002 4293650404
0.13851318 -0.14601289 0.68599999 4293519588
0.13981679 -0.14601408 0.68599999 4293585381
0.14112042 -0.14601524 0.68599999 4293585127
0.14242409 -0.14601643 0.68599999 4293453540
0.14393732 -0.14623046 0.68699998 4293519334
0.14524293 -0.14623161 0.68699998 4293782505
0.14654857 -0.14623278 0.68699998 4293585894
0.14785427 -0.14623393 0.68699998 4293585894
0.14937711 -0.14644794 0.68800002 4293585640
0.15112278 -0.14687479 0.69 4293519847
0.15243424 -0.14687592 0.69 4293651687
0.15396854 -0.1470899 0.69099998 4293914603
0.15528195 -0.14709099 0.69099998 4293782505
0.15727526 -0.14773071 0.69400001 4293585127
0.15905148 -0.14815752 0.69599998 4293585129
0.16037446 -0.14815861 0.69599998 4293782251
0.16192982 -0.14837256 0.69700003 4293651689
0.16325475 -0.1483736 0.69700003 4293651689
0.16481583 -0.14858751 0.69800001 4293651689
0.16661872 -0.14901425 0.69999999 4293651689
0.16938898 -0.15029253 0.70599997 4293519849
0.17073111 -0.15029354 0.70599997 4293454056
0.17231698 -0.15050742 0.70700002 4293454056
0.17390662 -0.15072124 0.708 4293454056
0.17599522 -0.15136087 0.71100003 4293454052
0.17734692 -0.15136179 0.71100003 4294112238
0.17920122 -0.15178846 0.713 4294439154
0.18055676 -0.15178935 0.713 4286675581
0.037763 -0.15327805 0.727 4292137162
0.039034262 -0.15285684 0.72500002 4292005831
0.04024221 -0.15222478 0.722 4292400589
0.041496437 -0.1518036 0.72000003 4292466636
0.042683557 -0.15117158 0.71700001 4292466636
0.043982171 -0.15096126 0.71600002 4292597452
0.045340337 -0.1509618 0.71600002 4292794832
0.046568073 -0.15054068 0.71399999 4292925900
0.04772114 -0.14990877 0.71100003 4292925900
0.049000852 -0.14969848 0.70999998 4292729036
0.050347723 -0.14969912 0.70999998 4292992208
0.051548995 -0.14927806 0.708 4293057999
0.052817404 -0.14906788 0.70700002 4293124048
0.054158647 -0.14906855 0.70700002 4293058001
0.055264406 -0.14843668 0.704 4293189587
0.056519616 -0.14822653 0.70300001 4293189587
0.057606459 -0.14759472 0.69999999 4293255637
0.058766127 -0.14717375 0.69800001 4293255383
0.05991824 -0.14675279 0.69599998 4293255383
0.061238766 -0.14675356 0.69599998 4293255383
0.062559307 -0.14675434 0.69599998 4293386712
0.063879892 -0.14675514 0.69599998 4293255383
0.065200493 -0.14675595 0.69599998 4293255383
0.066329986 -0.14633508 0.69400001 4293452507
0.067646839 -0.14633593 0.69400001 4293452507
0.069162488 -0.14675851 0.69599998 4293452507
0.070280679 -0.14633769 0.69400001 4293452507
0.071494468 -0.14612772 0.69300002 4293387482
0.072494365 -0.14549603 0.69 4293519067
0.073803775 -0.14549692 0.69 4293321689
0.074786656 -0.14486526 0.68699998 4293387482
0.076090455 -0.14486621 0.68699998 4293518300
0.077281632 -0.1446563 0.68599999 4293518300
0.078583598 -0.14465728 0.68599999 4293518815
0.079885587 -0.14465825 0.68599999 4293518815
0.081187621 -0.14465925 0.68599999 4293518302
0.082249187 -0.1442385 0.68400002 4293649888
0.08354748 -0.1442395 0.68400002 4293584606
0.084845826 -0.14424056 0.68400002 4293584606
0.086018249 -0.14403073 0.68300003 4293715936
0.08731474 -0.14403176 0.68300003 4293715936
0.088611282 -0.14403284 0.68300003 4293452509
0.089907855 -0.14403389 0.68300003 4293715682
0.091070928 -0.14382409 0.68199998 4293650402
0.09236566 -0.14382517 0.68199998 4293584608
0.093385786 -0.14340451 0.68000001 4293584608
0.094676808 -0.14340562 0.68000001 4293650402
0.095967852 -0.14340672 0.68000001 4293452509
0.097544998 -0.14382963 0.68199998 4293649888
0.098839931 -0.14383079 0.68199998 4293913060
0.10013488 -0.14383191 0.68199998 4293913060
0.10142986 -0.14383306 0.68199998 4293716195
0.1027249 -0.14383422 0.68199998 4293716195
0.10401997 -0.14383538 0.68199998 4293848550
0.10500623 -0.14341475 0.68000001 4293716708
0.10629757 -0.14341591 0.68000001 4293519586
0.10743072 -0.14320616 0.67900002 4293585379
0.10872026 -0.14320737 0.67900002 4293585379
0.11017182 -0.14341947 0.68000001 4293716708
0.1112994 -0.14320976 0.67900002 4293585379
0.11258902 -0.14321095 0.67900002 4293519586
0.11387868 -0.14321215 0.67900002 4293519588
0.11567722 -0.14384609 0.68199998 4293716710
0.11662964 -0.14342548 0.68000001 4293520099
0.1179213 -0.14342669 0.68000001 4293520099
0.11921301 -0.14342791 0.68000001 4293520099
0.12085918 -0.14385098 0.68199998 4293520099
0.12215474 -0.14385217 0.68199998 4293585379
0.12363137 -0.14406431 0.68300003 4293585379
0.12511182 -0.14427647 0.68400002 4293585379
0.12641132 -0.14427771 0.68400002 4293519586
0.12771082 -0.14427891 0.68400002 4293650404
0.12882178 -0.14406922 0.68300003 4293650404
0.13011944 -0.1440704 0.68300003 4293519588
0.13141717 -0.14407164 0.68300003 4293519588
0.1327149 -0.14407283 0.68300003 4293650150
0.13401268 -0.14407404 0.68300003 4293650150
0.13550863 -0.1442862 0.68400002 4293715682
0.13680838 -0.14428741 0.68400002 4293847267
0.13851197 -0.14471048 0.68599999 4293716197
0.1398156 -0.14471167 0.68599999 4293716197
0.14111923 -0.14471285 0.68599999 4293519588
0.14242294 -0.14471407 0.68599999 4293453538
0.14393613 -0.14492618 0.68699998 4293453540
0.14524175 -0.14492735 0.68699998 4293585127
0.14654744 -0.14492851 0.68699998 4293520101
0.14806835 -0.14514063 0.68800002 4293520101
0.14937596 -0.14514178 0.68800002 4293585640
0.15134068 -0.14577581 0.69099998 4293585640
0.15265404 -0.14577691 0.69099998 4293585381
0.15441309 -0.1462 0.69300002 4293585381
0.15595505 -0.14641209 0.69400001 4293585127
0.15772742 -0.14683512 0.69599998 4293585127
0.15905039 -0.14683621 0.69599998 4293519334
0.16060384 -0.14704828 0.69700003 4293716712
0.16216107 -0.14726031 0.69800001 4293520101
0.16348791 -0.14726135 0.69800001 4293585894
0.16528702 -0.14768435 0.69999999 4293585640
0.16685571 -0.14789636 0.70099998 4293585640
0.16938798 -0.14895231 0.70599997 4293322470
0.1707301 -0.14895329 0.70599997 4293454056
0.172316 -0.14916526 0.70700002 4293454056
0.17439695 -0.14979918 0.70999998 4293322470
0.17599426 -0.15001114 0.71100003 4293454054
0.17734598 -0.15001208 0.71100003 4294112240
0.17920032 -0.15043497 0.713 4294307312
0.18055587 -0.15043586 0.713 4285754479
0.040241733 -0.1508541 0.722 4292334281
0.041495938 -0.15043671 0.72000003 4292334794
0.042683043 -0.1498104 0.71700001 4292466636
0.043981642 -0.14960197 0.71600002 4292663497
0.045339789 -0.14960252 0.71600002 4292663497
0.046567507 -0.1491852 0.71399999 4292663243
0.047720548 -0.14855894 0.71100003 4292729036
0.049000248 -0.1483506 0.70999998 4292729038
0.050205272 -0.14793332 0.708 4293058003
0.051548347 -0.14793395 0.708 4293057999
0.052816741 -0.14772566 0.70700002 4293124048
0.054157972 -0.14772634 0.70700002 4293057999
0.055263713 -0.14710018 0.704 4293057999
0.056518905 -0.14689192 0.70300001 4293123794
0.05768802 -0.14647473 0.70099998 4293189587
0.058765382 -0.14584862 0.69800001 4293189587
0.05991748 -0.14543146 0.69599998 4293123794
0.061237995 -0.14543223 0.69599998 4293189337
0.062558517 -0.14543299 0.69599998 4293386716
0.063879088 -0.14543381 0.69599998 4293255385
0.065199666 -0.14543462 0.69599998 4293189591
0.066520281 -0.14543545 0.69599998 4293255898
0.067840941 -0.1454363 0.69599998 4293387484
0.069161616 -0.14543717 0.69599998 4293452759
0.070279785 -0.14502011 0.69400001 4293386966
0.071493566 -0.14481206 0.69300002 4293518552
0.072598502 -0.14439501 0.69099998 4293650138
0.073909819 -0.14439596 0.69099998 4293518554
0.074894585 -0.14376999 0.68800002 4293452761
0.076200269 -0.14377093 0.68800002 4293321693
0.077393323 -0.1435629 0.68699998 4293387486
0.078697167 -0.14356387 0.68699998 4293518561
0.080001049 -0.14356485 0.68699998 4293321439
0.081304975 -0.14356585 0.68699998 4293321693
0.082488671 -0.14335789 0.68599999 4293584608
0.083790749 -0.1433589 0.68599999 4293518813
0.084844783 -0.14294197 0.68400002 4293518813
0.086143129 -0.14294301 0.68400002 4293584093
0.087441534 -0.14294407 0.68400002 4293584093
0.088610224 -0.14273615 0.68300003 4293584095
0.089906789 -0.14273721 0.68300003 4293584095
0.091203392 -0.14273831 0.68300003 4293650138
0.092500009 -0.14273939 0.68300003 4293584345
0.093384691 -0.14211352 0.68000001 4293650656
0.094675712 -0.14211462 0.68000001 4293650656
0.095966741 -0.14211573 0.68000001 4293518304
0.09754388 -0.14253485 0.68199998 4293518304
0.098838784 -0.14253598 0.68199998 4293715936
0.10013373 -0.1425371 0.68199998 4293913058
0.10142872 -0.14253826 0.68199998 4293649888
0.10242249 -0.14212142 0.68000001 4293518302
0.10371377 -0.1421226 0.68000001 4293716195
0.1053139 -0.14254177 0.68199998 4293650402
0.10629641 -0.14212494 0.68000001 4293519586
0.10758777 -0.1421261 0.68000001 4293519586
0.10887918 -0.14212728 0.68000001 4293716195
0.1100086 -0.14191946 0.67900002 4293716195
0.1112982 -0.14192064 0.67900002 4293650404
0.11258783 -0.14192185 0.67900002 4293650404
0.11387748 -0.14192304 0.67900002 4293585127
0.11567602 -0.14255132 0.68199998 4293585127
0.11697145 -0.14255251 0.68199998 4293256927
0.11792009 -0.14213568 0.68000001 4293322976
0.11921179 -0.1421369 0.68000001 4293520099
0.12085794 -0.14255618 0.68199998 4293520099
0.12215352 -0.14255737 0.68199998 4293585379
0.12363014 -0.14276762 0.68300003 4293716708
0.1251106 -0.14297788 0.68400002 4293519586
0.12641008 -0.1429791 0.68400002 4293453792
0.12770961 -0.14298032 0.68400002 4293453538
0.12900914 -0.14298154 0.68400002 4293453538
0.13030875 -0.14298277 0.68400002 4293519588
0.13160835 -0.14298399 0.68400002 4293519588
0.13290802 -0.14298519 0.68400002 4293585129
0.1342077 -0.1429864 0.68400002 4293519336
0.13590366 -0.14340571 0.68599999 4293584606
0.1374072 -0.14361595 0.68699998 4293650656
0.13871267 -0.14361715 0.68699998 4293519588
0.13981439 -0.14340931 0.68599999 4293519588
0.14111805 -0.14341049 0.68599999 4293453538
0.14262937 -0.14362074 0.68699998 4293453538
0.14393494 -0.14362191 0.68699998 4293453540
0.1452406 -0.1436231 0.68699998 4293453540
0.1467596 -0.14383334 0.68800002 4293519334
0.14806722 -0.1438345 0.68800002 4293585127
0.14980906 -0.14425376 0.69 4293585642
0.15133952 -0.14446397 0.69099998 4293519849
0.15309477 -0.14488325 0.69300002 4293519334
0.15463479 -0.14509346 0.69400001 4293519334
0.15595393 -0.14509456 0.69400001 4293519334
0.15772633 -0.14551382 0.69599998 4293519334
0.15927783 -0.14572398 0.69700003 4293519334
0.16060275 -0.14572507 0.69700003 4293716712
0.16216001 -0.14593522 0.69800001 4293520101
0.16348685 -0.14593628 0.69800001 4293585894
0.16528597 -0.14635548 0.69999999 4293585640
0.16685471 -0.1465656 0.70099998 4293322724
0.16938695 -0.14761204 0.70599997 4293454056
0.17097095 -0.14782213 0.70700002 4293717228
0.17255875 -0.1480322 0.708 4293454054
0.17464161 -0.14866045 0.71100003 4293256931
0.17599332 -0.14866142 0.71100003 4293454054
0.17734504 -0.14866237 0.71100003 4294178033
0.17919943 -0.14908147 0.713 4294176235
0.18055497 -0.14908238 0.713 4284702042
0.04024126 -0.14948347 0.722 4292334535
0.041495446 -0.14906986 0.72000003 4292268485
0.042801592 -0.14886335 0.71899998 4292597450
0.044042531 -0.14844976 0.71700001 4292597961
0.045339238 -0.14824328 0.71600002 4292664010
0.046566933 -0.14782974 0.71399999 4292729290
0.047854193 -0.14762329 0.713 4292729290
0.048999645 -0.14700274 0.70999998 4292859854
0.050204642 -0.14658925 0.708 4292925648
0.05154771 -0.14658991 0.708 4292925900
0.052816074 -0.14638349 0.70700002 4292925900
0.054157283 -0.14638416 0.70700002 4292992206
0.055420015 -0.1461778 0.70599997 4293124048
0.056759372 -0.14617848 0.70599997 4293058514
0.057687301 -0.14514397 0.70099998 4293124307
0.059017215 -0.1451447 0.70099998 4293124307
0.059916724 -0.14411016 0.69599998 4293124307
0.061237216 -0.14411093 0.69599998 4293189591
0.062557727 -0.14411171 0.69599998 4293189591
0.063878275 -0.14411251 0.69599998 4293189591
0.065198846 -0.14411332 0.69599998 4293123542
0.066519454 -0.14411417 0.69599998 4293189591
0.067840077 -0.144115 0.69599998 4293386714
0.069160745 -0.14411587 0.69599998 4293386966
0.070278905 -0.14370263 0.69400001 4293386966
0.071595833 -0.14370352 0.69400001 4293255637
0.072807729 -0.14349735 0.69300002 4293452759
0.074122816 -0.14349827 0.69300002 4293452761
0.075111367 -0.142878 0.69 4293452761
0.076420821 -0.14287893 0.69 4293321693
0.07750503 -0.14246577 0.68800002 4293321693
0.078696199 -0.14225964 0.68699998 4293387486
0.080000065 -0.14226063 0.68699998 4293387486
0.081303976 -0.14226162 0.68699998 4293255644
0.082487658 -0.14205554 0.68599999 4293387486
0.083789729 -0.14205657 0.68599999 4293322204
0.084843762 -0.14164343 0.68400002 4293256411
0.086142093 -0.14164448 0.68400002 4293321693
0.087440483 -0.14164552 0.68400002 4293387486
0.088738903 -0.14164658 0.68400002 4293518815
0.090037353 -0.14164767 0.68400002 4293584608
0.091202311 -0.14144166 0.68300003 4293584606
0.092498906 -0.14144273 0.68300003 4293584606
0.093658239 -0.14123674 0.68199998 4293584608
0.094953038 -0.14123784 0.68199998 4293650402
0.096247882 -0.14123897 0.68199998 4293584095
0.097685769 -0.14144719 0.68300003 4293518302
0.098982565 -0.1414483 0.68300003 4293452509
0.10013258 -0.14124236 0.68199998 4293584095
0.10142757 -0.14124352 0.68199998 4293518302
0.10242136 -0.14083047 0.68000001 4293584095
0.10371261 -0.14083162 0.68000001 4293716195
0.10531272 -0.14124699 0.68199998 4293650402
0.10629524 -0.14083397 0.68000001 4293453538
0.10758658 -0.14083512 0.68000001 4293519588
0.108878 -0.14083633 0.68000001 4293715682
0.11000742 -0.14063039 0.67900002 4293715682
0.11129702 -0.14063159 0.67900002 4293715682
0.11258663 -0.14063278 0.67900002 4293715682
0.11387629 -0.14063397 0.67900002 4293585381
0.11567479 -0.14125653 0.68199998 4293519588
0.11697023 -0.14125775 0.68199998 4293125341
0.11791888 -0.14084472 0.68000001 4293322976
0.11921058 -0.14084592 0.68000001 4293454052
0.12085674 -0.1412614 0.68199998 4293322722
0.1221523 -0.14126259 0.68199998 4293387999
0.12380993 -0.14167809 0.68400002 4293453792
0.12547518 -0.14209355 0.68599999 4293321952
0.12677847 -0.14209481 0.68599999 4293453538
0.12808178 -0.14209603 0.68599999 4293453538
0.12938516 -0.14209725 0.68599999 4293519588
0.13068852 -0.14209847 0.68599999 4293519588
0.13199197 -0.14209971 0.68599999 4293519588
0.13290679 -0.14168663 0.68400002 4293585127
0.13420649 -0.14168784 0.68400002 4293519334
0.13610055 -0.14231052 0.68699998 4293519586
0.13740599 -0.14231169 0.68699998 4293585379
0.13871147 -0.14231288 0.68699998 4293519586
0.14001702 -0.14231411 0.68699998 4293519586
0.14132257 -0.14231528 0.68699998 4293519586
0.1428358 -0.14252368 0.68800002 4293453792
0.1441433 -0.14252484 0.68800002 4293124576
0.14545086 -0.14252603 0.68800002 4293453540
0.14675844 -0.14252719 0.68800002 4293453538
0.14849646 -0.14294267 0.69 4293519588
0.1498079 -0.14294384 0.69 4293519847
0.15133837 -0.14315213 0.69099998 4293519847
0.15331453 -0.14377481 0.69400001 4293454052
0.15463366 -0.14377594 0.69400001 4293454052
0.15595281 -0.14377707 0.69400001 4293520101
0.1577252 -0.14419252 0.69599998 4293454052
0.15927674 -0.14440079 0.69700003 4293454054
0.16060168 -0.14440189 0.69700003 4293322724
0.16215892 -0.14461014 0.69800001 4293059296
0.16348581 -0.14461121 0.69800001 4293454054
0.16528493 -0.14502661 0.69999999 4293519847
0.16685368 -0.14523484 0.70099998 4293519847
0.16962586 -0.14647898 0.70700002 4293322470
0.17096995 -0.14647999 0.70700002 4293322470
0.17304519 -0.14710255 0.70999998 4293256931
0.1751319 -0.14772512 0.713 4293256931
0.1764874 -0.14772609 0.713 4293322470
0.17784294 -0.14772704 0.713 4294177779
0.17944983 -0.1479352 0.71399999 4294110439
0.18080728 -0.14793608 0.71399999 4282728250
0.039032891 -0.14872783 0.72500002 4292333762
0.040240787 -0.14811288 0.722 4292531142
0.041610219 -0.14811336 0.722 4292334535
0.042860609 -0.14770359 0.72000003 4292597450
0.044164848 -0.14749895 0.71899998 4292597702
0.045338683 -0.14688408 0.71600002 4292729288
0.046696804 -0.14688464 0.71600002 4292729288
0.047920723 -0.14647493 0.71399999 4292926667
0.049068052 -0.14586008 0.71100003 4292925902
0.050416768 -0.1458607 0.71100003 4292860108
0.051547069 -0.14524586 0.708 4292859854
0.052890126 -0.14524652 0.708 4292859854
0.054233208 -0.14524719 0.708 4292794832
0.055497821 -0.14504273 0.70700002 4293058003
0.05683906 -0.14504343 0.70700002 4293057999
0.057851154 -0.14422354 0.70300001 4293189841
0.059184849 -0.14422426 0.70300001 4293123794
0.060518574 -0.144225 0.70300001 4293123794
0.061324425 -0.14299485 0.69700003 4293123796
0.062556945 -0.14279048 0.69599998 4293058003
0.063877471 -0.14279127 0.69599998 4292926935
0.065198027 -0.14279208 0.69599998 4292926935
0.066518612 -0.1427929 0.69599998 4293124055
0.06783922 -0.14279373 0.69599998 4293124055
0.069159873 -0.14279461 0.69599998 4293189587
0.070278026 -0.14238515 0.69400001 4293255637
0.071594931 -0.14238603 0.69400001 4293189587
0.07280682 -0.1421818 0.69300002 4293386966
0.074121892 -0.14218271 0.69300002 4293452761
0.075110428 -0.14156809 0.69 4293386712
0.07641989 -0.14156908 0.69 4293386714
0.077504061 -0.14115967 0.68800002 4293386714
0.07869523 -0.14095546 0.68699998 4293452759
0.079999074 -0.14095643 0.68699998 4293452759
0.081302971 -0.14095743 0.68699998 4293255896
0.082486644 -0.14075324 0.68599999 4293255896
0.0837887 -0.14075425 0.68599999 4293321691
0.084842727 -0.14034493 0.68400002 4293321691
0.08614105 -0.14034598 0.68400002 4293321693
0.087439418 -0.140347 0.68400002 4293387486
0.088737823 -0.14034808 0.68400002 4293387486
0.090036258 -0.14034913 0.68400002 4293387486
0.091334738 -0.14035024 0.68400002 4293518815
0.092633255 -0.14035131 0.68400002 4293518815
0.093657143 -0.13994201 0.68199998 4293584610
0.094951943 -0.13994314 0.68199998 4293650404
0.096246757 -0.13994423 0.68199998 4293518815
0.097684644 -0.14015056 0.68300003 4293387486
0.098981448 -0.14015169 0.68300003 4293452509
0.10027828 -0.14015284 0.68300003 4293518302
0.10142642 -0.13994877 0.68199998 4293518302
0.10272142 -0.13994993 0.68199998 4293715682
0.10401648 -0.13995111 0.68199998 4293584608
0.10531154 -0.13995224 0.68199998 4293387486
0.10660668 -0.13995343 0.68199998 4293518815
0.1075854 -0.13954417 0.68000001 4293518815
0.1088768 -0.13954537 0.68000001 4293518815
0.11000624 -0.13934135 0.67900002 4293518815
0.11129583 -0.13934255 0.67900002 4293453538
0.11275124 -0.13954896 0.68000001 4293519588
0.11404279 -0.13955015 0.68000001 4293519586
0.11567359 -0.13996178 0.68199998 4293453792
0.11696902 -0.139963 0.68199998 4293125089
0.1182645 -0.13996422 0.68199998 4293256931
0.11956 -0.13996544 0.68199998 4293387745
0.12103273 -0.14017187 0.68300003 4293321952
0.12233022 -0.14017312 0.68300003 4293387745
0.12380872 -0.14037955 0.68400002 4293387745
0.12510817 -0.14038077 0.68400002 4293387745
0.12677726 -0.14079247 0.68599999 4293387745
0.12808056 -0.14079368 0.68599999 4293519586
0.12938394 -0.14079493 0.68599999 4293519586
0.13068731 -0.14079612 0.68599999 4293519586
0.13199073 -0.14079736 0.68599999 4293585379
0.13329419 -0.14079858 0.68599999 4293519586
0.13459767 -0.14079978 0.68599999 4293453792
0.13609932 -0.14100626 0.68699998 4293519586
0.13760482 -0.14121275 0.68800002 4293585379
0.13891219 -0.14121394 0.68800002 4293519586
0.14021961 -0.14121513 0.68800002 4293585379
0.1415271 -0.14121634 0.68800002 4293453792
0.1428346 -0.14121754 0.68800002 4293322206
0.14414211 -0.14121871 0.68800002 4293321954
0.14544967 -0.1412199 0.68800002 4293519334
0.14675726 -0.14122106 0.68800002 4293453792
0.14849529 -0.14163277 0.69 4293453792
0.14980675 -0.14163391 0.69 4293519588
0.15133724 -0.14184035 0.69099998 4293519588
0.15331338 -0.14245728 0.69400001 4293453538
0.15463252 -0.14245844 0.69400001 4293453538
0.15595169 -0.14245957 0.69400001 4293454306
0.15772408 -0.14287122 0.69599998 4293585892
0.15927564 -0.14307763 0.69700003 4293322722
0.16060059 -0.14307871 0.69700003 4293256929
0.16215785 -0.14328507 0.69800001 4293322724
0.16395317 -0.1436967 0.69999999 4293454054
0.16552 -0.14390305 0.70099998 4293520101
0.1673287 -0.14431469 0.70300001 4293520101
0.16962484 -0.14513685 0.70700002 4293453802
0.17121074 -0.14534315 0.708 4293256679
0.17304419 -0.14575474 0.70999998 4293125091
0.17513089 -0.14637162 0.713 4293125091
0.17648642 -0.14637257 0.713 4293454054
0.17784199 -0.14637356 0.713 4294375156
0.17944889 -0.1465798 0.71399999 4293780697
0.18080641 -0.14658073 0.71399999 4280095497
0.038924761 -0.14694513 0.72299999 4292070591
0.040240318 -0.14674237 0.722 4292465349
0.041494463 -0.14633636 0.72000003 4292334535
0.042860098 -0.14633685 0.72000003 4292202692
0.044164319 -0.14613412 0.71899998 4292267715
0.045401454 -0.14572817 0.71700001 4292596937
0.046696234 -0.14552547 0.71600002 4292531909
0.047920126 -0.14511955 0.71399999 4292597702
0.049067449 -0.14451042 0.71100003 4292794313
0.050416142 -0.14451104 0.71100003 4292925900
0.051546421 -0.1439019 0.708 4292729036
0.052889463 -0.14390254 0.708 4292795086
0.054155927 -0.14369997 0.70700002 4292795086
0.055497121 -0.14370064 0.70700002 4292926415
0.056516774 -0.14288832 0.70300001 4292795086
0.057685841 -0.14248253 0.70099998 4292992208
0.059015732 -0.14248328 0.70099998 4292926161
0.060345646 -0.14248402 0.70099998 4292992210
0.061323669 -0.14167178 0.69700003 4293123542
0.062556162 -0.14146928 0.69599998 4293057749
0.063876659 -0.14147006 0.69599998 4292861655
0.065197207 -0.14147088 0.69599998 4292861655
0.066517778 -0.1414717 0.69599998 4292926933
0.067838371 -0.14147253 0.69599998 4293058262
0.069159009 -0.1414734 0.69599998 4292992210
0.07027714 -0.14106774 0.69400001 4293123796
0.071594037 -0.14106862 0.69400001 4293123794
0.072805911 -0.14086626 0.69300002 4293189587
0.074120969 -0.14086717 0.69300002 4293386712
0.075109497 -0.14025828 0.69 4293386712
0.076418929 -0.14025924 0.69 4293190105
0.0775031 -0.13985364 0.68800002 4293190105
0.078808807 -0.13985461 0.68800002 4293190103
0.080114543 -0.13985559 0.68800002 4293190103
0.08130198 -0.1396533 0.68699998 4293190103
0.082605891 -0.13965428 0.68699998 4293255896
0.083787687 -0.13945201 0.68599999 4293255896
0.085089765 -0.13945304 0.68599999 4293255896
0.086391881 -0.13945408 0.68599999 4293321693
0.087694049 -0.13945512 0.68599999 4293321693
0.08873678 -0.13904962 0.68400002 4293255644
0.090035193 -0.13905068 0.68400002 4293255644
0.091333658 -0.13905177 0.68400002 4293518302
0.092632167 -0.13905285 0.68400002 4293452509
0.093656033 -0.13864732 0.68199998 4293321693
0.094950825 -0.13864845 0.68199998 4293387486
0.096386768 -0.13885285 0.68300003 4293387486
0.097683519 -0.13885398 0.68300003 4293387486
0.0989803 -0.1388551 0.68300003 4293124057
0.10027713 -0.13885626 0.68300003 4293189851
0.10157399 -0.13885739 0.68300003 4293452509
0.10272028 -0.13865525 0.68199998 4293452509
0.10401529 -0.13865639 0.68199998 4293387486
0.10531039 -0.13865757 0.68199998 4293387486
0.10660549 -0.13865873 0.68199998 4293387486
0.10758424 -0.1382533 0.68000001 4293387486
0.10887564 -0.13825449 0.68000001 4293387486
0.11016706 -0.13825566 0.68000001 4293518815
0.11145853 -0.13825685 0.68000001 4293518815
0.11275005 -0.13825804 0.68000001 4293584608
0.1140416 -0.13825925 0.68000001 4293453792
0.11567239 -0.13866709 0.68199998 4293387999
0.11696781 -0.1386683 0.68199998 4292993501
0.11826328 -0.13866952 0.68199998 4293059550
0.11955877 -0.13867073 0.68199998 4293058783
0.12103152 -0.13887526 0.68300003 4293321954
0.12232898 -0.1388765 0.68300003 4293387999
0.1238075 -0.13908105 0.68400002 4293387999
0.12510695 -0.13908227 0.68400002 4293518815
0.12640642 -0.13908347 0.68400002 4293518815
0.12770593 -0.13908471 0.68400002 4293518815
0.1293827 -0.13949263 0.68599999 4293584608
0.13087662 -0.13969718 0.68699998 4293387486
0.13198952 -0.13949506 0.68599999 4293518815
0.13329299 -0.13949628 0.68599999 4293453538
0.13479269 -0.13970084 0.68699998 4293387745
0.1360981 -0.13970204 0.68699998 4293387747
0.13760361 -0.13990663 0.68800002 4293387747
0.13891098 -0.13990785 0.68800002 4293453792
0.14021845 -0.13990906 0.68800002 4293519586
0.14152591 -0.13991025 0.68800002 4293191134
0.1432486 -0.14031814 0.69 4293191134
0.14455995 -0.14031935 0.69 4293453540
0.1458713 -0.14032052 0.69 4293453540
0.14718269 -0.14032169 0.69 4293059035
0.14849411 -0.14032286 0.69 4293387999
0.1500227 -0.1405274 0.69099998 4293453538
0.15133609 -0.14052857 0.69099998 4293256159
0.15331224 -0.14113984 0.69400001 4293059037
0.15463138 -0.14114097 0.69400001 4293453538
0.15639998 -0.14154884 0.69599998 4293454052
0.1579496 -0.14175335 0.69700003 4293454052
0.15927453 -0.14175448 0.69700003 4292993503
0.16082987 -0.14195894 0.69800001 4293256931
0.16262142 -0.1423668 0.69999999 4293519588
0.16418633 -0.14257126 0.70099998 4293585381
0.16599122 -0.1429791 0.70300001 4293453538
0.16756567 -0.14318353 0.704 4293453538
0.16962379 -0.14379472 0.70700002 4293322470
0.17120974 -0.14399914 0.708 4293322470
0.17255576 -0.14400019 0.708 4293125091
0.17390178 -0.14400117 0.708 4293125091
0.17648546 -0.14501911 0.713 4293519336
0.17784107 -0.14502008 0.713 4294440438
0.17944795 -0.14522442 0.71399999 4293057486
0.18080546 -0.14522535 0.71399999 4278386688
0.18343863 -0.14624327 0.71899998 4278190080
0.036382012 -0.14637727 0.727 4291938752
0.037656944 -0.14597499 0.72500002 4292267717
0.038924314 -0.14557274 0.72299999 4292136388
0.040239841 -0.14537185 0.722 4292531146
0.041493975 -0.14496966 0.72000003 4292334533
0.042800054 -0.1447688 0.71899998 4292137153
0.044163786 -0.14476933 0.71899998 4292267719
0.045400903 -0.14436717 0.71700001 4292596685
0.046695668 -0.14416638 0.71600002 4292531909
0.047919545 -0.14376426 0.71399999 4292531909
0.049204867 -0.14356348 0.713 4292728520
0.050415512 -0.1431614 0.71100003 4292925900
0.051545784 -0.14255796 0.708 4292795084
0.0528141 -0.14235727 0.70700002 4292729290
0.054155264 -0.14235796 0.70700002 4292925900
0.055496432 -0.14235863 0.70700002 4292991693
0.05651607 -0.14155389 0.70300001 4292926161
0.057685126 -0.14115189 0.70099998 4292992210
0.059014991 -0.14115261 0.70099998 4292926163
0.060344886 -0.14115335 0.70099998 4292926163
0.061674815 -0.14115413 0.70099998 4292991956
0.062555358 -0.14014809 0.69599998 4292991956
0.063875869 -0.14014889 0.69599998 4292926933
0.065196387 -0.14014968 0.69599998 4292926933
0.066516943 -0.14015052 0.69599998 4292926933
0.067934997 -0.14035276 0.69700003 4292926933
0.069158137 -0.14015222 0.69599998 4292992210
0.070478775 -0.14015307 0.69599998 4293058003
0.07159315 -0.13975124 0.69400001 4293123796
0.07280501 -0.13955079 0.69300002 4293058003
0.074120037 -0.13955168 0.69300002 4293255637
0.075217411 -0.13914986 0.69099998 4293452759
0.07641799 -0.13894944 0.69 4293255637
0.077502154 -0.13854764 0.68800002 4293123794
0.078807831 -0.13854857 0.68800002 4293124309
0.08011356 -0.13854955 0.68800002 4293058516
0.081419334 -0.13855056 0.68800002 4293124055
0.082604878 -0.13835016 0.68699998 4293190105
0.083786674 -0.1381498 0.68599999 4293255383
0.085088745 -0.13815081 0.68599999 4293255383
0.086390831 -0.13815184 0.68599999 4293386714
0.087692983 -0.13815288 0.68599999 4293452507
0.088995159 -0.13815394 0.68599999 4293255644
0.090297386 -0.138155 0.68599999 4293255644
0.091599643 -0.1381561 0.68599999 4293255644
0.092631057 -0.1377544 0.68400002 4293321693
0.093792282 -0.13755411 0.68300003 4293321693
0.094949715 -0.13735379 0.68199998 4293321693
0.096244521 -0.13735491 0.68199998 4293321691
0.097682394 -0.13755743 0.68300003 4293387484
0.098979168 -0.13755856 0.68300003 4293189851
0.10027599 -0.13755968 0.68300003 4293189851
0.10157285 -0.13756084 0.68300003 4293189851
0.10271911 -0.13736059 0.68199998 4293189851
0.10401414 -0.13736172 0.68199998 4293189851
0.10530922 -0.13736288 0.68199998 4293255644
0.10660432 -0.13736407 0.68199998 4293255644
0.10758305 -0.13696241 0.68000001 4293255644
0.10887443 -0.13696359 0.68000001 4293255644
0.11016587 -0.13696477 0.68000001 4293518815
0.11145734 -0.13696595 0.68000001 4293518813
0.11274886 -0.13696715 0.68000001 4293518813
0.1140404 -0.13696836 0.68000001 4293387997
0.11567119 -0.1373724 0.68199998 4293256411
0.11696661 -0.13737361 0.68199998 4293256159
0.11843547 -0.13757627 0.68300003 4293387745
0.11973287 -0.13757747 0.68300003 4293387486
0.12103031 -0.13757868 0.68300003 4293387486
0.12232776 -0.1375799 0.68300003 4293518815
0.12380626 -0.13778254 0.68400002 4293848037
0.12510569 -0.13778377 0.68400002 4293518815
0.12640519 -0.137785 0.68400002 4293387486
0.12770472 -0.13778622 0.68400002 4293387486
0.12938148 -0.13819031 0.68599999 4293387486
0.13087538 -0.138393 0.68699998 4293387486
0.13218069 -0.13839421 0.68699998 4293518815
0.13368037 -0.13859688 0.68800002 4293321952
0.13498767 -0.1385981 0.68800002 4293387745
0.13629501 -0.13859932 0.68800002 4293387749
0.13800238 -0.13900344 0.69 4293387749
0.13890979 -0.13860175 0.68800002 4293453792
0.14021723 -0.13860294 0.68800002 4293519586
0.1415247 -0.13860416 0.68800002 4293191136
0.14324743 -0.13900828 0.69 4293191136
0.14455876 -0.13900946 0.69 4293453542
0.14587015 -0.13901065 0.69 4293453542
0.14718154 -0.13901183 0.69 4293256161
0.14849296 -0.13901299 0.69 4293387747
0.15002152 -0.13921562 0.69099998 4293453538
0.15133493 -0.13921678 0.69099998 4293321952
0.15331109 -0.13982236 0.69400001 4293191138
0.15463024 -0.13982351 0.69400001 4293454054
0.15639883 -0.14022757 0.69599998 4293454054
0.15794846 -0.14043018 0.69700003 4293454054
0.15927343 -0.14043131 0.69700003 4293059298
0.16059841 -0.14043243 0.69700003 4293125091
0.16262031 -0.14103794 0.69999999 4293453538
0.16418524 -0.14124052 0.70099998 4293519588
0.16669847 -0.14224902 0.70599997 4293321952
0.16827866 -0.14245158 0.70700002 4293256159
0.1698627 -0.14265414 0.708 4293256931
0.17120871 -0.14265515 0.708 4293322724
0.17255473 -0.14265616 0.708 4293190884
0.1739008 -0.14265718 0.708 4293190884
0.176732 -0.14386712 0.71399999 4293781990
0.1780895 -0.14386809 0.71399999 4293781990
0.17994966 -0.14427206 0.71600002 4292135606
0.18156426 -0.14447452 0.71700001 4278190080
0.18343771 -0.1448784 0.71899998 4278190080
0.036381595 -0.14499733 0.727 4291676098
0.037656516 -0.14459887 0.72500002 4292202442
0.039031535 -0.1445993 0.72500002 4292267715
0.040295102 -0.14420088 0.72299999 4292333508
0.041493483 -0.14360303 0.72000003 4292268485
0.042799547 -0.14340404 0.71899998 4292202692
0.044163261 -0.14340457 0.71899998 4292071108
0.045400359 -0.14300622 0.71700001 4292465610
0.046695098 -0.14280732 0.71600002 4292531909
0.04805319 -0.14280789 0.71600002 4292466116
0.049273275 -0.14240959 0.71399999 4292530625
0.050414894 -0.14181183 0.71100003 4292859591
0.051545151 -0.14121409 0.708 4292729288
0.052813459 -0.14101531 0.70700002 4292663495
0.054154579 -0.14101593 0.70700002 4292728516
0.055495746 -0.14101663 0.70700002 4292794565
0.056836925 -0.14101733 0.70700002 4292729038
0.057848986 -0.14022021 0.70300001 4292663245
0.05901425 -0.13982199 0.70099998 4292662991
0.060344137 -0.13982277 0.70099998 4292729040
0.061674036 -0.13982351 0.70099998 4292794834
0.063273609 -0.14042269 0.704 4292794834
0.064609267 -0.14042348 0.704 4292729300
0.065944955 -0.14042431 0.704 4292729300
0.066516109 -0.13882938 0.69599998 4292664531
0.06783668 -0.13883023 0.69599998 4292795860
0.06915728 -0.13883108 0.69599998 4292598736
0.070477903 -0.13883194 0.69599998 4292861651
0.071592256 -0.1384339 0.69400001 4293058003
0.072804093 -0.13823532 0.69300002 4293058003
0.074119136 -0.13823624 0.69300002 4293058003
0.075216487 -0.1378382 0.69099998 4293123796
0.076417044 -0.13763967 0.69 4293123796
0.0775012 -0.13724166 0.68800002 4293123796
0.07880687 -0.13724262 0.68800002 4293124309
0.080112584 -0.13724358 0.68800002 4293124309
0.081418335 -0.13724458 0.68800002 4293058514
0.082603879 -0.13704608 0.68699998 4293124307
0.083785661 -0.13684762 0.68599999 4293124307
0.085087724 -0.13684864 0.68599999 4293124307
0.086389795 -0.13684966 0.68599999 4293189591
0.08769194 -0.1368507 0.68599999 4293255385
0.088994108 -0.13685176 0.68599999 4293255898
0.090296321 -0.13685283 0.68599999 4293255898
0.091598548 -0.13685389 0.68599999 4293255644
0.092629977 -0.13645598 0.68400002 4293255644
0.093791187 -0.13625759 0.68300003 4293124828
0.09494862 -0.13605918 0.68199998 4293124828
0.096243411 -0.13606028 0.68199998 4293125341
0.097681269 -0.13626091 0.68300003 4293059548
0.098978035 -0.13626203 0.68300003 4292927961
0.10027485 -0.13626316 0.68300003 4292993755
0.10157169 -0.13626431 0.68300003 4293124057
0.10286858 -0.13626546 0.68300003 4293189851
0.10416552 -0.13626663 0.68300003 4293189851
0.10546248 -0.13626778 0.68300003 4293255644
0.10660315 -0.1360694 0.68199998 4293255644
0.10789829 -0.13607059 0.68199998 4293255644
0.10919348 -0.13607177 0.68199998 4293255644
0.11016469 -0.13567393 0.68000001 4293321693
0.11145615 -0.1356751 0.68000001 4293256157
0.11274766 -0.13567629 0.68000001 4293256157
0.11403921 -0.13567749 0.68000001 4293387486
0.11566998 -0.13607775 0.68199998 4293387486
0.11713692 -0.1362785 0.68300003 4293584095
0.11843426 -0.13627969 0.68300003 4293715682
0.11973165 -0.13628091 0.68300003 4293584608
0.12102907 -0.13628213 0.68300003 4293387486
0.12232654 -0.13628334 0.68300003 4293452509
0.12380506 -0.1364841 0.68400002 4293584095
0.12510449 -0.13648531 0.68400002 4293518302
0.12640397 -0.13648655 0.68400002 4293452509
0.1277035 -0.13648777 0.68400002 4293321693
0.12938026 -0.13688804 0.68599999 4293321693
0.13087416 -0.13708884 0.68699998 4293387486
0.13217947 -0.13709004 0.68699998 4293387486
0.13367915 -0.13729082 0.68800002 4293256159
0.13498646 -0.13729204 0.68800002 4293256159
0.13629381 -0.13729326 0.68800002 4293321954
0.13760115 -0.13729447 0.68800002 4293387747
0.13890858 -0.13729569 0.68800002 4293322206
0.14021602 -0.13729687 0.68800002 4293322206
0.14152351 -0.13729809 0.68800002 4293059548
0.1432462 -0.1376984 0.69 4293191134
0.14455757 -0.13769959 0.69 4293256929
0.14586896 -0.1377008 0.69 4293322722
0.14718035 -0.13770196 0.69 4293191136
0.148707 -0.13790271 0.69099998 4293256929
0.15002038 -0.13790387 0.69099998 4293256931
0.1517718 -0.13830417 0.69300002 4293256931
0.15375175 -0.13890405 0.69599998 4293256931
0.15507472 -0.1389052 0.69599998 4293322724
0.1563977 -0.13890633 0.69599998 4293322722
0.15794736 -0.13910706 0.69700003 4293322722
0.1592723 -0.13910815 0.69700003 4293191138
0.16059729 -0.13910928 0.69700003 4293191138
0.16285153 -0.1399087 0.70099998 4293256931
0.1646526 -0.14030898 0.70300001 4293454054
0.16693352 -0.14110841 0.70700002 4293191138
0.16851562 -0.14130905 0.708 4293125089
0.16986166 -0.14131013 0.708 4293059298
0.17120768 -0.14131117 0.708 4293125091
0.17255373 -0.14131218 0.708 4293190884
0.1738998 -0.1413132 0.708 4293256677
0.1752459 -0.14131419 0.708 4293584358
0.17659198 -0.14131515 0.708 4293584358
0.17994869 -0.14291291 0.71600002 4290296996
0.18156327 -0.14311343 0.71700001 4278190080
0.1834368 -0.14351358 0.71899998 4278190080
0.036381185 -0.14361745 0.727 4291282626
0.037656084 -0.14322278 0.72500002 4292072142
0.039031085 -0.14322321 0.72500002 4292070845
0.040294636 -0.14282858 0.72299999 4292005052
0.041608248 -0.1426315 0.722 4292267715
0.042799037 -0.14203933 0.71899998 4292465351
0.044162732 -0.14203987 0.71899998 4292202946
0.045399811 -0.1416453 0.71700001 4292465862
0.046694532 -0.1414483 0.71600002 4292531396
0.047918372 -0.14105375 0.71399999 4292465603
0.049272675 -0.14105436 0.71399999 4292333760
0.050414272 -0.14046231 0.71100003 4292728518
0.051544525 -0.13987027 0.708 4292663495
0.052887492 -0.13987088 0.708 4292597702
0.054153912 -0.13967398 0.70700002 4292597439
0.055495054 -0.13967468 0.70700002 4292597439
0.056836221 -0.13967538 0.70700002 4292663497
0.05809512 -0.13947853 0.70599997 4292597448
0.059434436 -0.13947925 0.70599997 4292662991
0.060601629 -0.13908489 0.704 4292662991
0.061937202 -0.13908564 0.704 4292729040
0.063272819 -0.13908641 0.704 4292729040
0.064608455 -0.13908722 0.704 4292729300
0.065850459 -0.13889048 0.70300001 4292663506
0.06783583 -0.13750914 0.69599998 4292795345
0.069156423 -0.13751 0.69599998 4292795599
0.070477039 -0.13751085 0.69599998 4292861392
0.07159137 -0.13711663 0.69400001 4292992210
0.072908245 -0.13711749 0.69400001 4292992210
0.074118219 -0.13692082 0.69300002 4293057749
0.075215563 -0.13652658 0.69099998 4293057749
0.076416105 -0.13632993 0.69 4293057749
0.077500246 -0.13593574 0.68800002 4293189591
0.078805909 -0.13593669 0.68800002 4293124307
0.07999517 -0.13574007 0.68699998 4293124307
0.081298999 -0.13574104 0.68699998 4293123794
0.082602873 -0.13574202 0.68699998 4293189587
0.08378464 -0.13554546 0.68599999 4293189587
0.085086688 -0.13554646 0.68599999 4293123794
0.086388767 -0.13554749 0.68599999 4293123796
0.087690897 -0.13554855 0.68599999 4293189589
0.08912278 -0.13574718 0.68699998 4293386966
0.09029524 -0.13555065 0.68599999 4293386966
0.091597475 -0.13555172 0.68599999 4293190103
0.092628889 -0.13515761 0.68400002 4293190103
0.093790099 -0.13496113 0.68300003 4293190105
0.095086724 -0.1349622 0.68300003 4293058262
0.096383415 -0.13496329 0.68300003 4292927448
0.097680166 -0.13496444 0.68300003 4292861655
0.09897691 -0.13496554 0.68300003 4293058264
0.10027371 -0.13496669 0.68300003 4293189851
0.10157054 -0.1349678 0.68300003 4293189589
0.10286742 -0.13496894 0.68300003 4293189589
0.10416435 -0.13497011 0.68300003 4293189591
0.10546131 -0.13497128 0.68300003 4293386714
0.10660198 -0.1347748 0.68199998 4293255898
0.10758071 -0.13438076 0.68000001 4293190105
0.10887209 -0.13438192 0.68000001 4293124057
0.11016352 -0.1343831 0.68000001 4293255644
0.11145496 -0.1343843 0.68000001 4293255644
0.11274647 -0.13438548 0.68000001 4293255644
0.11403801 -0.13438667 0.68000001 4293255644
0.1158384 -0.13498077 0.68300003 4293321693
0.1173072 -0.13517959 0.68400002 4293387484
0.11860645 -0.13518079 0.68400002 4293518813
0.11990575 -0.13518201 0.68400002 4293518815
0.12120508 -0.13518323 0.68400002 4293518815
0.12250442 -0.13518442 0.68400002 4293255646
0.12380385 -0.13518566 0.68400002 4293255646
0.12510328 -0.13518688 0.68400002 4293255644
0.12640277 -0.1351881 0.68400002 4293321693
0.1277023 -0.13518932 0.68400002 4293124057
0.12937903 -0.1355858 0.68599999 4292926935
0.13087292 -0.13578469 0.68699998 4293124059
0.13237067 -0.13598357 0.68800002 4293321439
0.13406654 -0.13638008 0.69 4293189851
0.13498524 -0.135986 0.68800002 4293058264
0.13629258 -0.13598721 0.68800002 4293189599
0.13759996 -0.13598843 0.68800002 4293518563
0.13890739 -0.13598964 0.68800002 4293322206
0.14021485 -0.13599084 0.68800002 4293322206
0.14193371 -0.13638738 0.69 4293256157
0.14324501 -0.13638856 0.69 4293387999
0.14476587 -0.13658741 0.69099998 4293322204
0.14607915 -0.1365886 0.69099998 4293387997
0.14739247 -0.13658978 0.69099998 4293387486
0.14913625 -0.1369863 0.69300002 4293321693
0.15045343 -0.13698751 0.69300002 4293256161
0.15198965 -0.13718632 0.69400001 4293124576
0.1537506 -0.13758282 0.69599998 4293191136
0.15507355 -0.13758396 0.69599998 4293256929
0.15639657 -0.1375851 0.69599998 4293256927
0.15794623 -0.13778394 0.69700003 4293256927
0.1592712 -0.13778506 0.69700003 4293191136
0.16059618 -0.13778615 0.69700003 4293191136
0.16285044 -0.13857798 0.70099998 4293191136
0.16558836 -0.13976522 0.70700002 4293454052
0.16693243 -0.13976631 0.70700002 4293322470
0.16899058 -0.14036044 0.70999998 4293190884
0.16986056 -0.13996612 0.708 4293059298
0.17120665 -0.13996717 0.708 4293059298
0.1725527 -0.1399682 0.708 4293124576
0.1738988 -0.13996921 0.708 4293321954
0.1752449 -0.13997021 0.708 4293847015
0.17659102 -0.13997118 0.708 4292267984
0.036430817 -0.14243326 0.72799999 4291085242
0.037655655 -0.14184675 0.72500002 4291874758
0.039030638 -0.14184718 0.72500002 4291808188
0.040405639 -0.14184766 0.72500002 4292005311
0.041607764 -0.14126116 0.722 4292136386
0.042858053 -0.14087035 0.72000003 4292136386
0.044162206 -0.14067522 0.71899998 4292070593
0.045399275 -0.14028445 0.71700001 4292399557
0.046693973 -0.14008932 0.71600002 4292268739
0.047917794 -0.13969858 0.71399999 4292268739
0.049065046 -0.13911222 0.71100003 4292333760
0.050413664 -0.13911282 0.71100003 4292399553
0.051543884 -0.13852647 0.708 4292465862
0.052886855 -0.13852711 0.708 4292531655
0.054153241 -0.1383321 0.70700002 4292531909
0.055494372 -0.13833281 0.70700002 4292597702
0.056755126 -0.1381378 0.70599997 4292663245
0.058094405 -0.13813852 0.70599997 4292597452
0.059265334 -0.13774791 0.704 4292531405
0.060600877 -0.13774867 0.704 4292531405
0.061936438 -0.13774942 0.704 4292662991
0.063182153 -0.13755454 0.70300001 4292662991
0.064515874 -0.13755532 0.70300001 4292662991
0.065849639 -0.13755614 0.70300001 4292662991
0.066896729 -0.13696995 0.69999999 4292597711
0.068224855 -0.13697079 0.69999999 4292466382
0.069155566 -0.13618894 0.69599998 4292466634
0.070476167 -0.1361898 0.69599998 4292729550
0.071590491 -0.13579935 0.69400001 4292729550
0.072907344 -0.13580021 0.69400001 4292795599
0.074117295 -0.13560545 0.69300002 4292926161
0.075214639 -0.135215 0.69099998 4292926161
0.076415166 -0.13502026 0.69 4292861392
0.077499293 -0.13462985 0.68800002 4292927185
0.078804947 -0.1346308 0.68800002 4292861905
0.079994187 -0.13443606 0.68699998 4292796112
0.081298016 -0.13443705 0.68699998 4292794832
0.082601868 -0.13443802 0.68699998 4292926161
0.083783641 -0.13424334 0.68599999 4292992210
0.085085675 -0.13424437 0.68599999 4293058003
0.086387731 -0.13424538 0.68599999 4292992210
0.087817684 -0.13444211 0.68699998 4292992210
0.088992 -0.13424747 0.68599999 4293058003
0.090030931 -0.13385713 0.68400002 4293058003
0.091329359 -0.13385819 0.68400002 4293058003
0.092627816 -0.13385928 0.68400002 4293189589
0.093926311 -0.13386036 0.68400002 4293190105
0.095085628 -0.13366574 0.68300003 4292926933
0.09638232 -0.13366686 0.68300003 4293057751
0.097679034 -0.13366798 0.68300003 4292991958
0.098975778 -0.13366908 0.68300003 4292794834
0.10027258 -0.13367023 0.68300003 4292991956
0.10156942 -0.13367136 0.68300003 4293058001
0.10286627 -0.13367248 0.68300003 4292992208
0.1041632 -0.13367367 0.68300003 4292926163
0.10546014 -0.13367479 0.68300003 4293123542
0.10675713 -0.13367595 0.68300003 4292926933
0.10757954 -0.13308997 0.68000001 4293058262
0.10887092 -0.13309114 0.68000001 4293124055
0.11016233 -0.13309231 0.68000001 4293255898
0.11145378 -0.13309349 0.68000001 4293255644
0.11274529 -0.13309468 0.68000001 4293255644
0.11403681 -0.13309586 0.68000001 4293124828
0.1160068 -0.13387999 0.68400002 4293256157
0.117306 -0.13388121 0.68400002 4293321691
0.11860525 -0.13388239 0.68400002 4293321691
0.11990453 -0.13388361 0.68400002 4293255644
0.12120385 -0.13388482 0.68400002 4293255644
0.12250321 -0.13388602 0.68400002 4293059035
0.12380261 -0.13388725 0.68400002 4292993241
0.12510206 -0.13388845 0.68400002 4293058262
0.12677114 -0.13428116 0.68599999 4293058262
0.12807445 -0.13428238 0.68599999 4292861140
0.12956642 -0.13447934 0.68699998 4292926933
0.13106221 -0.13467632 0.68800002 4293057751
0.13275425 -0.13506906 0.69 4293189337
0.13406529 -0.13507026 0.69 4293124057
0.13537641 -0.13507149 0.69 4293124057
0.13629138 -0.13468121 0.68800002 4293124057
0.13759874 -0.1346824 0.68800002 4293255644
0.13890617 -0.13468362 0.68800002 4293124828
0.14021364 -0.13468485 0.68800002 4293124828
0.14152111 -0.13468602 0.68800002 4293255644
0.14324382 -0.13507871 0.69 4293255644
