# .PCD v0.7 - Point Cloud Data file format
VERSION 0.7
FIELDS x y z rgba
SIZE 4 4 4 4
TYPE F F F U
COUNT 1 1 1 1
WIDTH 1084
HEIGHT 1
VIEWPOINT 0 0 0 1 0 0 0
POINTS 1084
DATA ascii
0.11174168 0.024289059 0.68199998 4292466632
0.11320274 0.024325602 0.68300003 4292597961
0.11449998 0.024326535 0.68300003 4292598215
0.1157973 0.024327479 0.68300003 4292598215
0.11709467 0.024328431 0.68300003 4292597702
0.1183921 0.024329392 0.68300003 4292597702
0.11968958 0.024330359 0.68300003 4292334281
0.12098715 0.024331339 0.68300003 4292531659
0.12228476 0.024332328 0.68300003 4292663243
0.12358242 0.024333321 0.68300003 4292663243
0.12469731 0.02429869 0.68199998 4292401102
0.12599319 0.024299704 0.68199998 4292466895
0.1274758 0.024336353 0.68300003 4292532942
0.12896223 0.024373012 0.68400002 4292466893
0.13064298 0.024445318 0.68599999 4292466634
0.13156204 0.024375096 0.68400002 4292466634
0.13286202 0.024376146 0.68400002 4292335309
0.13416207 0.024377206 0.68400002 4292335309
0.13546218 0.024378275 0.68400002 4292334794
0.13676235 0.024379352 0.68400002 4292334794
0.13806257 0.024380434 0.68400002 4292269001
0.13936286 0.024381528 0.68400002 4292203207
0.14066321 0.024382623 0.68400002 4292137160
0.1419636 0.024383731 0.68400002 4291874245
0.14368297 0.02445614 0.68599999 4292070595
0.14498729 0.024457267 0.68599999 4292136388
0.14650492 0.02449405 0.68699998 4291939266
0.14759609 0.024459532 0.68599999 4292005059
0.1489006 0.024460675 0.68599999 4291873991
0.15042411 0.024497485 0.68699998 4292005833
0.15195148 0.024534306 0.68800002 4291940038
0.15325995 0.024535473 0.68800002 4292005831
0.15501779 0.024607975 0.69 4292136901
0.15633015 0.024609158 0.69 4292071108
0.15832798 0.02471735 0.69300002 4292005061
0.1603373 0.024825554 0.69599998 4292005061
0.16166124 0.024826769 0.69599998 4292005059
0.16298525 0.024827985 0.69599998 4292005059
0.1645454 0.024864886 0.69700003 4292005059
0.16682333 0.025008822 0.70099998 4291939266
0.16815701 0.025010068 0.70099998 4291742402
0.16949072 0.025011316 0.70099998 4291742402
0.1713119 0.025083935 0.70300001 4291676609
0.17264953 0.025085203 0.70300001 4291545280
0.17423469 0.02512216 0.704 4291479487
0.17607312 0.025194807 0.70599997 4291413694
0.17791922 0.025267478 0.708 4291347647
0.17926657 0.025268774 0.708 4291281854
0.18061389 0.025270069 0.708 4291216060
0.053122684 0.02734706 0.73000002 4294770686
0.055890724 0.027348012 0.73000002 4290887863
0.057117876 0.027273577 0.72799999 4291282878
0.058498193 0.027274087 0.72799999 4291939004
0.059878547 0.027274605 0.72799999 4292004798
0.060501609 0.026937939 0.71899998 4291939002
0.061692897 0.026863545 0.71700001 4292070845
0.062964566 0.026826626 0.71600002 4292267965
0.064142652 0.026752245 0.71399999 4292267965
0.065404922 0.026715349 0.713 4292267965
0.06656982 0.026640989 0.71100003 4292267965
0.067918219 0.026641577 0.71100003 4292267969
0.069266655 0.026642181 0.71100003 4292399555
0.070217885 0.026492907 0.70700002 4292268739
0.071457595 0.026456051 0.70599997 4292597448
0.072487362 0.026344264 0.70300001 4292531907
0.07361079 0.026269954 0.70099998 4292466114
0.074940488 0.026270602 0.70099998 4292465862
0.076161437 0.026233789 0.69999999 4292465862
0.077489331 0.026234465 0.69999999 4292597702
0.078592077 0.026160186 0.69800001 4292597702
0.079801783 0.026123397 0.69700003 4292334281
0.081007734 0.026086619 0.69599998 4292268487
0.082091667 0.026012367 0.69400001 4292531655
0.08340843 0.026013091 0.69400001 4292597448
0.084725231 0.026013818 0.69400001 4292597702
0.085918121 0.025977079 0.69300002 4292663495
0.086981364 0.025902854 0.69099998 4292597450
0.088292636 0.025903614 0.69099998 4292531657
0.089474283 0.0258669 0.69 4292466382
0.090783767 0.02586768 0.69 4292400589
0.091826379 0.025793493 0.68800002 4292597450
0.093132153 0.025794288 0.68800002 4292663243
0.094163463 0.02572011 0.68599999 4292663497
0.095465563 0.025720928 0.68599999 4292597448
0.096767716 0.025721755 0.68599999 4292729288
0.098355845 0.025797583 0.68800002 4292795082
0.099372178 0.025723437 0.68599999 4292729290
0.10067452 0.025724294 0.68599999 4292663497
0.10212555 0.025762662 0.68699998 4292663243
0.10342989 0.02576354 0.68699998 4292729036
0.10473428 0.025764424 0.68699998 4292663245
0.10542133 0.025615307 0.68300003 4292663245
0.10671824 0.02561621 0.68300003 4292663497
0.10785705 0.025579609 0.68199998 4292663497
0.10915218 0.025580529 0.68199998 4292597700
0.11044737 0.025581457 0.68199998 4292597700
0.11174262 0.025582392 0.68199998 4292597700
0.11320368 0.025620854 0.68300003 4292531907
0.11450093 0.025621807 0.68300003 4292597700
0.11579826 0.025622776 0.68300003 4292597700
0.11709563 0.025623748 0.68300003 4292531909
0.11856642 0.025662251 0.68400002 4292531909
0.11986582 0.025663242 0.68400002 4292334283
0.12116527 0.025664242 0.68400002 4292334283
0.12228576 0.025627736 0.68300003 4292531657
0.12358342 0.025628753 0.68300003 4292531657
0.12488116 0.025629777 0.68300003 4292400589
0.12617898 0.025630817 0.68300003 4292334796
0.12766346 0.025669385 0.68400002 4292401100
0.12896328 0.025670439 0.68400002 4292466893
0.13064404 0.025746562 0.68599999 4292597963
0.13194777 0.025747633 0.68599999 4292663756
0.13325158 0.025748713 0.68599999 4292400587
0.13455543 0.025749799 0.68599999 4292400587
0.13585936 0.025750898 0.68599999 4292269001
0.13676344 0.025676925 0.68400002 4292269001
0.13806367 0.025678033 0.68400002 4292334535
0.13936397 0.025679147 0.68400002 4292202692
0.14066432 0.02568027 0.68400002 4292202440
0.14237984 0.025756493 0.68599999 4292136647
0.1436841 0.025757635 0.68599999 4292070854
0.14498842 0.025758781 0.68599999 4292268489
0.14650606 0.025797488 0.68699998 4292136899
0.14759727 0.0257611 0.68599999 4292005313
0.14890175 0.025762267 0.68599999 4292005061
0.15064423 0.025838558 0.68800002 4292136647
0.15261523 0.025952416 0.69099998 4291940036
0.15392941 0.025953613 0.69099998 4291940036
0.15524365 0.02595482 0.69099998 4292071106
0.15701108 0.026031157 0.69300002 4292005313
0.15855767 0.026069943 0.69400001 4292005311
0.16033852 0.026146306 0.69599998 4291808188
0.16166247 0.026147543 0.69599998 4291939520
0.16322066 0.026186358 0.69700003 4291939520
0.16525488 0.026300324 0.69999999 4291807934
0.16682456 0.02633916 0.70099998 4291807934
0.16815828 0.026340436 0.70099998 4291807934
0.16997558 0.026416866 0.70300001 4291742141
0.17131317 0.026418149 0.70300001 4291545532
0.1728964 0.026457027 0.704 4291413946
0.174236 0.026458325 0.704 4291347901
0.1760744 0.026534794 0.70599997 4291282108
0.17792054 0.026611287 0.708 4291282108
0.17926784 0.026612608 0.708 4291084729
0.055891216 0.028731564 0.73000002 4291479496
0.057275295 0.028732071 0.73000002 4291282374
0.058659419 0.02873259 0.73000002 4291676600
0.061865527 0.028301246 0.71899998 4292005050
0.063053064 0.028223084 0.71700001 4292005050
0.064322911 0.028184298 0.71600002 4292005050
0.065497242 0.028106149 0.71399999 4292005050
0.066851296 0.028106743 0.71399999 4292070843
0.068205401 0.028107349 0.71399999 4292136638
0.068877593 0.027832402 0.70700002 4292136638
0.070218503 0.027833026 0.70700002 4292136638
0.071458235 0.027794294 0.70599997 4292267967
0.072591111 0.027716203 0.704 4292267969
0.073611446 0.027598748 0.70099998 4292267969
0.074941151 0.027599417 0.70099998 4292334535
0.076270908 0.027600093 0.70099998 4292334535
0.077490017 0.027561409 0.69999999 4292334533
0.07859277 0.027483355 0.69800001 4292334533
0.079802498 0.027444692 0.69700003 4292399557
0.081124857 0.027445415 0.69700003 4292333508
0.082328968 0.02740676 0.69599998 4292333508
0.083649524 0.027407501 0.69599998 4292399557
0.084725983 0.027329497 0.69400001 4292268739
0.086042851 0.027330257 0.69400001 4292268739
0.087233894 0.027291648 0.69300002 4292268487
0.088548966 0.027292423 0.69300002 4292531659
0.089864098 0.027293216 0.69300002 4292400841
0.090916142 0.02721525 0.69099998 4292400841
0.092094101 0.027176676 0.69 4292597702
0.093403697 0.027177494 0.69 4292531909
0.094438821 0.027099548 0.68800002 4292334533
0.095744736 0.027100388 0.68800002 4292465862
0.097332813 0.027180018 0.69 4292531655
0.098642625 0.027180882 0.69 4292465862
0.099952497 0.027181754 0.69 4292268739
0.1009689 0.027103841 0.68800002 4292465862
0.1022751 0.027104735 0.68800002 4292334535
0.10358134 0.027105633 0.68800002 4292531657
0.10488763 0.027106544 0.68800002 4292597450
0.10603964 0.02706806 0.68699998 4292531657
0.1071879 0.027029589 0.68599999 4292334535
0.10801614 0.026912319 0.68300003 4292334535
0.10931317 0.026913254 0.68300003 4292399553
0.11061027 0.026914209 0.68300003 4292465603
0.11190744 0.02691517 0.68300003 4292531909
0.11320464 0.026916135 0.68300003 4292268737
0.11450192 0.026917117 0.68300003 4292267969
0.11579923 0.026918104 0.68300003 4292333762
0.11709663 0.026919102 0.68300003 4292399555
0.11856742 0.026959524 0.68400002 4292465349
0.11986685 0.026960541 0.68400002 4292465862
0.12116629 0.026961563 0.68400002 4292465862
0.12246583 0.026962601 0.68400002 4292465862
0.12376542 0.026963646 0.68400002 4292465862
0.12506506 0.026964696 0.68400002 4292334794
0.12636475 0.026965752 0.68400002 4292334794
0.12766454 0.026966823 0.68400002 4292202953
0.12934144 0.027046751 0.68599999 4292334796
0.13083556 0.027087267 0.68699998 4292663243
0.1321412 0.027088365 0.68699998 4292663243
0.13344692 0.027089471 0.68699998 4292597450
0.13455653 0.027051155 0.68599999 4292531657
0.13586046 0.02705227 0.68599999 4292268485
0.13716446 0.027053403 0.68599999 4292268485
0.13846849 0.027054537 0.68599999 4292268487
0.13997635 0.027095119 0.68699998 4292202694
0.14128241 0.027096273 0.68699998 4292005831
0.14258851 0.027097436 0.68699998 4291940038
0.1438947 0.0270986 0.68699998 4291940040
0.14520094 0.027099777 0.68699998 4291940040
0.1467205 0.027140407 0.68800002 4291940038
0.14802876 0.027141601 0.68800002 4291874245
0.14933705 0.027142799 0.68800002 4291874245
0.15108335 0.027222909 0.69 4291874245
0.15305817 0.027342491 0.69300002 4292005061
0.15437616 0.027343718 0.69300002 4292005061
0.15569422 0.027344957 0.69300002 4291808702
0.15723884 0.027385654 0.69400001 4291874495
0.15855892 0.0273869 0.69400001 4291874495
0.16033977 0.027467087 0.69599998 4291742908
0.16189602 0.027507817 0.69700003 4291742656
0.16345611 0.027548557 0.69800001 4291479485
0.16549221 0.027668243 0.70099998 4291544508
0.16682586 0.027669534 0.70099998 4291610557
0.16863933 0.027749782 0.70300001 4291610303
0.16997689 0.027751088 0.70300001 4291544510
0.17155816 0.027791874 0.704 4291347901
0.17289771 0.027793199 0.704 4291282108
0.17473228 0.027873479 0.70599997 4291018936
0.17632517 0.027914304 0.70700002 4291018936
0.17842443 0.028034095 0.70999998 4291018936
0.061866101 0.029664055 0.71899998 4291873713
0.063229524 0.02966463 0.71899998 4291939002
0.064592987 0.029665213 0.71899998 4292005052
0.065773033 0.029583298 0.71700001 4292004798
0.067132801 0.029583909 0.71700001 4292004798
0.068397082 0.029543273 0.71600002 4292070591
0.069755025 0.02954391 0.71600002 4292070591
0.071113028 0.029544557 0.71600002 4292070591
0.071256459 0.029050045 0.704 4292267969
0.072591774 0.0290507 0.704 4292071108
0.073612116 0.028927581 0.70099998 4292005059
0.074941829 0.028928259 0.70099998 4292136647
0.076271601 0.028928954 0.70099998 4292268489
0.07749071 0.028888389 0.69999999 4292268485
0.078818671 0.028889103 0.69999999 4292268485
0.079917707 0.028807294 0.69800001 4292268739
0.08124198 0.028808031 0.69800001 4292268739
0.082448013 0.028767511 0.69700003 4292268485
0.083650291 0.028726988 0.69599998 4292268485
0.084726758 0.028645208 0.69400001 4292333510
0.086043619 0.028645987 0.69400001 4292333510
0.087234676 0.0286055 0.69300002 4292268489
0.08854977 0.028606301 0.69300002 4292597198
0.089864902 0.02860711 0.69300002 4292531909
0.091180116 0.028607933 0.69300002 4292597702
0.092228398 0.028526194 0.69099998 4292531907
0.093404531 0.028485753 0.69 4292531907
0.094439663 0.028404033 0.68800002 4292466116
0.095745586 0.028404893 0.68800002 4292334531
0.097333677 0.028488336 0.69 4292465864
0.098643512 0.028489221 0.69 4292465864
0.10038796 0.028613985 0.69300002 4292334535
0.1017036 0.028614888 0.69300002 4292531657
0.10257331 0.028491925 0.69 4292465864
0.10358226 0.028410261 0.68800002 4292465864
0.10488854 0.028411189 0.68800002 4292531909
0.10604057 0.028370835 0.68699998 4292597702
0.10718884 0.028330484 0.68599999 4292399557
0.10817523 0.028248843 0.68400002 4292333508
0.10947417 0.02824981 0.68400002 4292333760
0.11077318 0.028250786 0.68400002 4292465603
0.11207224 0.028251771 0.68400002 4292333760
0.11337136 0.02825276 0.68400002 4292136638
0.11467055 0.028253764 0.68400002 4292136388
0.11580025 0.028213473 0.68300003 4292136388
0.11709766 0.028214492 0.68300003 4292333508
0.11908847 0.028380761 0.68699998 4292465351
0.12039359 0.028381804 0.68699998 4292465603
0.12152162 0.028341543 0.68599999 4292531396
0.12282494 0.028342601 0.68599999 4292334531
0.1243093 0.028384991 0.68699998 4292268737
0.12579751 0.028427389 0.68800002 4292465864
0.1271048 0.028428478 0.68800002 4292465864
0.1284122 0.028429579 0.68800002 4292269003
0.12971963 0.028430687 0.68800002 4292202953
0.13140802 0.028514452 0.69 4292334794
0.13271938 0.028515583 0.69 4292400587
0.13403079 0.028516714 0.69 4292465862
0.13494995 0.028435197 0.68800002 4292334533
0.13605964 0.02839501 0.68699998 4292268739
0.13736553 0.028396167 0.68699998 4292202946
0.13887335 0.028438667 0.68800002 4292202692
0.14018127 0.02843984 0.68800002 4292136899
0.14128357 0.028399676 0.68699998 4292136901
0.14258969 0.028400864 0.68699998 4292071108
0.14410535 0.0284434 0.68800002 4291939786
0.1454135 0.028444603 0.68800002 4291873993
0.14714821 0.0285285 0.69 4291874245
0.14846027 0.02852972 0.69 4291874245
0.14977239 0.02853095 0.69 4291808450
0.15108457 0.028532181 0.69 4291742656
0.15305941 0.028657481 0.69300002 4291742656
0.1543774 0.028658736 0.69300002 4291676863
0.1559201 0.028701346 0.69400001 4291939516
0.15769325 0.028785335 0.69599998 4292005565
0.15924561 0.028827973 0.69700003 4291939770
0.16057143 0.02882926 0.69700003 4291742391
0.16212957 0.028871913 0.69800001 4291610557
0.16345741 0.028873213 0.69800001 4291478715
0.16549353 0.028998623 0.70099998 4291347388
0.16730314 0.029082678 0.70300001 4291281594
0.16864063 0.029084006 0.70300001 4291347134
0.16997822 0.029085342 0.70300001 4291281340
0.1715595 0.029128058 0.704 4291216058
0.17289907 0.029129401 0.704 4291216058
0.17498115 0.029254889 0.70700002 4290953143
0.1770747 0.029380389 0.70999998 4290953143
0.17917968 0.02950591 0.713 4290887096
0.061952718 0.031070055 0.72000003 4291742391
0.063230105 0.031027485 0.71899998 4291742393
0.064593583 0.031028088 0.71899998 4291808186
0.065773651 0.030942393 0.71700001 4291808186
0.067133419 0.030943019 0.71700001 4291808186
0.068397716 0.030900504 0.71600002 4291939002
0.069755666 0.030901153 0.71600002 4292005052
0.07061708 0.030686025 0.71100003 4291939516
0.071965635 0.03068669 0.71100003 4292005565
0.073314257 0.030687375 0.71100003 4292005311
0.073927835 0.030385938 0.704 4292005311
0.075263239 0.030386634 0.704 4292070593
0.076272309 0.030257858 0.70099998 4292267715
0.077491432 0.030215418 0.69999999 4292136899
0.078819409 0.030216148 0.69999999 4292268485
0.079918444 0.030130558 0.69800001 4292269001
0.081242725 0.030131318 0.69800001 4292203207
0.082448766 0.030088911 0.69700003 4292268485
0.083771251 0.030089688 0.69700003 4292202692
0.084971689 0.030047303 0.69599998 4292137153
0.086044431 0.029961759 0.69400001 4292137153
0.087235473 0.029919391 0.69300002 4292267715
0.088550575 0.029920209 0.69300002 4292333508
0.089995414 0.029964214 0.69400001 4292268737
0.091312505 0.029965054 0.69400001 4292202944
0.092496201 0.029922731 0.69300002 4292136638
0.093405381 0.029794054 0.69 4292333760
0.094440527 0.029708564 0.68800002 4292333760
0.095746458 0.02970944 0.68800002 4292399553
0.097334549 0.029796693 0.69 4292268487
0.099073283 0.029927149 0.69300002 4292136901
0.10038886 0.029928062 0.69300002 4292267715
0.10141098 0.029842617 0.69099998 4292267715
0.10257423 0.029800365 0.69 4292333249
0.10388429 0.029801309 0.69 4292333249
0.10519441 0.029802263 0.69 4292267967
0.10619589 0.029716842 0.68800002 4292333760
0.10750232 0.029717814 0.68800002 4292267969
0.10880881 0.029718798 0.68800002 4292136640
0.10947514 0.029546997 0.68400002 4292136638
0.11077417 0.029547993 0.68400002 4292267967
0.11207324 0.029548997 0.68400002 4292136638
0.11337239 0.029550014 0.68400002 4292136638
0.11467157 0.029551033 0.68400002 4292136386
0.11580127 0.029508872 0.68300003 4292136386
0.11709868 0.029509911 0.68300003 4292136640
0.11908953 0.029683793 0.68699998 4292070591
0.12056991 0.02972807 0.68800002 4292070845
0.12187698 0.029729147 0.68800002 4292136638
0.12300509 0.029687025 0.68699998 4292268739
0.12431038 0.029688118 0.68699998 4292268739
0.1257986 0.029732438 0.68800002 4292268485
0.12710594 0.02973355 0.68800002 4292268485
0.12878661 0.029821111 0.69 4292202694
0.13009784 0.029822243 0.69 4292268487
0.13140914 0.029823387 0.69 4292268487
0.1327205 0.029824536 0.69 4292268487
0.13403194 0.029825699 0.69 4292268485
0.13534342 0.029826863 0.69 4292202692
0.13625886 0.029741585 0.68800002 4292071108
0.13756664 0.029742764 0.68800002 4292005059
0.13927822 0.02983042 0.69 4291939266
0.14058997 0.029831618 0.69 4292005059
0.14149043 0.029746355 0.68800002 4291939266
0.14279848 0.029747568 0.68800002 4291939266
0.14410657 0.029748784 0.68800002 4291873991
0.14541471 0.029750012 0.68800002 4291808198
0.14714944 0.029837739 0.69 4291808450
0.14846152 0.029838979 0.69 4291808450
0.14977364 0.029840231 0.69 4291742656
0.15108582 0.029841488 0.69 4291676863
0.15306066 0.029972509 0.69300002 4291676609
0.15437867 0.029973786 0.69300002 4291545280
0.15592138 0.030018324 0.69400001 4291676348
0.15769456 0.030106131 0.69599998 4291544762
0.15924689 0.030150693 0.69700003 4291478967
0.16057272 0.030152004 0.69700003 4291544760
0.16213088 0.030196581 0.69800001 4291478715
0.16392708 0.030284433 0.69999999 4291478715
0.16549484 0.030329034 0.70099998 4291478717
0.16730449 0.030416911 0.70300001 4291347388
0.168642 0.030418266 0.70300001 4291347388
0.17022131 0.030462893 0.704 4291281594
0.17204823 0.030550806 0.70599997 4291215799
0.1736372 0.030595461 0.70700002 4291150006
0.17523001 0.030640118 0.708 4290887348
0.1773255 0.030771343 0.71100003 4290887348
0.17918111 0.030859305 0.713 4290887350
0.061953306 0.032434832 0.72000003 4291677113
0.063230708 0.032390386 0.71899998 4291742391
0.064594202 0.032391001 0.71899998 4291742391
0.065774269 0.032301527 0.71700001 4291742391
0.06713406 0.032302167 0.71700001 4291742391
0.068493888 0.032302819 0.71700001 4291742393
0.06985376 0.03230349 0.71700001 4291742393
0.07061775 0.032033838 0.71100003 4291807416
0.071966328 0.032034528 0.71100003 4291873209
0.073521182 0.032125339 0.713 4291939002
0.074873641 0.03212605 0.713 4292005052
0.07526397 0.031721245 0.704 4292070845
0.076490641 0.031676918 0.70300001 4292136638
0.077602871 0.031587537 0.70099998 4292004800
0.078932762 0.03158829 0.70099998 4292004800
0.08014819 0.031543989 0.69999999 4292005059
0.081476279 0.03154476 0.69999999 4291939266
0.082567848 0.031455416 0.69800001 4292005313
0.083892241 0.031456213 0.69800001 4292005313
0.085094593 0.031411953 0.69700003 4292267965
0.086293191 0.031367697 0.69599998 4292334014
0.08736217 0.031278387 0.69400001 4292267965
0.088679202 0.031279225 0.69400001 4292334014
0.089996241 0.031280071 0.69400001 4292333760
0.091313377 0.031280939 0.69400001 4292333760
0.092497058 0.031236731 0.69300002 4292267967
0.093812384 0.031237613 0.69300002 4292267967
0.094441406 0.031013124 0.68800002 4292267967
0.095747337 0.031014012 0.68800002 4292333760
0.097476535 0.031150166 0.69099998 4292137153
0.0990742 0.031241247 0.69300002 4291939518
0.1003898 0.031242184 0.69300002 4292070595
0.10141193 0.031152966 0.69099998 4292070595
0.10257518 0.031108834 0.69 4292070845
0.10388526 0.031109801 0.69 4292267967
0.10534784 0.031155868 0.69099998 4292267967
0.10650557 0.031111764 0.69 4292333760
0.10750329 0.031022575 0.68800002 4292267967
0.10880981 0.031023582 0.68800002 4292070845
0.11011636 0.031024592 0.68800002 4292136640
0.111423 0.03102562 0.68800002 4292267969
0.11272967 0.031026654 0.68800002 4292136636
0.11387065 0.030982591 0.68699998 4292070843
0.11517555 0.030983642 0.68699998 4292070845
0.11648053 0.030984709 0.68699998 4292136638
0.117957 0.031030884 0.68800002 4292070591
0.11926395 0.031031966 0.68800002 4292004798
0.12057099 0.031033056 0.68800002 4291939520
0.12187809 0.03103416 0.68800002 4291939520
0.12318523 0.031035267 0.68800002 4292005061
0.12449244 0.031036388 0.68800002 4292136647
0.12579972 0.031037515 0.68800002 4292268739
0.12710704 0.031038651 0.68800002 4292268739
0.12878774 0.031130033 0.69 4292202692
0.130099 0.031131189 0.69 4292268485
0.13141032 0.031132355 0.69 4292202946
0.13272168 0.031133531 0.69 4292137153
0.13422737 0.031179838 0.69099998 4292071108
0.13534461 0.031135907 0.69 4291939266
0.13665615 0.031137105 0.69 4291939268
0.13796777 0.031138316 0.69 4292005061
0.13948129 0.031184662 0.69099998 4291939268
0.14059117 0.031140761 0.69 4291939268
0.14190297 0.031141993 0.69 4291939520
0.14321479 0.031143229 0.69 4291939520
0.14452672 0.031144477 0.69 4291807938
0.14583868 0.031145735 0.69 4291807938
0.14715068 0.031146994 0.69 4291676863
0.14846276 0.031148264 0.69 4291676863
0.14977491 0.031149544 0.69 4291676861
0.15130605 0.031195972 0.69099998 4291479739
0.15328282 0.031332716 0.69400001 4291479487
0.15504825 0.031424314 0.69599998 4291479487
0.15637203 0.031425633 0.69599998 4291413694
0.15792245 0.031472113 0.69700003 4291347901
0.15924823 0.031473443 0.69700003 4291478969
0.16080442 0.031519931 0.69800001 4291544762
0.16259678 0.031611595 0.69999999 4291478969
0.16392843 0.031612955 0.69999999 4291544762
0.16596839 0.031749807 0.70300001 4291347637
0.16754381 0.031796344 0.704 4291150002
0.16888323 0.031797722 0.704 4291150006
0.1707063 0.031889446 0.70599997 4291150006
0.17253703 0.031981189 0.708 4291084211
0.17437539 0.032072939 0.70999998 4291018418
0.17572641 0.032074355 0.70999998 4290821552
0.1778257 0.032211304 0.713 4290887346
0.17943384 0.032257915 0.71399999 4290821557
0.062126003 0.033893548 0.722 4291479219
0.063319273 0.033800274 0.72000003 4291544501
0.064684682 0.0338009 0.72000003 4291610294
0.065958381 0.033754598 0.71899998 4291807414
0.067321986 0.033755254 0.71899998 4291676085
0.068494558 0.033662029 0.71700001 4291610807
0.069854438 0.033662707 0.71700001 4291610807
0.071115054 0.033616453 0.71600002 4291676600
0.072169468 0.033476304 0.713 4291676600
0.07352189 0.03347702 0.713 4291807416
0.074874371 0.033477746 0.713 4291807416
0.0752647 0.033055898 0.704 4291873211
0.076491386 0.033009689 0.70300001 4291873211
0.077603616 0.032916531 0.70099998 4291676089
0.078933507 0.032917298 0.70099998 4291807418
0.080263473 0.032918081 0.70099998 4291939004
0.081477068 0.032871909 0.69999999 4292004798
0.082805231 0.032872718 0.69999999 4291939516
0.084133424 0.03287353 0.69999999 4291742393
0.085217491 0.032780427 0.69800001 4291873209
0.08641801 0.032734301 0.69700003 4291873209
0.087614782 0.032688186 0.69599998 4292005050
0.088935606 0.032689042 0.69599998 4292070843
0.08999712 0.032595977 0.69400001 4292135866
0.091314234 0.032596853 0.69400001 4292135866
0.092497945 0.032550775 0.69300002 4292135866
0.093813285 0.032551676 0.69300002 4292135866
0.094716847 0.032411665 0.69 4291939002
0.096026592 0.032412585 0.69 4291939002
0.097477458 0.032460488 0.69099998 4292004798
0.099075153 0.03255539 0.69300002 4291939004
0.10039077 0.032556348 0.69300002 4292004798
0.1014129 0.032463357 0.69099998 4292004798
0.10272481 0.032464329 0.69099998 4292005052
0.10433791 0.032559283 0.69300002 4291939002
0.10565375 0.032560281 0.69300002 4292005052
0.10650658 0.032420337 0.69 4292005052
0.10750431 0.032327376 0.68800002 4291939002
0.10881083 0.032328404 0.68800002 4291939002
0.1101174 0.03232944 0.68800002 4292004800
0.11142404 0.032330483 0.68800002 4292004800
0.11273072 0.032331541 0.68800002 4291939004
0.11403747 0.032332603 0.68800002 4291873211
0.11517662 0.032286681 0.68699998 4291807418
0.11648159 0.032287765 0.68699998 4291873211
0.11795809 0.032335863 0.68800002 4291742395
0.11961176 0.032430969 0.69 4291939518
0.12057211 0.032338083 0.68800002 4292005313
0.12187919 0.0323392 0.68800002 4292005313
0.12318637 0.032340337 0.68800002 4291939520
0.12449359 0.032341484 0.68800002 4292136899
0.12580086 0.032342631 0.68800002 4292136899
0.1271082 0.03234379 0.68800002 4292071106
0.12878889 0.032438986 0.69 4292070593
0.13010016 0.032440171 0.69 4292070593
0.13160194 0.032488376 0.69099998 4292004798
0.13291524 0.032489579 0.69099998 4292070591
0.13422857 0.03249079 0.69099998 4292005059
0.13554196 0.032492004 0.69099998 4291939266
0.13665736 0.032446209 0.69 4291939266
0.13796899 0.032447446 0.69 4291939266
0.13948254 0.032495711 0.69099998 4291807936
0.14079617 0.032496963 0.69099998 4291939266
0.14190422 0.03245119 0.69 4291874245
0.14321607 0.032452453 0.69 4291742402
0.14452799 0.032453727 0.69 4291676863
0.14583994 0.032455008 0.69 4291676863
0.14779177 0.032597411 0.69300002 4291676350
0.14910957 0.032598708 0.69300002 4291676350
0.15042742 0.032600019 0.69300002 4291545534
0.1517453 0.03260133 0.69300002 4291413692
0.15372588 0.032743789 0.69599998 4291347901
0.15504958 0.032745123 0.69599998 4291347901
0.15637335 0.032746464 0.69599998 4291478717
0.15792377 0.032794867 0.69700003 4291478717
0.15924957 0.032796226 0.69700003 4291347385
0.16080578 0.03284464 0.69800001 4291347385
0.16259815 0.032940127 0.69999999 4291281590
0.16416398 0.032988567 0.70099998 4291150004
0.16596977 0.03308408 0.70300001 4291084211
0.16754523 0.033132542 0.704 4291084211
0.16888465 0.033133946 0.704 4291084211
0.17119129 0.033323627 0.708 4291018418
0.17302585 0.033419196 0.70999998 4290821552
0.17437682 0.03342063 0.70999998 4290821552
0.17597535 0.033469141 0.71100003 4290821555
0.17782715 0.033564739 0.713 4290755761
0.17943527 0.033613276 0.71399999 4290624439
0.18079408 0.033614736 0.71399999 4290756282
0.063495792 0.035262834 0.722 4291478967
0.064685322 0.035165802 0.72000003 4291478967
0.066050783 0.03516645 0.72000003 4291676339
0.067322649 0.035118278 0.71899998 4291676339
0.068495244 0.035021279 0.71700001 4291676085
0.069855139 0.035021972 0.71700001 4291610292
0.071215078 0.03502268 0.71700001 4291610294
0.07257507 0.035023406 0.71700001 4291676087
0.073935091 0.035024133 0.71700001 4291676598
0.073929988 0.03438985 0.704 4291676598
0.075265452 0.034390595 0.704 4291807416
0.076492146 0.034342501 0.70300001 4291807416
0.077604391 0.034245573 0.70099998 4291807418
0.078934297 0.034246348 0.70099998 4291676089
0.080264263 0.034247149 0.70099998 4291939256
0.08147788 0.0341991 0.69999999 4292005050
0.082806036 0.034199923 0.69999999 4291939254
0.084134258 0.034200758 0.69999999 4291610546
0.08521834 0.034103885 0.69800001 4291675835
0.08641886 0.034055874 0.69700003 4291610042
0.087615646 0.034007877 0.69599998 4291873463
0.088936478 0.034008753 0.69599998 4292070843
0.090257354 0.034009639 0.69599998 4292070072
0.091315135 0.033912811 0.69400001 4291938743
0.092632309 0.03391372 0.69400001 4291939256
0.093814194 0.033865772 0.69300002 4291939256
0.095129579 0.033866704 0.69300002 4291939002
0.096445031 0.033867646 0.69300002 4291873209
0.097760551 0.0338686 0.69300002 4291873211
0.099076115 0.033869572 0.69300002 4291807418
0.10039173 0.033870541 0.69300002 4291873209
0.10141388 0.03377378 0.69099998 4291939002
0.1027258 0.033774775 0.69099998 4291939002
0.10403778 0.033775777 0.69099998 4291873209
0.10534983 0.033776801 0.69099998 4291873211
0.10650758 0.033728946 0.69 4291873211
0.10750534 0.033632215 0.68800002 4291939006
0.10881186 0.033633266 0.68800002 4291939006
0.11011846 0.03363432 0.68800002 4291872957
0.11174899 0.033733163 0.69 4291872957
0.11273178 0.033636462 0.68800002 4291873211
0.11403856 0.03363755 0.68800002 4291873211
0.11534537 0.033638649 0.68800002 4291807164
0.11665225 0.033639759 0.68800002 4291807164
0.11830208 0.033738665 0.69 4291742141
0.11961288 0.033739801 0.69 4291807934
0.12057323 0.033643141 0.68800002 4292070845
0.12188034 0.033644285 0.68800002 4292070845
0.12318752 0.033645444 0.68800002 4292004800
0.12449475 0.03364661 0.68800002 4292136386
0.12580204 0.033647783 0.68800002 4292136638
0.12710938 0.033648964 0.68800002 4292136638
0.1287901 0.033747979 0.69 4292004546
0.13010137 0.033749186 0.69 4291872959
0.13160315 0.033799309 0.69099998 4291807936
0.13291645 0.033800542 0.69099998 4292005059
0.13422979 0.033801775 0.69099998 4291939520
0.13534704 0.033754095 0.69 4291742141
0.13665861 0.033755343 0.69 4291807936
0.13817018 0.033805527 0.69099998 4291742143
0.13948379 0.033806793 0.69099998 4291742141
0.14079744 0.033808067 0.69099998 4291676348
0.14211114 0.033809349 0.69099998 4291676350
0.1434249 0.033810642 0.69099998 4291610557
0.14473873 0.033811938 0.69099998 4291807418
0.14605258 0.033813246 0.69099998 4291873211
0.14779307 0.033912435 0.69300002 4291544508
0.14911087 0.033913761 0.69300002 4291478715
0.15042874 0.033915095 0.69300002 4291478715
0.15174663 0.033916432 0.69300002 4291281592
0.15372722 0.03406461 0.69599998 4291216058
0.15505093 0.034065969 0.69599998 4291216058
0.1565994 0.034116283 0.69700003 4291216058
0.1581517 0.034166604 0.69800001 4291216058
0.15993637 0.034265894 0.69999999 4291215799
0.16126792 0.034267284 0.69999999 4291215799
0.16283183 0.034317646 0.70099998 4291083959
0.16463377 0.03441697 0.70300001 4290886837
0.16620727 0.034467343 0.704 4291018164
0.16802262 0.034566693 0.70599997 4291083957
0.16936584 0.034568127 0.70599997 4291018418
0.17167634 0.034765434 0.70999998 4290821039
0.17327099 0.034815859 0.71100003 4290755761
0.17462388 0.034817319 0.71100003 4290755761
0.17647183 0.034916732 0.713 4290558896
0.17782862 0.034918208 0.713 4290493103
0.17943673 0.034968659 0.71399999 4290558394
0.18079554 0.034970153 0.71399999 4291084994
0.063584387 0.036682282 0.72299999 4291282103
0.064865664 0.036632203 0.722 4291282103
0.066051468 0.036531411 0.72000003 4291412658
0.067416973 0.036532089 0.72000003 4291478451
0.068686992 0.036482044 0.71899998 4291478453
0.070050687 0.036482755 0.71899998 4291478453
0.071215801 0.036381997 0.71700001 4291544760
0.0725758 0.036382735 0.71700001 4291478967
0.073935844 0.036383487 0.71700001 4291478967
0.075159296 0.035674583 0.70300001 4291347635
0.076492921 0.035675358 0.70300001 4291478965
0.077605173 0.035574649 0.70099998 4291610294
0.078935102 0.035575449 0.70099998 4291544501
0.080265068 0.035576258 0.70099998 4291544501
0.0814787 0.035526335 0.69999999 4291676087
0.08280687 0.035527173 0.69999999 4291807416
0.0841351 0.035528019 0.69999999 4291676087
0.08521919 0.035427373 0.69800001 4291610040
0.086419739 0.035377491 0.69700003 4291610040
0.087742418 0.035378374 0.69700003 4291610294
0.089065157 0.035379272 0.69700003 4291610294
0.090387955 0.035380177 0.69700003 4291675317
0.091579199 0.035330333 0.69599998 4291741110
0.092900187 0.03533126 0.69599998 4291807414
0.094221242 0.035332203 0.69599998 4291807414
0.095267802 0.035231631 0.69400001 4291544501
0.096445993 0.035181828 0.69300002 4291610294
0.097761504 0.0351828 0.69300002 4291610294
0.099220052 0.035234556 0.69400001 4291544501
0.10039272 0.035184782 0.69300002 4291478453
0.10141489 0.035084248 0.69099998 4291478453
0.10272682 0.035085257 0.69099998 4291807418
0.10403883 0.035086289 0.69099998 4291676089
0.10535088 0.035087332 0.69099998 4291676602
0.10650863 0.035037596 0.69 4291676602
0.10750639 0.034937095 0.68800002 4291807418
0.10881293 0.034938164 0.68800002 4291807418
0.11043964 0.035040811 0.69 4291807418
0.11175008 0.035041902 0.69 4291807418
0.11306058 0.035043001 0.69 4291807418
0.11437117 0.035044115 0.69 4291807418
0.11568179 0.03504524 0.69 4291676348
0.11699247 0.035046373 0.69 4291676348
0.11830322 0.035047513 0.69 4291742141
0.11961403 0.035048667 0.69 4291807934
0.12057438 0.034948237 0.68800002 4291807164
0.12188151 0.034949411 0.68800002 4291807164
0.12318868 0.034950584 0.68800002 4291807164
0.12449592 0.034951773 0.68800002 4291872957
0.12580323 0.034952972 0.68800002 4291873209
0.12711059 0.034954179 0.68800002 4292005052
0.12879132 0.035057008 0.69 4291742141
0.13010257 0.035058238 0.69 4291742141
0.13160437 0.035110287 0.69099998 4291807934
0.13291767 0.035111535 0.69099998 4291742141
0.13423103 0.035112794 0.69099998 4291676350
0.13534829 0.035063244 0.69 4291676350
0.13665989 0.035064522 0.69 4291742143
0.13817146 0.03511662 0.69099998 4291742143
0.13948508 0.035117909 0.69099998 4291742143
0.14079875 0.035119213 0.69099998 4291610557
0.14252377 0.035222173 0.69300002 4291610044
0.14342621 0.035121836 0.69099998 4291610044
0.14474003 0.035123155 0.69099998 4291544249
0.14647666 0.035226155 0.69300002 4291544249
0.14800768 0.035278335 0.69400001 4291478201
0.14911221 0.035228848 0.69300002 4291478201
0.15043007 0.035230204 0.69300002 4291347385
0.15196696 0.035282407 0.69400001 4291281592
0.15372859 0.035385463 0.69599998 4291084983
0.15527511 0.035437696 0.69700003 4291216312
0.15727483 0.035591621 0.69999999 4291084983
0.15883285 0.035643876 0.70099998 4291018934
0.16016625 0.035645287 0.70099998 4291083957
0.16149969 0.035646707 0.70099998 4291083957
0.1632978 0.035749841 0.70300001 4291018164
0.16486937 0.035802137 0.704 4291018164
0.16668087 0.035905294 0.70599997 4290821555
0.16802406 0.035906754 0.70599997 4290755761
0.16960721 0.03595908 0.70700002 4290624432
0.17191958 0.036164001 0.71100003 4290624432
0.17327245 0.036165487 0.71100003 4290558383
0.17511655 0.036268711 0.713 4290492590
0.1764733 0.036270205 0.713 4290492338
0.17783011 0.03627171 0.713 4290558387
0.064866342 0.038000982 0.722 4290888885
0.066235617 0.038001668 0.722 4291346865
0.067417681 0.037897103 0.72000003 4291346865
0.0686877 0.037845176 0.71899998 4291346867
0.070051417 0.037845898 0.71899998 4291346867
0.071216539 0.037741363 0.71700001 4291346867
0.072576553 0.037742119 0.71700001 4291478453
0.073936604 0.037742883 0.71700001 4291347637
0.075160071 0.037007466 0.70300001 4291281842
0.07649371 0.037008259 0.70300001 4291347635
0.077827387 0.037009064 0.70300001 4291478965
0.078935921 0.036904588 0.70099998 4291478965
0.080265909 0.036905423 0.70099998 4291478451
0.081595927 0.036906257 0.70099998 4291412658
0.08292602 0.036907114 0.70099998 4291478453
0.084256157 0.036907982 0.70099998 4291544247
0.085464261 0.036856215 0.69999999 4291544501
0.086792588 0.03685711 0.69999999 4291544501
0.088120967 0.036858011 0.69999999 4291544501
0.089193843 0.036753617 0.69800001 4291544501
0.090518542 0.036754545 0.69800001 4291478453
0.091843285 0.03675548 0.69800001 4291478453
0.093034625 0.03670378 0.69700003 4291544501
0.094222195 0.036652077 0.69599998 4291676087
0.09554331 0.036653053 0.69599998 4291544501
0.096864499 0.03665404 0.69599998 4291544501
0.097903572 0.036549706 0.69400001 4291544247
0.099221051 0.036550712 0.69400001 4291544247
0.10039374 0.036499064 0.69300002 4291478453
0.10170943 0.036500089 0.69300002 4291478453
0.10302518 0.036501136 0.69300002 4291544760
0.104341 0.036502182 0.69300002 4291544760
0.10535193 0.036397897 0.69099998 4291545014
0.10650969 0.03634629 0.69 4291545014
0.10750747 0.036242019 0.68800002 4291676087
0.10881402 0.036243107 0.68800002 4291676087
0.11044073 0.036349565 0.69 4291610040
0.11175118 0.036350679 0.69 4291676089
0.11306171 0.036351804 0.69 4291807416
0.1143723 0.03635294 0.69 4291873209
0.11568293 0.036354084 0.69 4291807416
0.11699362 0.036355235 0.69 4291676087
0.11847583 0.036409091 0.69099998 4291873209
0.11961518 0.036357574 0.69 4291939002
0.12057557 0.036253378 0.68800002 4291807166
0.12188268 0.03625457 0.68800002 4291675837
0.12318989 0.036255773 0.68800002 4291675837
0.12449715 0.036256984 0.68800002 4291807166
0.12580444 0.036258202 0.68800002 4291807164
0.12711182 0.036259435 0.68800002 4291939006
0.12879254 0.036366083 0.69 4291939002
0.13010383 0.036367334 0.69 4291939002
0.13160564 0.036421303 0.69099998 4291742395
0.13291894 0.036422569 0.69099998 4291676602
0.13423231 0.036423855 0.69099998 4291676348
0.13554575 0.036425151 0.69099998 4291676348
0.13685922 0.036426444 0.69099998 4291676348
0.13817278 0.036427759 0.69099998 4291610555
0.1398901 0.036534511 0.69300002 4291544508
0.14120756 0.036535837 0.69300002 4291478715
0.14252511 0.036537174 0.69300002 4291478715
0.1438427 0.036538519 0.69300002 4291478715
0.14516032 0.036539868 0.69300002 4291412408
0.14647801 0.036541235 0.69300002 4291412408
0.14800905 0.03659533 0.69400001 4291478201
0.14975908 0.036702171 0.69599998 4291543995
0.15108266 0.036703561 0.69599998 4291281590
0.15240629 0.036704954 0.69599998 4291150004
0.15372998 0.036706354 0.69599998 4291281844
0.15549929 0.036813252 0.69800001 4291281844
0.15727623 0.036920153 0.69999999 4291085233
0.15883426 0.03697433 0.70099998 4290821804
0.16016768 0.036975767 0.70099998 4291018164
0.16150115 0.03697722 0.70099998 4291018164
0.16353156 0.037136924 0.704 4291018418
0.1653392 0.037243895 0.70599997 4291018418
0.16691846 0.037298128 0.70700002 4290821291
0.16850154 0.037352376 0.708 4290557863
0.17032838 0.037459385 0.70999998 4290492590
0.17192112 0.037513647 0.71100003 4290492590
0.17376135 0.037620682 0.713 4290557613
0.17511804 0.037622198 0.713 4290426284
0.17647482 0.037623718 0.713 4290427060
0.064956874 0.039424326 0.72299999 4290626490
0.066236325 0.039370503 0.722 4291346613
0.067418374 0.039262146 0.72000003 4291346613
0.068688437 0.039208349 0.71899998 4291346613
0.070052169 0.03920909 0.71899998 4291215284
0.071217291 0.039100774 0.71700001 4291149741
0.072577313 0.039101541 0.71700001 4291347119
0.076929763 0.038559359 0.70700002 4291347635
0.079161957 0.038342856 0.70300001 4291478965
0.080495752 0.038343702 0.70300001 4291347635
0.081829593 0.038344566 0.70300001 4291281842
0.082926899 0.038236354 0.70099998 4291346867
0.084257036 0.038237233 0.70099998 4291215538
0.085587226 0.038238127 0.70099998 4291215538
0.086917482 0.038239043 0.70099998 4291412660
0.088121884 0.038185414 0.69999999 4291478453
0.089194782 0.03807725 0.69800001 4291478453
0.090519495 0.038078196 0.69800001 4291216051
0.091844253 0.038079154 0.69800001 4291347637
0.093169063 0.038080122 0.69800001 4291347887
0.094358578 0.038026549 0.69700003 4291479217
0.0956816 0.038027547 0.69700003 4291479217
0.096865483 0.037973981 0.69599998 4291347887
0.098186731 0.037975006 0.69599998 4291347637
0.099222086 0.037866913 0.69400001 4291347637
0.10053962 0.037867945 0.69400001 4291347635
0.10171047 0.037814431 0.69300002 4291347635
0.10302624 0.037815493 0.69300002 4291216049
0.10434205 0.037816565 0.69300002 4291281842
0.10535301 0.037708506 0.69099998 4291544501
0.10666514 0.037709597 0.69099998 4291544501
0.10782108 0.037656121 0.69 4291544501
0.10913144 0.037657239 0.69 4291478451
0.11044184 0.03765836 0.69 4291477938
0.11175232 0.037659496 0.69 4291675317
0.11306285 0.03766064 0.69 4291544247
0.11437346 0.037661802 0.69 4291610040
0.11568409 0.037662964 0.69 4291610040
0.11699481 0.037664142 0.69 4291610040
0.11847702 0.03771992 0.69099998 4291610042
0.11961637 0.037666522 0.69 4291675835
0.12057675 0.037558552 0.68800002 4291676089
0.1218839 0.03755977 0.68800002 4291676089
0.12319109 0.037560992 0.68800002 4291676089
0.12449835 0.037562225 0.68800002 4291676089
0.12580566 0.037563469 0.68800002 4291676089
0.12711304 0.037564721 0.68800002 4291873211
0.12879381 0.037675191 0.69 4291676859
0.13029365 0.037731063 0.69099998 4291545530
0.13160691 0.037732352 0.69099998 4291413946
0.13292024 0.037733652 0.69099998 4291413946
0.13423362 0.037734959 0.69099998 4291413692
0.13593937 0.037845496 0.69300002 4291347899
0.13725668 0.037846822 0.69300002 4291478969
0.13857402 0.037848156 0.69300002 4291347383
0.13989145 0.037849501 0.69300002 4291281590
0.14120893 0.037850853 0.69300002 4291281590
0.14252645 0.037852213 0.69300002 4291347383
0.14384404 0.03785358 0.69300002 4291281590
0.14516169 0.037854955 0.69300002 4291215284
0.14669077 0.037910976 0.69400001 4291215284
0.14843695 0.038021613 0.69599998 4291412406
0.14976048 0.038023025 0.69599998 4291215284
0.15130115 0.038079072 0.69700003 4291149491
0.15262668 0.038080495 0.69700003 4291083698
0.15395227 0.038081925 0.69700003 4291018418
0.15550072 0.038138002 0.69800001 4291150004
0.15750234 0.038303364 0.70099998 4291019188
0.15883572 0.038304824 0.70099998 4290821552
0.16062611 0.038415581 0.70300001 4290821555
0.1619634 0.038417056 0.70300001 4290624432
0.16399759 0.038582485 0.70599997 4290623406
0.16557488 0.038638633 0.70700002 4290689455
0.16715603 0.038694788 0.708 4290623408
0.16897902 0.038805608 0.70999998 4290557615
0.17056981 0.038861793 0.71100003 4290360488
0.17240621 0.038972639 0.713 4290426538
0.17400658 0.039028838 0.71399999 4290426286
0.17536521 0.039030384 0.71399999 4290426286
0.17672388 0.039031938 0.71399999 4290163892
0.078271888 0.039900772 0.70700002 4291347117
0.079275407 0.039732311 0.704 4291544497
0.080611125 0.039733179 0.704 4291412910
0.081946872 0.039734058 0.704 4291149995
0.083519273 0.039847828 0.70599997 4291149491
0.084618531 0.039735857 0.704 4291149491
0.085954435 0.039736774 0.704 4291084209
0.087538362 0.039850593 0.70599997 4291150002
0.088626385 0.039738651 0.704 4291215538
0.08945132 0.039513819 0.69999999 4291215538
0.090779833 0.039514784 0.69999999 4291412912
0.092108384 0.039515764 0.69999999 4291478705
0.093170062 0.039403856 0.69800001 4291478957
0.094494939 0.039404854 0.69800001 4291478957
0.095682599 0.039349414 0.69700003 4291478957
0.09700568 0.039350443 0.69700003 4291412908
0.09818776 0.039295018 0.69599998 4291412908
0.099223129 0.039183151 0.69400001 4291215786
0.10054069 0.039184205 0.69400001 4291413162
0.10171154 0.039128818 0.69300002 4291478955
0.1030273 0.039129894 0.69300002 4291282094
0.10434315 0.039130986 0.69300002 4291216301
0.10535409 0.039019153 0.69099998 4291216051
0.10666624 0.039020263 0.69099998 4291281844
0.10782219 0.038964916 0.69 4291346865
0.10913257 0.038966056 0.69 4291412658
0.11060306 0.039023675 0.69099998 4291412910
0.11191543 0.03902483 0.69099998 4291478703
0.11322786 0.039026 0.69099998 4291478453
0.11454037 0.039027173 0.69099998 4291478453
0.11585294 0.039028369 0.69099998 4291478455
0.11716556 0.039029572 0.69099998 4291478455
0.11847821 0.039030779 0.69099998 4291544249
0.1196176 0.038975518 0.69 4291610042
0.12092849 0.038976744 0.69 4291610040
0.12223944 0.038977984 0.69 4291610040
0.12319234 0.038866255 0.68800002 4291610294
0.1244996 0.038867511 0.68800002 4291676087
0.12580693 0.038868777 0.68800002 4291676087
0.12711433 0.038870052 0.68800002 4291676087
0.12879507 0.038984336 0.69 4291610040
0.13029495 0.039042138 0.69099998 4291478453
0.13160823 0.039043449 0.69099998 4291347388
0.13292156 0.039044771 0.69099998 4291347388
0.13462347 0.039159115 0.69300002 4291281592
0.13594072 0.039160453 0.69300002 4291347385
0.13745606 0.039218314 0.69400001 4291281844
0.13877535 0.039219677 0.69400001 4291281844
0.14009467 0.039221045 0.69400001 4291084981
0.14141405 0.039222423 0.69400001 4291084981
0.1427335 0.039223809 0.69400001 4291216051
0.14405298 0.039225198 0.69400001 4291150002
0.14537255 0.039226606 0.69400001 4291150004
0.14669216 0.039228015 0.69400001 4291150004
0.14843836 0.039342485 0.69599998 4291150004
0.14997709 0.039400447 0.69700003 4291084211
0.15130258 0.039401885 0.69700003 4291084211
0.15262812 0.039403338 0.69700003 4290821039
0.15395372 0.039404787 0.69700003 4290755248
0.15550216 0.039462782 0.69800001 4290755248
0.15750381 0.03963387 0.70099998 4290624430
0.15883717 0.039635353 0.70099998 4290624430
0.1606276 0.039749935 0.70300001 4290623408
0.16219527 0.039807975 0.704 4290557615
0.1644637 0.040035676 0.708 4290426032
0.1658106 0.0400372 0.708 4290294445
0.16762973 0.040151831 0.70999998 4290360240
0.16921858 0.04020993 0.71100003 4290294447
0.17057133 0.040211476 0.71100003 4290228902
0.17240776 0.040326148 0.713 4290228902
0.17400815 0.04038427 0.71399999 4290097836
0.17672543 0.040387414 0.71399999 4290032822
0.078272752 0.041241404 0.70700002 4291083948
0.079501495 0.041183937 0.70599997 4291083948
0.080840997 0.04118482 0.70599997 4291214764
0.082180575 0.041185718 0.70599997 4291214764
0.083520181 0.041186631 0.70599997 4291083696
0.084859833 0.041187555 0.70599997 4291083696
0.086199552 0.041188493 0.70599997 4291018416
0.087539315 0.041189451 0.70599997 4291084209
0.088627346 0.041073736 0.704 4291084461
0.089580067 0.040899675 0.70099998 4291018668
0.090910487 0.040900663 0.70099998 4291083948
0.092240967 0.040901661 0.70099998 4291018154
0.093438022 0.040844321 0.69999999 4291017639
0.094495967 0.040728651 0.69800001 4291148968
0.095820889 0.040729675 0.69800001 4291148968
0.097006731 0.040672373 0.69700003 4291215018
0.09818881 0.040615074 0.69599998 4291280557
0.099510111 0.04061614 0.69599998 4291148970
0.10054176 0.04050051 0.69400001 4291017639
0.10171261 0.040443238 0.69300002 4291280811
0.10302841 0.040444341 0.69300002 4291216049
0.10434426 0.040445451 0.69300002 4291150256
0.10566017 0.040446579 0.69300002 4291084463
0.10697613 0.040447716 0.69300002 4291018414
0.1079796 0.040332124 0.69099998 4291018152
0.10929188 0.040333286 0.69099998 4291215788
0.11092433 0.040451188 0.69300002 4291478705
0.11191661 0.040335625 0.69099998 4291347119
0.11322905 0.040336818 0.69099998 4291083948
0.11454157 0.040338017 0.69099998 4291149741
0.11618948 0.04045599 0.69300002 4291346867
0.1175059 0.040457215 0.69300002 4291346867
0.11882237 0.040458448 0.69300002 4291346867
0.1197922 0.040342931 0.69099998 4291478453
0.12110499 0.040344186 0.69099998 4291544247
0.12241785 0.040345445 0.69099998 4291544247
0.12355172 0.040288333 0.69 4291412912
0.1248628 0.040289614 0.69 4291412912
0.12617393 0.040290907 0.69 4291412912
0.12748514 0.040292215 0.69 4291412912
0.1287964 0.040293522 0.69 4291412660
0.13067341 0.040470045 0.69300002 4291412660
0.13199048 0.040471382 0.69300002 4291412406
0.13330761 0.040472724 0.69300002 4291412406
0.13462482 0.040474087 0.69300002 4291215797
0.13613823 0.040533856 0.69400001 4291281590
0.13745745 0.040535226 0.69400001 4291282357
0.13877672 0.04053662 0.69400001 4291216564
0.14009605 0.040538009 0.69400001 4290953904
0.14182299 0.040656239 0.69599998 4290953904
0.14314623 0.040657654 0.69599998 4291019188
0.14446953 0.040659074 0.69599998 4291019188
0.14579292 0.040660508 0.69599998 4290887600
0.14711633 0.040661946 0.69599998 4290953393
0.14865309 0.040721819 0.69700003 4291084211
0.14997853 0.040723275 0.69700003 4291084211
0.15152112 0.040783167 0.69800001 4290887346
0.15284857 0.040784642 0.69800001 4290755759
0.15417606 0.040786117 0.69800001 4290623658
0.15594919 0.040904477 0.69999999 4290689451
0.1575053 0.040964413 0.70099998 4290558635
0.15883869 0.040965918 0.70099998 4290492842
0.16085762 0.041142765 0.704 4290360742
0.16219679 0.041144289 0.704 4290360742
0.16492982 0.041496497 0.70999998 4290294956
0.16628054 0.041498054 0.70999998 4290294956
0.16786741 0.041558065 0.71100003 4290163627
0.16922013 0.041559629 0.71100003 4290097834
0.17105269 0.041678112 0.713 4290098086
0.17265114 0.041738153 0.71399999 4290361002
0.17400971 0.041739736 0.71399999 4290294979
0.077367552 0.042822119 0.71100003 4291150254
0.078605749 0.042762768 0.70999998 4291017904
0.079614989 0.04258297 0.70700002 4290952111
0.080956422 0.042583872 0.70700002 4291148970
0.082297891 0.042584784 0.70700002 4291280557
0.083639421 0.042585723 0.70700002 4291018154
0.084860787 0.042526428 0.70599997 4290886568
0.086200513 0.042527381 0.70599997 4290821291
0.087540276 0.042528346 0.70599997 4290887084
0.088628337 0.042408857 0.704 4291018154
0.089836635 0.04234961 0.70300001 4291018154
0.09117087 0.04235062 0.70300001 4290952361
0.09224198 0.04223115 0.70099998 4290952361
0.093572527 0.042232182 0.70099998 4291148457
0.094767764 0.04217298 0.69999999 4291148457
0.096096501 0.04217403 0.69999999 4291018154
0.097146966 0.042054601 0.69800001 4291018154
