# .PCD v0.7 - Point Cloud Data file format
VERSION 0.7
FIELDS x y z rgba
SIZE 4 4 4 4
TYPE F F F U
COUNT 1 1 1 1
WIDTH 1021
HEIGHT 1
VIEWPOINT 0 0 0 1 0 0 0
POINTS 1021
DATA ascii
-0.12618904 -0.099973485 0.542 4291611852
-0.12492681 -0.099787943 0.54100001 4291677645
-0.12366839 -0.099602394 0.54000002 4291677645
-0.12264093 -0.099601299 0.54000002 4291282889
-0.1211631 -0.099231303 0.53799999 4291809233
-0.12013951 -0.099230178 0.53799999 4291677643
-0.11889454 -0.099044606 0.537 4291677643
-0.11787292 -0.099043503 0.537 4291873991
-0.11685134 -0.099042371 0.537 4292005833
-0.11539841 -0.098672368 0.53500003 4292137164
-0.11416687 -0.098486789 0.53399998 4291873993
-0.1131511 -0.098485664 0.53399998 4291479750
-0.11213534 -0.098484501 0.53399998 4291611337
-0.11091156 -0.098298937 0.53299999 4291546306
-0.1098978 -0.098297797 0.53299999 4291414977
-0.10867978 -0.098112226 0.53200001 4291347397
-0.10726323 -0.097742237 0.52999997 4291742155
-0.10605478 -0.097556666 0.52899998 4291873741
-0.10504877 -0.097555518 0.52899998 4291742155
-0.1040428 -0.097554363 0.52899998 4291281090
-0.1028421 -0.097368814 0.528 4292136399
-0.10183809 -0.097367652 0.528 4292136134
-0.10064316 -0.097182088 0.52700001 4292070341
-0.099641137 -0.09718094 0.52700001 4292005061
-0.09863916 -0.097179793 0.52700001 4292005061
-0.097637199 -0.097178631 0.52700001 4291545793
-0.096451916 -0.096993074 0.52600002 4291414207
-0.095451966 -0.096991949 0.52600002 4291610053
-0.094452024 -0.096990786 0.52600002 4291807689
-0.093274467 -0.096805237 0.52499998 4291478204
-0.092276514 -0.096804082 0.52499998 4291543997
-0.091278605 -0.096802965 0.52499998 4291282108
-0.090108767 -0.096617445 0.52399999 4291479487
-0.089112841 -0.096616305 0.52399999 4291676098
-0.088116951 -0.09661518 0.52399999 4291741891
-0.087121092 -0.096614055 0.52399999 4291610051
-0.086125284 -0.096612923 0.52399999 4291676100
-0.085129507 -0.096611798 0.52399999 4291610051
-0.084133781 -0.096610688 0.52399999 4291610051
-0.083138078 -0.09660957 0.52399999 4291610051
-0.08229918 -0.096792825 0.52499998 4291939016
-0.081301652 -0.096791714 0.52499998 4291347647
-0.080304176 -0.096790604 0.52499998 4291413440
-0.079306737 -0.096789524 0.52499998 4291347138
-0.078309342 -0.096788429 0.52499998 4291675846
-0.077311978 -0.096787341 0.52499998 4291545282
-0.076314658 -0.096786261 0.52499998 4291545282
-0.075317375 -0.096785195 0.52499998 4291281854
-0.074320138 -0.096784145 0.52499998 4291676611
-0.073322929 -0.096783072 0.52499998 4291545280
-0.072325766 -0.096782021 0.52499998 4291545280
-0.071328618 -0.096780978 0.52499998 4291676098
-0.070331529 -0.09677995 0.52499998 4291610305
-0.069334477 -0.096778922 0.52499998 4291412158
-0.068337455 -0.096777879 0.52499998 4291675587
-0.067340478 -0.096776888 0.52499998 4291478463
-0.066343531 -0.096775874 0.52499998 4291281340
-0.065471105 -0.096959226 0.52600002 4291347649
-0.06447234 -0.096958227 0.52600002 4291413442
-0.063473605 -0.096957237 0.52600002 4291282374
-0.062593669 -0.097140595 0.52700001 4291282374
-0.061709985 -0.097323954 0.528 4291151553
-0.060707569 -0.097323 0.528 4291283139
-0.059818257 -0.097506367 0.52899998 4290625979
-0.058814004 -0.097505435 0.52899998 4290954688
-0.057809781 -0.097504497 0.52899998 4291020735
-0.056805599 -0.097503595 0.52899998 4291283650
-0.055801462 -0.097502686 0.52899998 4291546306
-0.054797344 -0.097501799 0.52899998 4291546306
-0.053793263 -0.097500913 0.52899998 4291216058
-0.052888997 -0.097684339 0.52999997 4291545280
-0.051883083 -0.097683467 0.52999997 4291807168
-0.051069196 -0.09805125 0.53200001 4291872961
-0.050059546 -0.098050393 0.53200001 4291807166
-0.049234327 -0.098418154 0.53399998 4291807166
-0.048220951 -0.098417342 0.53399998 4291808198
-0.047295999 -0.098600835 0.53500003 4291545282
-0.046367295 -0.098784342 0.53600001 4291149502
-0.045350201 -0.098783538 0.53600001 4291544260
-0.044415861 -0.098967053 0.537 4291937210
-0.043396939 -0.0989663 0.537 4292200125
-0.042456962 -0.099149838 0.53799999 4292069568
-0.041436195 -0.099149093 0.53799999 4291938239
-0.040415462 -0.099148385 0.53799999 4291477950
-0.039394744 -0.099147655 0.53799999 4291806914
-0.038516723 -0.099515542 0.54000002 4291807685
-0.037492264 -0.099514835 0.54000002 4291741891
-0.036467843 -0.099514179 0.54000002 4291282372
-0.035574708 -0.099882089 0.542 4291545543
-0.034610275 -0.10006571 0.54299998 4291676609
-0.033642083 -0.10024936 0.54400003 4291545280
-0.03267011 -0.10043301 0.54500002 4291609790
-0.031694368 -0.10061669 0.546 4291675583
-0.030827155 -0.10116894 0.54900002 4291347649
-0.02984008 -0.10135263 0.55000001 4291676613
-0.028901584 -0.1017206 0.55199999 4291611339
-0.027854608 -0.10172005 0.55199999 4291545545
-0.026856208 -0.10190378 0.55299997 4291479748
-0.025807371 -0.10190325 0.55299997 4291479748
-0.024803331 -0.10208703 0.55400002 4291413955
-0.02379551 -0.1022708 0.55500001 4291545541
-0.022783913 -0.10245458 0.55599999 4291742145
-0.13401073 -0.10095789 0.55299997 4292007141
-0.13271788 -0.10077427 0.55199999 4291414748
-0.1307133 -0.10004296 0.54799998 4291611339
-0.1291972 -0.099676773 0.546 4291874254
-0.12768878 -0.099310592 0.54400003 4291874254
-0.12618795 -0.098944381 0.542 4291742925
-0.12515661 -0.098943308 0.542 4291939788
-0.1238963 -0.098759659 0.54100001 4292005581
-0.12263983 -0.098576024 0.54000002 4291742925
-0.12138719 -0.098392375 0.53899997 4292006096
-0.12013839 -0.098208703 0.53799999 4291677132
-0.11911482 -0.098207593 0.53799999 4291611339
-0.1180913 -0.098206475 0.53799999 4291807946
-0.11685021 -0.098022819 0.537 4291873995
-0.11561298 -0.097839154 0.53600001 4291807948
-0.11416574 -0.097472943 0.53399998 4291545032
-0.11314996 -0.097471818 0.53399998 4291676361
-0.11213423 -0.097470686 0.53399998 4291742155
-0.11111851 -0.097469546 0.53399998 4291545280
-0.11010284 -0.097468391 0.53399998 4291545280
-0.1090872 -0.097467236 0.53399998 4291611591
-0.10786922 -0.097283579 0.53299999 4292006092
-0.10605365 -0.09655235 0.52899998 4291807948
-0.10504764 -0.096551202 0.52899998 4291676361
-0.10404166 -0.09655007 0.52899998 4291609801
-0.10303571 -0.096548907 0.52899998 4292070352
-0.10202981 -0.09654776 0.52899998 4292070341
-0.10083297 -0.096364103 0.528 4292070341
-0.099829048 -0.096362963 0.528 4292004548
-0.098825164 -0.096361808 0.528 4292070341
-0.097821325 -0.096360654 0.528 4291807936
-0.096634135 -0.096177012 0.52700001 4291807936
-0.095632285 -0.096175879 0.52700001 4291610055
-0.09463045 -0.096174724 0.52700001 4291610055
-0.093450993 -0.095991097 0.52600002 4291610305
-0.092451163 -0.095989965 0.52600002 4291741891
-0.091277465 -0.095806323 0.52499998 4291545028
-0.090279587 -0.095805183 0.52499998 4291413442
-0.089281768 -0.095804058 0.52499998 4291610053
-0.088283978 -0.09580294 0.52499998 4291610053
-0.087286241 -0.095801823 0.52499998 4291347385
-0.086288527 -0.095800698 0.52499998 4291544508
-0.085290849 -0.095799565 0.52499998 4291609538
-0.084293209 -0.095798455 0.52499998 4291543745
-0.083295636 -0.09579736 0.52499998 4291544258
-0.08229807 -0.095796242 0.52499998 4292268238
-0.081300579 -0.095795162 0.52499998 4291676098
-0.080303095 -0.095794059 0.52499998 4291676098
-0.079305649 -0.095792964 0.52499998 4291676098
-0.078308269 -0.095791891 0.52499998 4291676098
-0.077310905 -0.095790803 0.52499998 4291545282
-0.076458961 -0.095972195 0.52600002 4291479489
-0.075459786 -0.095971137 0.52600002 4291347395
-0.074460641 -0.095970057 0.52600002 4291676359
-0.073321871 -0.095786549 0.52499998 4291741891
-0.072324716 -0.095785506 0.52499998 4292202442
-0.071463458 -0.095966928 0.52600002 4291872961
-0.070464462 -0.0959659 0.52600002 4291807168
-0.069333449 -0.095782422 0.52499998 4291741891
-0.068336442 -0.095781416 0.52499998 4291741891
-0.067467734 -0.095962837 0.52600002 4291675583
-0.066468909 -0.095961854 0.52600002 4291215032
-0.065470114 -0.095960848 0.52600002 4291610303
-0.064593919 -0.096142299 0.52700001 4292070854
-0.063593291 -0.096141323 0.52700001 4291282372
-0.062711492 -0.09632279 0.528 4291150786
-0.061709024 -0.096321821 0.528 4291217092
-0.060821585 -0.096503302 0.52899998 4291611850
-0.059817318 -0.096502356 0.52899998 4291283137
-0.058813073 -0.096501425 0.52899998 4291414979
-0.05791815 -0.096682929 0.52999997 4291151803
-0.056912068 -0.096682012 0.52999997 4291217596
-0.055906035 -0.096681103 0.52999997 4291676609
-0.055003632 -0.096862637 0.53100002 4291676609
-0.053995755 -0.096861757 0.53100002 4291281856
-0.052987926 -0.096860878 0.53100002 4291479235
-0.051980123 -0.096860029 0.53100002 4291676096
-0.051068343 -0.097041577 0.53200001 4291610303
-0.050246898 -0.097405545 0.53399998 4291676098
-0.049325705 -0.097587138 0.53500003 4291676098
-0.04831044 -0.097586319 0.53500003 4291545028
-0.047383606 -0.097767919 0.53600001 4291545028
-0.046453003 -0.097949505 0.537 4291478983
-0.045434039 -0.097948737 0.537 4291545032
-0.04449781 -0.098130368 0.53799999 4291675583
-0.043476995 -0.098129593 0.53799999 4291675583
-0.042456217 -0.098128848 0.53799999 4291675583
-0.041512478 -0.0983105 0.53899997 4291807168
-0.04048986 -0.098309763 0.53899997 4291610305
-0.039540496 -0.098491468 0.54000002 4291610305
-0.038516033 -0.098490775 0.54000002 4291675846
-0.037561018 -0.098672479 0.54100001 4291807689
-0.03660224 -0.098854184 0.542 4291742155
-0.035639692 -0.099035919 0.54299998 4291676361
-0.034737114 -0.099400036 0.54500002 4291676611
-0.033703294 -0.09939941 0.54500002 4291545282
-0.032729439 -0.099581182 0.546 4291544512
-0.031751812 -0.099762939 0.54699999 4291807685
-0.030882722 -0.10030951 0.55000001 4291808452
-0.029893756 -0.1004913 0.551 4291874245
-0.028953381 -0.10085548 0.55299997 4291676880
-0.027904518 -0.10085493 0.55299997 4291545293
-0.026855679 -0.1008544 0.55299997 4291545030
-0.025853522 -0.10103625 0.55400002 4291742153
-0.024802826 -0.10103574 0.55400002 4291479748
-0.13400966 -0.099907912 0.55299997 4293125100
-0.1327168 -0.099726193 0.55199999 4292203998
-0.13071223 -0.099002473 0.54799998 4291809233
-0.12966938 -0.099001423 0.54799998 4291875026
-0.12815711 -0.098639026 0.546 4291807948
-0.12711814 -0.098637946 0.546 4291939534
-0.12584829 -0.098456211 0.54500002 4292135886
-0.12435324 -0.0980938 0.54299998 4292333008
-0.12286584 -0.097731404 0.54100001 4291874254
-0.1216113 -0.097549669 0.54000002 4291940047
-0.12036059 -0.097367905 0.53899997 4291546059
-0.11911371 -0.097186141 0.53799999 4291611852
-0.11809018 -0.097185038 0.53799999 4291216581
-0.11684909 -0.097003281 0.537 4291611339
-0.11561182 -0.096821517 0.53600001 4291546059
-0.11437843 -0.09663976 0.53500003 4291414473
-0.11314882 -0.096457981 0.53399998 4291807948
-0.11213308 -0.096456856 0.53399998 4291873741
-0.11111736 -0.096455716 0.53399998 4291807685
-0.11010168 -0.096454576 0.53399998 4291741891
-0.10908605 -0.096453451 0.53399998 4291546057
-0.10786807 -0.096271671 0.53299999 4291611850
-0.10685442 -0.096270531 0.53299999 4290953924
-0.10544364 -0.095908158 0.53100002 4291151047
-0.1040405 -0.095545769 0.52899998 4291544006
-0.10303456 -0.095544629 0.52899998 4291741641
-0.10202865 -0.095543481 0.52899998 4291675587
-0.1010228 -0.095542349 0.52899998 4291675587
-0.10001697 -0.095541179 0.52899998 4291674815
-0.098824017 -0.095359445 0.528 4291806401
-0.097820185 -0.09535832 0.528 4291609790
-0.096816368 -0.095357165 0.528 4291807168
-0.095631145 -0.095175438 0.52700001 4291544006
-0.09462931 -0.09517429 0.52700001 4291675848
-0.09362752 -0.095173165 0.52700001 4291872961
-0.092450015 -0.094991431 0.52600002 4291872961
-0.091276333 -0.094809711 0.52499998 4291741893
-0.090278462 -0.094808578 0.52499998 4291610051
-0.08928065 -0.094807461 0.52499998 4291018432
-0.088282838 -0.094806328 0.52499998 4291018432
-0.087285109 -0.094805218 0.52499998 4290886583
-0.086287409 -0.094804116 0.52499998 4291610305
-0.085289739 -0.094803005 0.52499998 4291676098
-0.084292114 -0.094801903 0.52499998 4291676098
-0.083453178 -0.094981365 0.52600002 4291543745
-0.082453743 -0.094980285 0.52600002 4291806916
-0.081299476 -0.094798602 0.52499998 4291806914
-0.080301993 -0.094797522 0.52499998 4291872707
-0.079304568 -0.094796434 0.52499998 4291675837
-0.078307196 -0.094795369 0.52499998 4291675837
-0.077309832 -0.094794296 0.52499998 4291479489
-0.076457895 -0.094973795 0.52600002 4291347647
-0.07545872 -0.094972745 0.52600002 4291347647
-0.074459583 -0.094971672 0.52600002 4291347647
-0.073460497 -0.094970636 0.52600002 4291214782
-0.072461449 -0.0949696 0.52600002 4291806662
-0.071462408 -0.09496855 0.52600002 4291872961
-0.070463449 -0.094967522 0.52600002 4291807168
-0.069464505 -0.094966508 0.52600002 4291872707
-0.068465613 -0.094965503 0.52600002 4292004550
-0.067594998 -0.095145054 0.52700001 4291872448
-0.066594273 -0.095144026 0.52700001 4291609020
-0.065718055 -0.095323585 0.528 4291675587
-0.064838067 -0.095503129 0.52899998 4291609538
-0.063833661 -0.09550216 0.52899998 4291216581
-0.062829293 -0.095501207 0.52899998 4291150788
-0.061824951 -0.095500253 0.52899998 4291217092
-0.06082065 -0.095499307 0.52899998 4291414727
-0.059816383 -0.095498361 0.52899998 4291413953
-0.058923326 -0.095677964 0.52999997 4291282624
-0.058026515 -0.095857568 0.53100002 4291413694
-0.057018559 -0.095856667 0.53100002 4291479487
-0.056116112 -0.096036293 0.53200001 4291676096
-0.055106323 -0.096035406 0.53200001 4291676096
-0.054096568 -0.096034534 0.53200001 4291282624
-0.05318664 -0.096214168 0.53299999 4291413953
-0.052175041 -0.096213311 0.53299999 4291545282
-0.051259488 -0.096392982 0.53399998 4291676611
-0.050246071 -0.096392147 0.53399998 4291675846
-0.049324889 -0.096571833 0.53500003 4291675846
-0.048309632 -0.096571021 0.53500003 4291610051
-0.047382802 -0.096750721 0.53600001 4291610051
-0.046452217 -0.096930437 0.537 4291545030
-0.045433257 -0.096929647 0.537 4291479237
-0.044497039 -0.097109385 0.53799999 4291413694
-0.043476243 -0.09710864 0.53799999 4291413694
-0.042534392 -0.09728837 0.53899997 4291216060
-0.041588776 -0.097468153 0.54000002 4291545282
-0.040564269 -0.09746743 0.54000002 4291676611
-0.039613008 -0.09764722 0.54100001 4291545282
-0.038657993 -0.097827017 0.542 4291545028
-0.037629768 -0.097826332 0.542 4291808200
-0.036669109 -0.098006167 0.54299998 4291743177
-0.03563904 -0.098005511 0.54299998 4291611591
-0.034800217 -0.098546341 0.546 4291807685
-0.033764515 -0.0985457 0.546 4291741891
-0.032728828 -0.098545104 0.546 4291676100
-0.03186731 -0.099085942 0.54900002 4291939016
-0.030882131 -0.099265829 0.55000001 4291808452
-0.029893186 -0.09944573 0.551 4291808452
-0.02895282 -0.09980613 0.55299997 4291479750
-0.02790398 -0.099805586 0.55299997 4291413957
-0.02685515 -0.09980505 0.55299997 4291413440
-0.025853012 -0.099985026 0.55400002 4291676611
-0.13071117 -0.097962022 0.54799998 4292466909
-0.12966831 -0.097960964 0.54799998 4291875028
-0.12839077 -0.097781137 0.54699999 4291676882
-0.12734987 -0.097780049 0.54699999 4292137433
-0.12607808 -0.097600207 0.546 4292268238
-0.12503918 -0.097599126 0.546 4292202444
-0.12331896 -0.097061768 0.54299998 4291939536
-0.1220606 -0.096881919 0.542 4292202708
-0.1205828 -0.096523337 0.54000002 4291809483
-0.11933399 -0.09634345 0.53899997 4292072399
-0.11830855 -0.096342355 0.53899997 4291742923
-0.11706557 -0.096162498 0.53799999 4291742923
-0.11582641 -0.095982634 0.537 4291677132
-0.1143773 -0.095624037 0.53500003 4291677132
-0.1133596 -0.095622919 0.53500003 4291873743
-0.11234195 -0.095621802 0.53500003 4291807950
-0.11132433 -0.095620662 0.53500003 4291742155
-0.11010056 -0.095440798 0.53399998 4291676361
-0.10908492 -0.095439665 0.53399998 4291414473
-0.10806931 -0.09543851 0.53399998 4291875024
-0.10705374 -0.095437385 0.53399998 4291677391
-0.10564107 -0.095078804 0.53200001 4291545805
-0.10403936 -0.094541505 0.52899998 4291676359
-0.10303342 -0.094540358 0.52899998 4291873995
-0.10202752 -0.09453924 0.52899998 4291807183
-0.10102165 -0.094538093 0.52899998 4292004561
-0.10001582 -0.094536953 0.52899998 4291939016
-0.099010043 -0.09453582 0.52899998 4291807687
-0.098004304 -0.094534688 0.52899998 4291676613
-0.096815228 -0.094354846 0.528 4291676613
-0.095811464 -0.094353713 0.528 4291544780
-0.094807737 -0.094352588 0.528 4291741903
-0.093804039 -0.094351441 0.528 4291610044
-0.092624642 -0.094171628 0.52700001 4291675837
-0.091622926 -0.094170503 0.52700001 4292071108
-0.090449326 -0.093990713 0.52600002 4292202694
-0.089449592 -0.093989573 0.52600002 4291676107
-0.088449903 -0.093988471 0.52600002 4291676107
-0.087450258 -0.093987353 0.52600002 4291741891
-0.086450651 -0.093986243 0.52600002 4291741891
-0.085451104 -0.093985155 0.52600002 4291742145
-0.084451564 -0.093984038 0.52600002 4291807938
-0.083610736 -0.094161607 0.52700001 4291543747
-0.0826094 -0.09416052 0.52700001 4291543747
-0.081453256 -0.093980774 0.52600002 4291675587
-0.080453888 -0.093979686 0.52600002 4292070089
-0.079454564 -0.093978606 0.52600002 4292005052
-0.078455277 -0.093977541 0.52600002 4292267967
-0.077456035 -0.093976475 0.52600002 4291479487
-0.076602191 -0.094154067 0.52700001 4291347901
-0.075601123 -0.094153017 0.52700001 4291413694
-0.074600101 -0.094151974 0.52700001 4291479487
-0.073599115 -0.094150923 0.52700001 4291675848
-0.072598159 -0.09414988 0.52700001 4291610055
-0.071597248 -0.094148859 0.52700001 4291675583
-0.070596382 -0.094147839 0.52700001 4291807168
-0.069595553 -0.094146818 0.52700001 4291806916
-0.068594761 -0.094145827 0.52700001 4291872709
-0.067722261 -0.094323464 0.528 4291806916
-0.066719659 -0.094322465 0.528 4291477952
-0.065841533 -0.094500124 0.52899998 4291478467
-0.064837098 -0.094499148 0.52899998 4291478467
-0.0638327 -0.09449818 0.52899998 4291347399
-0.062828332 -0.094497226 0.52899998 4291347399
-0.061824009 -0.094496287 0.52899998 4291282372
-0.060819715 -0.094495341 0.52899998 4291479750
-0.059928522 -0.09467303 0.52999997 4291479489
-0.059033588 -0.094850749 0.53100002 4291347647
-0.058025602 -0.09484984 0.53100002 4291544258
-0.057125024 -0.095027544 0.53200001 4291610051
-0.056115221 -0.095026672 0.53200001 4291675583
-0.055105444 -0.095025785 0.53200001 4291675583
-0.0540957 -0.095024921 0.53200001 4291610051
-0.053185768 -0.095202655 0.53299999 4292070602
-0.052174199 -0.09520182 0.53299999 4291741891
-0.051258646 -0.095379598 0.53399998 4291676098
-0.050245237 -0.095378757 0.53399998 4291872457
-0.049416259 -0.09573517 0.53600001 4291806664
-0.048399121 -0.095734365 0.53600001 4291610053
-0.047470406 -0.095912166 0.537 4291544260
-0.046451427 -0.095911376 0.537 4291544258
-0.045517087 -0.096089207 0.53799999 4291610051
-0.044578984 -0.096267052 0.53899997 4291479485
-0.04355631 -0.096266299 0.53899997 4291479485
-0.042533655 -0.096265562 0.53899997 4291480002
-0.041588061 -0.096443444 0.54000002 4291480002
-0.040563561 -0.096442722 0.54000002 4291545282
-0.03968554 -0.09679921 0.542 4291545282
-0.038728625 -0.09697713 0.54299998 4291676100
-0.037698522 -0.096976437 0.54299998 4292004809
-0.036803506 -0.097332969 0.54500002 4291808452
-0.036032192 -0.098046683 0.54900002 4291742402
-0.034990788 -0.098046035 0.54900002 4291808200
-0.033887565 -0.097866811 0.54799998 4291808200
-0.032848105 -0.0978662 0.54799998 4291544778
-0.031866722 -0.098044209 0.54900002 4291807950
-0.03088155 -0.098222189 0.55000001 4291808452
-0.029892618 -0.098400205 0.551 4291808452
-0.028952267 -0.098756813 0.55299997 4291676863
-0.027903436 -0.098756261 0.55299997 4291545534
-0.1307101 -0.096921563 0.54799998 4292796138
-0.12966725 -0.09692052 0.54799998 4292072671
-0.1283897 -0.096742593 0.54699999 4291479500
-0.12734878 -0.096741505 0.54699999 4291742673
-0.12630792 -0.096740432 0.54699999 4292464847
-0.12503807 -0.09656249 0.546 4292464847
-0.12399919 -0.096561417 0.546 4291807948
-0.12273511 -0.096383452 0.54500002 4291873741
-0.12169819 -0.096382357 0.54500002 4291152071
-0.12021847 -0.096027531 0.54299998 4291743951
-0.11852696 -0.095495895 0.54000002 4291743436
-0.11728203 -0.095317923 0.53899997 4291677643
-0.11604098 -0.095139988 0.53799999 4291282374
-0.11458996 -0.094785184 0.53600001 4291611339
-0.11357036 -0.094784074 0.53600001 4291742153
-0.1125508 -0.094782948 0.53600001 4291742153
-0.1113232 -0.094604984 0.53500003 4291084994
-0.11009942 -0.094427012 0.53399998 4291479496
-0.10908377 -0.094425887 0.53399998 4291546055
-0.10806818 -0.094424762 0.53399998 4291611848
-0.10705262 -0.094423629 0.53399998 4291742925
-0.10603708 -0.094422497 0.53399998 4291677132
-0.10502159 -0.094421357 0.53399998 4291742402
-0.10400612 -0.094420217 0.53399998 4291742402
-0.10241213 -0.093888626 0.53100002 4291807946
-0.10121148 -0.093710676 0.52999997 4291873995
-0.10001469 -0.093532749 0.52899998 4291808198
-0.099008903 -0.093531609 0.52899998 4291676611
-0.098003164 -0.093530491 0.52899998 4291479750
-0.096997455 -0.093529366 0.52899998 4291282372
-0.09599179 -0.093528226 0.52899998 4291282374
-0.094806604 -0.093350299 0.528 4291282374
-0.093802929 -0.093349181 0.528 4291149493
-0.092799291 -0.093348071 0.528 4291938752
-0.091621816 -0.093170151 0.52700001 4292070854
-0.090620145 -0.093169034 0.52700001 4291939268
-0.089618534 -0.093167923 0.52700001 4291282372
-0.0884488 -0.092990026 0.52600002 4291479750
-0.087449171 -0.092988923 0.52600002 4291741891
-0.086449549 -0.092987813 0.52600002 4291807685
-0.085612454 -0.093163505 0.52700001 4291742145
-0.084611036 -0.09316241 0.52700001 4291742145
-0.083609655 -0.093161322 0.52700001 4291412410
-0.082608305 -0.093160227 0.52700001 4291675583
-0.081607029 -0.093159154 0.52700001 4291610053
-0.08060576 -0.093158066 0.52700001 4291807689
-0.079453491 -0.092980228 0.52600002 4291545534
-0.078454211 -0.092979178 0.52600002 4291742656
-0.077454992 -0.092978127 0.52600002 4291480000
-0.076746479 -0.093330584 0.528 4291480000
-0.07560008 -0.093152776 0.52700001 4291545282
-0.074599057 -0.093151726 0.52700001 4291545282
-0.073737733 -0.093327448 0.528 4291676361
-0.072872646 -0.093503162 0.52899998 4291545032
-0.07186795 -0.093502149 0.52899998 4291478463
-0.070729323 -0.093324386 0.528 4291676098
-0.069726609 -0.09332338 0.528 4291741639
-0.068854079 -0.093499117 0.52899998 4291675846
-0.067849539 -0.093498118 0.52899998 4291676100
-0.066845022 -0.093497142 0.52899998 4291610051
-0.065840557 -0.093496159 0.52899998 4291544258
-0.06483613 -0.09349519 0.52899998 4291676100
-0.063831732 -0.093494229 0.52899998 4291676613
-0.062827386 -0.093493283 0.52899998 4291545028
-0.061823059 -0.093492337 0.52899998 4291347395
-0.06081878 -0.093491413 0.52899998 4291742153
-0.059927601 -0.093667217 0.52999997 4291742405
-0.059255011 -0.094196491 0.53299999 4291479489
-0.058243252 -0.094195597 0.53299999 4291544258
-0.057338882 -0.094371408 0.53399998 4291676100
-0.056325287 -0.094370514 0.53399998 4291872446
-0.055311725 -0.094369642 0.53399998 4291938239
-0.054298192 -0.094368771 0.53399998 4291872709
-0.053284708 -0.094367921 0.53399998 4291806916
-0.052271243 -0.094367072 0.53399998 4291676098
-0.051257815 -0.094366238 0.53399998 4291610305
-0.050338514 -0.094542138 0.53500003 4291676100
-0.049415443 -0.094718039 0.53600001 4291741893
-0.048398323 -0.094717227 0.53600001 4291675587
-0.047469623 -0.094893157 0.537 4291675587
-0.046623658 -0.095245779 0.53899997 4291675585
-0.045600928 -0.095245011 0.53899997 4291872707
-0.044578232 -0.095244266 0.53899997 4291545795
-0.043555565 -0.095243514 0.53899997 4291282624
-0.042611841 -0.095419489 0.54000002 4291283139
-0.04158733 -0.095418759 0.54000002 4291348932
-0.04063797 -0.095594749 0.54100001 4291479487
-0.039684843 -0.095770754 0.542 4291545280
-0.038799271 -0.096123479 0.54400003 4291676098
-0.03811441 -0.097006284 0.54900002 4291939014
-0.037072964 -0.097005621 0.54900002 4291808452
-0.036031548 -0.097004972 0.54900002 4291742402
-0.034990154 -0.097004309 0.54900002 4291742405
-0.033948787 -0.097003698 0.54900002 4291742405
-0.032907449 -0.097003087 0.54900002 4291478983
-0.03192417 -0.097179182 0.55000001 4291742155
-0.030880975 -0.097178601 0.55000001 4291742405
-0.029892053 -0.097354718 0.551 4291742405
-0.029004073 -0.09788423 0.55400002 4291742402
-0.12676866 -0.096051849 0.54900002 4291873995
-0.12549499 -0.095875792 0.54799998 4292268497
-0.12445229 -0.095874712 0.54799998 4292005581
-0.1234096 -0.095873609 0.54799998 4292136910
-0.12214367 -0.095697552 0.54699999 4291479496
-0.12066017 -0.095346555 0.54500002 4291940047
-0.1196233 -0.09534543 0.54500002 4291873995
-0.11771611 -0.094644539 0.54100001 4291807946
-0.11668693 -0.094643436 0.54100001 4291676361
-0.11608534 -0.094992183 0.54299998 4292005583
-0.113993 -0.094116375 0.53799999 4291742145
-0.11275965 -0.093940318 0.537 4291939268
-0.11132208 -0.093589343 0.53500003 4291545543
-0.11030449 -0.093588218 0.53500003 4291742923
-0.10928693 -0.093587078 0.53500003 4291611586
-0.10826942 -0.093585961 0.53500003 4291545793
-0.10725195 -0.093584843 0.53500003 4291807685
-0.10623453 -0.093583718 0.53500003 4292268235
-0.10502046 -0.093407646 0.53399998 4291742395
-0.10400499 -0.093406498 0.53399998 4291742395
-0.10241101 -0.092880644 0.53100002 4291807685
-0.10121036 -0.092704587 0.52999997 4291939014
-0.10001358 -0.092528559 0.52899998 4291807938
-0.099007785 -0.092527434 0.52899998 4291676096
-0.098002031 -0.092526302 0.52899998 4291413442
-0.09699633 -0.092525192 0.52899998 4291347649
-0.095990665 -0.092524067 0.52899998 4291545030
-0.094985031 -0.092522949 0.52899998 4291742153
-0.093979456 -0.092521831 0.52899998 4291807168
-0.092973918 -0.092520714 0.52899998 4292136134
-0.09179455 -0.092344709 0.528 4291938752
-0.090791002 -0.092343606 0.528 4291610044
-0.089787468 -0.092342481 0.528 4291478717
-0.088784002 -0.092341386 0.528 4291544510
-0.08761432 -0.092165403 0.52700001 4291676098
-0.086612813 -0.092164315 0.52700001 4291741891
-0.085773803 -0.092338093 0.528 4291938754
-0.084770486 -0.092337005 0.528 4291938754
-0.08376722 -0.092335932 0.528 4291873211
-0.082763985 -0.092334844 0.528 4292004798
-0.081605941 -0.092158891 0.52700001 4291938764
-0.080604687 -0.092157826 0.52700001 4292070606
-0.079603463 -0.09215676 0.52700001 4291742402
-0.078602292 -0.092155695 0.52700001 4291742402
-0.077601165 -0.092154644 0.52700001 4291676609
-0.076890782 -0.092503332 0.52899998 4291874245
-0.075885937 -0.092502289 0.52899998 4291479235
-0.074881114 -0.092501253 0.52899998 4291413442
-0.073876351 -0.09250021 0.52899998 4291545030
-0.072871618 -0.092499197 0.52899998 4291545030
-0.071866922 -0.092498168 0.52899998 4291478213
-0.070862263 -0.092497163 0.52899998 4291741641
-0.069857657 -0.092496164 0.52899998 4291741639
-0.068853088 -0.092495166 0.52899998 4291675846
-0.067848556 -0.092494182 0.52899998 4291676100
-0.066844054 -0.092493199 0.52899998 4291939016
-0.065964058 -0.092667073 0.52999997 4291807168
-0.064835168 -0.092491277 0.52899998 4291938754
-0.063830793 -0.092490323 0.52899998 4291545280
-0.062826447 -0.092489384 0.52899998 4291413694
-0.061822135 -0.092488445 0.52899998 4291806914
-0.060932826 -0.092662349 0.52999997 4292070343
-0.059926685 -0.092661433 0.52999997 4291741891
-0.059254102 -0.093185015 0.53299999 4291610305
-0.058351617 -0.093358956 0.53399998 4291545282
-0.057337988 -0.093358047 0.53399998 4292137162
-0.056324404 -0.093357176 0.53399998 4291610557
-0.055310857 -0.093356304 0.53399998 4291610557
-0.054297343 -0.093355447 0.53399998 4291675846
-0.053283855 -0.093354583 0.53399998 4291675846
-0.052368302 -0.093528591 0.53500003 4291479235
-0.051352985 -0.093527742 0.53500003 4291413442
-0.050431784 -0.093701743 0.53600001 4291610557
-0.049506828 -0.093875743 0.537 4291610557
-0.048487816 -0.093874939 0.537 4291610051
-0.047557235 -0.094048984 0.53799999 4291939016
-0.046622876 -0.094223008 0.53899997 4291939268
-0.045684773 -0.094397068 0.54000002 4292070854
-0.044660188 -0.094396316 0.54000002 4291807689
-0.04363564 -0.09439557 0.54000002 4291544260
-0.042611122 -0.09439484 0.54000002 4291413955
-0.041740641 -0.094743721 0.542 4291743177
-0.040787503 -0.094917826 0.54299998 4291742402
-0.039830595 -0.095091939 0.54400003 4291808452
-0.039012559 -0.095615663 0.54699999 4291610305
-0.038183171 -0.096139386 0.55000001 4291741891
-0.037139837 -0.096138723 0.55000001 4291742402
-0.036096536 -0.096138075 0.55000001 4292005831
-0.035053261 -0.096137434 0.55000001 4291742405
-0.034071844 -0.096311614 0.551 4291545282
-0.033026725 -0.096310996 0.551 4291545030
-0.032039668 -0.096485205 0.55199999 4291676359
-0.03104884 -0.096659414 0.55299997 4291676613
-0.02999999 -0.096658841 0.55299997 4291676613
-0.12699848 -0.095182605 0.55000001 4291545805
-0.12549393 -0.094835415 0.54799998 4291743440
-0.12445119 -0.094834313 0.54799998 4291873993
-0.12363371 -0.095006295 0.54900002 4291939786
-0.12214257 -0.094659083 0.54699999 4291610055
-0.12088046 -0.094484925 0.546 4291741641
-0.11962219 -0.094310768 0.54500002 4291609542
-0.11836778 -0.094136626 0.54400003 4291806664
-0.11711717 -0.093962461 0.54299998 4291675848
-0.11608421 -0.093961336 0.54299998 4291807435
-0.11462753 -0.093614146 0.54100001 4291347136
-0.11296852 -0.093093909 0.53799999 4291741893
-0.1117371 -0.092919752 0.537 4291545028
-0.11071571 -0.092918649 0.537 4291545028
-0.10969436 -0.092917532 0.537 4291215549
-0.10847067 -0.092743374 0.53600001 4291544258
-0.1074513 -0.092742257 0.53600001 4291740608
-0.10643196 -0.092741132 0.53600001 4292201159
-0.10541265 -0.092739992 0.53600001 4291742143
-0.10478292 -0.093084894 0.53799999 4291742143
-0.10375991 -0.093083784 0.53799999 4291281342
-0.10120924 -0.091698512 0.52999997 4291676100
-0.10001245 -0.091524377 0.52899998 4291807168
-0.09900666 -0.09152326 0.52899998 4291807168
-0.098000914 -0.09152215 0.52899998 4291544510
-0.096995227 -0.091521047 0.52899998 4291676096
-0.09598954 -0.091519929 0.52899998 4291676359
-0.094983928 -0.091518812 0.52899998 4291742153
-0.093978338 -0.091517709 0.52899998 4291676098
-0.092972808 -0.091516599 0.52899998 4291676098
-0.091967292 -0.091515481 0.52899998 4291083707
-0.090961829 -0.091514386 0.52899998 4291610051
-0.089956403 -0.091513284 0.52899998 4291807168
-0.088951044 -0.091512188 0.52899998 4291807168
-0.088111952 -0.091684081 0.52999997 4291806916
-0.086940415 -0.091510005 0.52899998 4291938503
-0.085935168 -0.091508925 0.52899998 4291741891
-0.084929943 -0.091507822 0.52899998 4291741891
-0.083924778 -0.091506749 0.52899998 4291938752
-0.082762912 -0.091332711 0.528 4292070595
-0.081759714 -0.091331638 0.528 4291610053
-0.080756567 -0.091330573 0.528 4291741639
-0.079753458 -0.091329508 0.528 4291676609
-0.078750394 -0.09132845 0.528 4291545280
-0.077747382 -0.091327421 0.528 4291347901
-0.076889738 -0.091499344 0.52899998 4291545280
-0.075884894 -0.0914983 0.52899998 4291216579
-0.074880093 -0.091497272 0.52899998 4291413957
-0.073875338 -0.091496259 0.52899998 4291676359
-0.072870605 -0.091495231 0.52899998 4291545030
-0.071865916 -0.091494218 0.52899998 4291544258
-0.070861265 -0.091493219 0.52899998 4291676100
-0.069856659 -0.091492228 0.52899998 4291478467
-0.068852097 -0.091491252 0.52899998 4291478467
-0.067847565 -0.091490254 0.52899998 4291346363
-0.066969439 -0.091662236 0.52999997 4291675585
-0.065963089 -0.091661274 0.52999997 4291347134
-0.064956784 -0.091660321 0.52999997 4291676098
-0.063950509 -0.091659375 0.52999997 4291216831
-0.062944271 -0.091658451 0.52999997 4291151038
-0.061938077 -0.091657519 0.52999997 4291676098
-0.061276808 -0.092175402 0.53299999 4291807685
-0.060378052 -0.092347421 0.53399998 4291609542
-0.059364371 -0.092346512 0.53399998 4291543493
-0.058350727 -0.092345618 0.53399998 4291413953
-0.057337113 -0.092344739 0.53399998 4291611589
-0.056323532 -0.092343852 0.53399998 4290954428
-0.055309985 -0.092342988 0.53399998 4291217344
-0.054296482 -0.092342123 0.53399998 4291545541
-0.053283021 -0.092341296 0.53399998 4291479748
-0.052367467 -0.092513397 0.53500003 4290887357
-0.051448148 -0.092685491 0.53600001 4291282372
-0.050525066 -0.092857592 0.537 4291479489
-0.049598217 -0.0930297 0.53799999 4291479489
-0.048577324 -0.09302891 0.53799999 4291282372
-0.04764485 -0.093201041 0.53899997 4291479750
-0.046622109 -0.093200266 0.53899997 4291742407
-0.045684017 -0.093372427 0.54000002 4291808200
-0.044659451 -0.093371689 0.54000002 4291675846
-0.043634906 -0.093370944 0.54000002 4291610053
-0.042768214 -0.09371604 0.542 4291347136
-0.042047985 -0.094406962 0.546 4291610051
-0.041087262 -0.094579145 0.54699999 4291544258
-0.04012277 -0.094751358 0.54799998 4291676100
-0.039154526 -0.094923586 0.54900002 4291413694
-0.038182497 -0.095095828 0.55000001 4291676609
-0.037139185 -0.095095173 0.55000001 4291676861
-0.036161527 -0.09526743 0.551 4291742654
-0.035116371 -0.095266804 0.551 4291282624
-0.034133069 -0.095439069 0.55199999 4291545795
-0.12699743 -0.094138436 0.55000001 4292269530
-0.12549284 -0.093795031 0.54799998 4291875028
-0.12445011 -0.093793951 0.54799998 4291677645
-0.12363261 -0.093964025 0.54900002 4292203989
-0.12236475 -0.093791761 0.54799998 4291741903
-0.12087935 -0.093448378 0.546 4291939538
-0.11984057 -0.093447275 0.546 4291939788
-0.11858424 -0.093275018 0.54500002 4291873995
-0.11754743 -0.093273908 0.54500002 4291742157
-0.11651068 -0.093272805 0.54500002 4292136658
-0.11462644 -0.092587136 0.54100001 4291873743
-0.11338736 -0.092414863 0.54000002 4292005329
-0.11194406 -0.092071481 0.53799999 4291743175
-0.11092078 -0.092070378 0.53799999 4291743175
-0.1098975 -0.092069253 0.53799999 4291413703
-0.10887429 -0.092068151 0.53799999 4291742925
-0.10765064 -0.091895893 0.537 4291741893
-0.1066294 -0.091894768 0.537 4292070602
-0.10580486 -0.092064776 0.53799999 4291808452
-0.10478181 -0.092063658 0.53799999 4291940038
-0.10375877 -0.092062525 0.53799999 4291676359
-0.10311773 -0.092403635 0.54000002 4291545030
-0.10171286 -0.092060283 0.53799999 4291676096
-0.10068996 -0.092059143 0.53799999 4292136647
-0.099481851 -0.091886915 0.537 4291808440
-0.098460928 -0.091885783 0.537 4292005563
-0.09635137 -0.090858027 0.53100002 4291873993
-0.095341921 -0.09085691 0.53100002 4291873993
-0.094154902 -0.090684704 0.52999997 4291675846
-0.093147449 -0.090683587 0.52999997 4291675846
-0.092140041 -0.090682499 0.52999997 4291610055
-0.091304645 -0.090852521 0.53100002 4291675848
-0.090295427 -0.090851411 0.53100002 4291741891
-0.08928626 -0.090850331 0.53100002 4291741891
-0.088277131 -0.090849228 0.53100002 4291610053
-0.087268025 -0.09084814 0.53100002 4291610053
-0.086096518 -0.090675965 0.52999997 4291544260
-0.085089415 -0.090674885 0.52999997 4291347138
-0.084082343 -0.090673804 0.52999997 4291807166
-0.082918584 -0.090501659 0.52899998 4292267717
-0.081913501 -0.090500593 0.52899998 4291610051
-0.080908455 -0.09049955 0.52899998 4291676100
-0.079903454 -0.0904985 0.52899998 4291676096
-0.078898497 -0.090497449 0.52899998 4291478717
-0.077893592 -0.090496421 0.52899998 4291478717
-0.077034056 -0.090666443 0.52999997 4291742145
-0.076170765 -0.090836488 0.53100002 4291479237
-0.07516218 -0.090835467 0.53100002 4291939788
-0.074013963 -0.090663373 0.52999997 4291807435
-0.073007353 -0.090662368 0.52999997 4291675848
-0.072000764 -0.090661362 0.52999997 4291676100
-0.070994228 -0.090660378 0.52999997 4292004809
-0.070119791 -0.090830438 0.53100002 4291938501
-0.068981268 -0.090658382 0.52999997 4291872707
-0.067974858 -0.090657435 0.52999997 4291675585
-0.066968478 -0.090656459 0.52999997 4292004550
-0.065962128 -0.090655491 0.52999997 4291676096
-0.064955845 -0.090654567 0.52999997 4291807938
-0.06394957 -0.090653613 0.52999997 4291479489
-0.063062109 -0.09082374 0.53100002 4291413440
-0.062054016 -0.090822808 0.53100002 4291675587
-0.061390862 -0.091335021 0.53399998 4291872709
-0.060377147 -0.091334097 0.53399998 4291675083
-0.059363469 -0.09133321 0.53399998 4291938255
-0.058349833 -0.091332309 0.53399998 4291742145
-0.057443611 -0.09150248 0.53500003 4291939268
-0.056428149 -0.091501616 0.53500003 4291544260
-0.055412717 -0.091500752 0.53500003 4291675846
-0.054397326 -0.09149991 0.53500003 4291741891
-0.053381965 -0.091499053 0.53500003 4292202442
-0.052464519 -0.091669254 0.53600001 4291545028
-0.051543314 -0.09183947 0.537 4291545028
-0.050618351 -0.092009678 0.53799999 4291676100
-0.04978181 -0.092350923 0.54000002 4291741893
-0.048757125 -0.092350133 0.54000002 4291347395
-0.047732469 -0.09234935 0.54000002 4291281602
-0.046707846 -0.092348583 0.54000002 4291544006
-0.045767862 -0.092518859 0.54100001 4291544006
-0.044824108 -0.092689112 0.542 4291543747
-0.043795787 -0.092688382 0.542 4291872711
-0.043083128 -0.093371719 0.546 4291807687
-0.042047277 -0.093370996 0.546 4291807687
-0.041086562 -0.093541302 0.54699999 4291807689
-0.040122088 -0.093711622 0.54799998 4292004811
-0.039153852 -0.093881957 0.54900002 4291479487
-0.038181834 -0.0940523 0.55000001 4291808452
-0.03713854 -0.094051652 0.55000001 4291545782
-0.036160886 -0.094222009 0.551 4291677111
-0.035115749 -0.094221391 0.551 4291413953
-0.034194294 -0.094562769 0.55299997 4291545795
-0.12549175 -0.092754662 0.54799998 4292072151
-0.12444903 -0.092753589 0.54799998 4291284432
-0.12385672 -0.093091026 0.55000001 4291613396
-0.12236366 -0.092751428 0.54799998 4291413703
-0.12087826 -0.092411831 0.546 4291742925
-0.11983947 -0.092410736 0.546 4291874508
-0.11880071 -0.092409655 0.546 4291611337
-0.11754633 -0.09223929 0.54500002 4291084740
-0.11650956 -0.092238188 0.54500002 4291742927
-0.11483719 -0.091729358 0.542 4291807435
-0.1138062 -0.091728248 0.542 4292004557
-0.11215103 -0.091219425 0.53899997 4291677384
-0.11112582 -0.091218315 0.53899997 4291677384
-0.11010067 -0.091217212 0.53899997 4291217094
-0.10907553 -0.09121608 0.53899997 4291348680
-0.10805045 -0.091214985 0.53899997 4291610305
-0.1070254 -0.09121386 0.53899997 4291807685
-0.10619707 -0.091381982 0.54000002 4291282108
-0.1051702 -0.091380857 0.54000002 4291479487
-0.10414338 -0.091379754 0.54000002 4291545028
-0.10311659 -0.091378622 0.54000002 4291545028
-0.1019008 -0.091208287 0.53899997 4291545282
-0.10068884 -0.091037937 0.53799999 4291940040
-0.099480718 -0.090867609 0.537 4291480252
-0.09845984 -0.090866506 0.537 4291677632
-0.096894592 -0.090357758 0.53399998 4291545028
-0.095699921 -0.090187453 0.53299999 4291676613
-0.094686739 -0.090186343 0.53299999 4291675846
-0.09349785 -0.090016045 0.53200001 4291675846
-0.09248665 -0.090014942 0.53200001 4291741893
-0.091475494 -0.090013854 0.53200001 4291676100
-0.090464368 -0.090012759 0.53200001 4291676098
-0.08945331 -0.090011686 0.53200001 4291741891
-0.088442273 -0.090010598 0.53200001 4291281854
-0.087431297 -0.090009518 0.53200001 4291281854
-0.086257897 -0.08983925 0.53100002 4291347649
-0.085248902 -0.089838177 0.53100002 4291347649
-0.084239937 -0.089837119 0.53100002 4291676350
-0.083231024 -0.089836061 0.53100002 4291939266
-0.082067281 -0.089665808 0.52999997 4291151040
-0.081060357 -0.08966475 0.52999997 4291282626
-0.080053456 -0.089663707 0.52999997 4291347647
-0.079195753 -0.089831851 0.53100002 4291413440
-0.078334279 -0.089999989 0.53200001 4291478463
-0.077614412 -0.090337306 0.53399998 4291544512
-0.076600075 -0.090336263 0.53399998 4291084477
-0.075585783 -0.090335242 0.53399998 4291676613
-0.074431896 -0.090165079 0.53299999 4291807687
-0.073419586 -0.090164058 0.53299999 4291807687
-0.072271459 -0.089993902 0.53200001 4291675587
-0.071261145 -0.089992903 0.53200001 4291675587
-0.070382901 -0.090161078 0.53299999 4291676098
-0.069240615 -0.089990944 0.53200001 4291610305
-0.068230398 -0.089989968 0.53200001 4291609790
-0.067093879 -0.089819871 0.53100002 4291938754
-0.066085652 -0.089818917 0.53100002 4291675583
-0.065200008 -0.089987129 0.53200001 4291872961
-0.06431061 -0.090155326 0.53299999 4291676098
-0.063417457 -0.090323552 0.53399998 4291676098
-0.062403683 -0.090322636 0.53399998 4291872709
-0.061389938 -0.09032172 0.53399998 4291806916
-0.060489319 -0.090489969 0.53500003 4291214784
-0.059473757 -0.090489082 0.53500003 4291806664
-0.058458235 -0.090488195 0.53500003 4291676350
-0.057550099 -0.090656444 0.53600001 4291676350
-0.056427281 -0.090486459 0.53500003 4291609540
-0.055411864 -0.090485595 0.53500003 4291609540
-0.054498158 -0.090653896 0.53600001 4291543997
-0.053480908 -0.090653047 0.53600001 4291807168
-0.052561585 -0.090821363 0.537 4291676098
-0.051638488 -0.090989679 0.53799999 4291676098
-0.050993878 -0.091665365 0.542 4291347134
-0.049873203 -0.091495454 0.54100001 4291676098
-0.048846636 -0.091494672 0.54100001 4291610305
-0.047996879 -0.091832139 0.54299998 4291544512
-0.046966575 -0.091831356 0.54299998 4291543747
-0.045936305 -0.091830611 0.54299998 4291543747
-0.044988781 -0.091999009 0.54400003 4291543997
-0.044118274 -0.092336491 0.546 4291675583
-0.043161314 -0.092504889 0.54699999 4291741891
-0.042123582 -0.092504196 0.54699999 4291807685
-0.041236099 -0.092841715 0.54900002 4291807687
-0.040194627 -0.092841044 0.54900002 4291807687
-0.039153188 -0.092840366 0.54900002 4291347647
-0.038181182 -0.093008816 0.55000001 4291676611
-0.0371379 -0.093008168 0.55000001 4291282874
-0.036160264 -0.093176648 0.551 4291217081
-0.11776092 -0.091372058 0.546 4291742155
-0.11650846 -0.091203615 0.54500002 4292202706
-0.11504795 -0.09086781 0.54299998 4292004557
-0.11401507 -0.090866722 0.54299998 4291938764
-0.11235802 -0.090363599 0.54000002 4291807946
-0.1113309 -0.090362489 0.54000002 4292005581
-0.11030383 -0.090361394 0.54000002 4291742925
-0.10927679 -0.090360276 0.54000002 4291742925
-0.10824982 -0.090359181 0.54000002 4292005061
-0.10722288 -0.090358078 0.54000002 4292202440
-0.10619596 -0.090356968 0.54000002 4291609790
-0.1051691 -0.090355858 0.54000002 4291675583
-0.10414226 -0.090354733 0.54000002 4291807168
-0.10311548 -0.09035363 0.54000002 4292070341
-0.10189968 -0.090185195 0.53899997 4292005061
-0.10068773 -0.090016767 0.53799999 4292268489
-0.099664874 -0.090015657 0.53799999 4292071358
-0.0984587 -0.089847229 0.537 4292137151
-0.097437844 -0.089846134 0.537 4291676098
-0.096057922 -0.089510418 0.53500003 4291676098
-0.094863296 -0.089341998 0.53399998 4291676098
-0.093848251 -0.089340918 0.53399998 4291676098
-0.092833236 -0.089339815 0.53399998 4291806914
-0.091818288 -0.08933872 0.53399998 4291675585
-0.09063334 -0.089170359 0.53299999 4291676098
-0.089620382 -0.089169271 0.53299999 4292005063
-0.088607438 -0.089168198 0.53299999 4292004798
-0.087594554 -0.089167126 0.53299999 4292333762
-0.086419277 -0.088998757 0.53200001 4291807168
-0.085408375 -0.088997692 0.53200001 4291807168
-0.084397525 -0.088996641 0.53200001 4291872448
-0.083386689 -0.088995568 0.53200001 4292201157
-0.082221083 -0.088827252 0.53100002 4291807168
-0.08121226 -0.088826209 0.53100002 4291938754
-0.080354504 -0.088992439 0.53200001 4291544260
-0.079343863 -0.088991411 0.53200001 4291610053
-0.07848049 -0.089157648 0.53299999 4291675846
-0.077613369 -0.089323901 0.53399998 4291807689
-0.076742508 -0.08949016 0.53500003 4291347397
-0.075726323 -0.089489155 0.53500003 4291676361
-0.074570529 -0.089320846 0.53399998 4291742145
-0.073556341 -0.089319862 0.53399998 4291807938
-0.072542161 -0.089318864 0.53399998 4291609538
-0.071528055 -0.089317881 0.53399998 4291609538
-0.070513979 -0.089316905 0.53399998 4291675585
-0.069369785 -0.089148685 0.53299999 4291675585
-0.068357684 -0.089147709 0.53299999 4291675837
-0.067345634 -0.089146771 0.53299999 4291872959
-0.066333614 -0.089145817 0.53299999 4291675587
-0.065444179 -0.089312129 0.53399998 4291872709
-0.064430334 -0.089311197 0.53399998 4291741891
-0.063535303 -0.089477532 0.53500003 4292005063
-0.062519632 -0.089476608 0.53500003 4291676098
-0.06150401 -0.089475714 0.53500003 4291676098
-0.060601488 -0.089642063 0.53600001 4291806914
-0.059584036 -0.089641176 0.53600001 4291675585
-0.05856663 -0.089640304 0.53600001 4291740860
-0.057549242 -0.089639433 0.53600001 4291872446
-0.056531899 -0.089638561 0.53600001 4291675335
-0.0555146 -0.089637727 0.53600001 4291806664
-0.054497324 -0.089636892 0.53600001 4291610303
-0.053480089 -0.089636065 0.53600001 4291544510
-0.052854404 -0.090304166 0.54000002 4291610305
-0.051925622 -0.09047059 0.54100001 4291676098
-0.050993085 -0.090637006 0.542 4291938754
-0.049964599 -0.090636224 0.542 4292070341
-0.049026426 -0.090802655 0.54299998 4291872959
-0.047996111 -0.090801902 0.54299998 4291872959
-0.047052316 -0.09096837 0.54400003 4291939016
-0.046020173 -0.090967625 0.54400003 4292004809
-0.045070749 -0.091134124 0.54500002 4291478717
-0.044198357 -0.091467813 0.54699999 4291544510
-0.043239515 -0.091634326 0.54799998 4291676098
-0.042199887 -0.091633618 0.54799998 4291676098
-0.04123541 -0.091800153 0.54900002 4291742145
-0.040193956 -0.091799483 0.54900002 4291807938
-0.039223839 -0.091966011 0.55000001 4291610051
-0.038180538 -0.091965362 0.55000001 4292004809
-0.037204783 -0.092131928 0.551 4291675583
-0.11775983 -0.090335593 0.546 4292070093
-0.11672112 -0.09033449 0.546 4292267215
-0.11568249 -0.090333395 0.546 4292136138
-0.11464389 -0.090332307 0.546 4292136138
-0.11360532 -0.090331204 0.546 4291675583
-0.11132979 -0.089337453 0.54000002 4292070341
-0.11030272 -0.089336358 0.54000002 4291873995
-0.1092757 -0.089335278 0.54000002 4291807946
-0.10824871 -0.089334182 0.54000002 4291808198
-0.10722174 -0.089333065 0.54000002 4291742405
-0.10639152 -0.089497402 0.54100001 4291674813
-0.10536274 -0.089496292 0.54100001 4291806655
-0.10414116 -0.089329764 0.54000002 4291739322
-0.10311438 -0.089328669 0.54000002 4291936958
-0.10208762 -0.089327551 0.54000002 4291609792
-0.10087377 -0.089161023 0.53899997 4291938501
-0.099663764 -0.08899451 0.53799999 4291413694
-0.098640949 -0.088993408 0.53799999 4291545280
-0.097436741 -0.088826902 0.537 4291676100
-0.096056841 -0.088495001 0.53500003 4291741893
-0.095039867 -0.088493913 0.53500003 4292004296
-0.094022922 -0.088492833 0.53500003 4292070089
-0.093006015 -0.088491745 0.53500003 4291609790
-0.091817208 -0.08832524 0.53399998 4291807168
-0.090802297 -0.088324159 0.53399998 4291676098
-0.089787439 -0.088323101 0.53399998 4291807685
-0.088772617 -0.088322029 0.53399998 4291938752
-0.087757841 -0.088320963 0.53399998 4292267717
-0.086743094 -0.088319898 0.53399998 4291872961
-0.085567862 -0.088153452 0.53299999 4291609790
-0.084555104 -0.088152401 0.53299999 4291806140
-0.083542384 -0.088151343 0.53299999 4292200898
-0.082684554 -0.088315688 0.53399998 4291806142
-0.081670031 -0.088314645 0.53399998 4291740093
-0.080655552 -0.088313617 0.53399998 4291411645
-0.079641119 -0.088312581 0.53399998 4291872196
-0.078626707 -0.088311553 0.53399998 4291741639
-0.07790304 -0.088641293 0.53600001 4291675846
-0.07688494 -0.088640288 0.53600001 4291084990
-0.075866848 -0.088639282 0.53600001 4291282626
-0.074709184 -0.08847291 0.53500003 4291609790
-0.073693089 -0.088471919 0.53500003 4291872961
-0.072541192 -0.088305548 0.53399998 4291477952
-0.071527071 -0.088304572 0.53399998 4291609538
-0.070645057 -0.088468969 0.53500003 4291676098
-0.069498971 -0.088302627 0.53399998 4291676098
-0.068484984 -0.088301681 0.53399998 4291872961
-0.067471035 -0.088300742 0.53399998 4291807168
-0.06645713 -0.088299803 0.53399998 4291544258
-0.065443248 -0.088298872 0.53399998 4291741893
-0.064550079 -0.088463306 0.53500003 4291741891
-0.063653141 -0.088627756 0.53600001 4291610305
-0.062635586 -0.088626832 0.53600001 4291609792
-0.061618075 -0.088625938 0.53600001 4291806914
-0.06060059 -0.088625051 0.53600001 4291807168
-0.059583154 -0.088624172 0.53600001 4291872961
-0.058565754 -0.088623308 0.53600001 4291872448
-0.057548378 -0.088622436 0.53600001 4291938241
-0.05663652 -0.088786937 0.537 4291806662
-0.055617325 -0.088786095 0.537 4291806662
-0.054598175 -0.088785268 0.537 4291545282
-0.053678818 -0.088949762 0.53799999 4291413440
-0.052853592 -0.089279629 0.54000002 4291084990
-0.051924817 -0.089444153 0.54100001 4291479748
-0.050992299 -0.089608692 0.542 4291938754
-0.050056003 -0.089773238 0.54299998 4291938754
-0.049115952 -0.089937806 0.54400003 4291807168
-0.048083737 -0.089937031 0.54400003 4291872961
-0.047138065 -0.090101615 0.54500002 4291676613
-0.046104025 -0.09010087 0.54500002 4291676613
-0.04515272 -0.090265468 0.546 4291282878
