# .PCD v0.7 - Point Cloud Data file format
VERSION 0.7
FIELDS x y z rgba
SIZE 4 4 4 4
TYPE F F F U
COUNT 1 1 1 1
WIDTH 1091
HEIGHT 1
VIEWPOINT 0 0 0 1 0 0 0
POINTS 1091
DATA ascii
0.17820352 0.03555344 0.64999998 4291874758
0.17916489 0.035500202 0.64899999 4291940551
0.18040046 0.035501666 0.64899999 4291940551
0.18163599 0.035503127 0.64899999 4291940551
0.18287164 0.035504598 0.64899999 4291874758
0.18410727 0.035506066 0.64899999 4291743429
0.18534294 0.035507537 0.64899999 4292005061
0.18657856 0.035509001 0.64899999 4291807938
0.18810366 0.03556519 0.64999998 4291742143
0.18934129 0.035566669 0.64999998 4291807936
0.19028574 0.03551342 0.64899999 4291611586
0.19152147 0.035514895 0.64899999 4291545793
0.19275723 0.035516363 0.64899999 4291414207
0.193993 0.035517838 0.64899999 4291480000
0.1952288 0.035519317 0.64899999 4291479487
0.19646461 0.035520792 0.64899999 4291545280
0.19770038 0.03552226 0.64899999 4291676609
0.20016234 0.035742681 0.653 4291545280
0.20171419 0.0357989 0.65399998 4291545280
0.20295954 0.035800382 0.65399998 4291545280
0.20545384 0.03602083 0.65799999 4291676609
0.20670678 0.03602232 0.65799999 4291676609
0.20795976 0.036023811 0.65799999 4291414207
0.20953067 0.036080044 0.65899998 4291480000
0.21078548 0.036081534 0.65899998 4291480002
0.21204035 0.036083013 0.65899998 4291480002
0.21329513 0.036084492 0.65899998 4291479748
0.21454994 0.036085967 0.65899998 4291479748
0.21580476 0.036087446 0.65899998 4291480002
0.21705957 0.036088921 0.65899998 4291413953
0.21831433 0.036090393 0.65899998 4291216831
0.21956907 0.036091857 0.65899998 4291282624
0.22149399 0.036202859 0.66100001 4291216831
0.22275248 0.036204319 0.66100001 4291216831
0.22401099 0.036205783 0.66100001 4291217344
0.22595102 0.036316786 0.66299999 4291217344
0.22755598 0.036373023 0.66399997 4291085504
0.2308877 0.036703158 0.67000002 4290954174
0.23354921 0.036923751 0.67400002 4290887609
0.23483232 0.036925219 0.67400002 4290887609
0.23611532 0.036926672 0.67400002 4290756282
0.23739828 0.036928128 0.67400002 4290492853
0.1196176 0.038975518 0.69 4291017904
0.12022746 0.038750794 0.68599999 4291017904
0.12117649 0.038639046 0.68400002 4291017904
0.12229705 0.038583796 0.68300003 4291083444
0.12305193 0.038415562 0.68000001 4291149493
0.1241612 0.03836032 0.67900002 4291215536
0.12526672 0.038305074 0.67799997 4291412658
0.12599519 0.038136851 0.67500001 4291412660
0.127278 0.038138125 0.67500001 4291412660
0.12798949 0.037969895 0.67199999 4291412660
0.12926669 0.03797118 0.67199999 4291412660
0.13054396 0.037972476 0.67199999 4291281590
0.13162513 0.037917264 0.671 4291347383
0.13230641 0.037749037 0.66799998 4291478715
0.13357627 0.037750348 0.66799998 4291478715
0.13484615 0.037751667 0.66799998 4291347385
0.13611612 0.037752993 0.66799998 4291478715
0.13718046 0.037697811 0.667 4291610557
0.13844861 0.037699144 0.667 4291544508
0.13971685 0.037700497 0.667 4291544510
0.14077373 0.037645329 0.66600001 4291676096
0.14204016 0.037646689 0.66600001 4291742393
0.1428763 0.037535001 0.66399997 4292005565
0.14392196 0.03747984 0.66299999 4291742393
0.14496388 0.037424687 0.662 4291610807
0.14600202 0.037369534 0.66100001 4291873209
0.14681363 0.037257843 0.65899998 4292070845
0.14784238 0.037202694 0.65799999 4291939516
0.14909396 0.037204083 0.65799999 4291742393
0.15034561 0.037205484 0.65799999 4291939518
0.15159728 0.037206884 0.65799999 4291939518
0.15215214 0.037038654 0.65499997 4292004800
0.15339822 0.037040062 0.65499997 4292004800
0.15440823 0.036984928 0.65399998 4292004798
0.15565252 0.036986347 0.65399998 4292070591
0.15689683 0.036987767 0.65399998 4291939266
0.15789939 0.036932644 0.653 4291939266
0.15914191 0.036934074 0.653 4291808452
0.16038443 0.036935508 0.653 4291742402
0.16162704 0.03693695 0.653 4291676609
0.16286969 0.036938399 0.653 4291676609
0.16386104 0.03688328 0.65200001 4291676863
0.16510187 0.036884733 0.65200001 4291742656
0.16634271 0.036886189 0.65200001 4291742141
0.16758363 0.036887649 0.65200001 4291807934
0.16908346 0.036945689 0.653 4291939266
0.17032634 0.036947157 0.653 4291939266
0.17130655 0.036892049 0.65200001 4292070591
0.17201827 0.03678035 0.64999998 4292136640
0.17325553 0.036781814 0.64999998 4292071108
0.17449288 0.0367833 0.64999998 4292071108
0.17573023 0.036784776 0.64999998 4292070854
0.17696759 0.036786254 0.64999998 4292136647
0.178205 0.036787741 0.64999998 4291940038
0.17944245 0.036789224 0.64999998 4291874245
0.18067989 0.03679071 0.64999998 4291874756
0.18191735 0.036792196 0.64999998 4291874756
0.18371844 0.036906898 0.65200001 4291874758
0.18495977 0.036908396 0.65200001 4291743429
0.18562996 0.036796667 0.64999998 4291808452
0.18686755 0.036798164 0.64999998 4291742402
0.18868393 0.036912885 0.65200001 4291545280
0.18992537 0.036914382 0.65200001 4291479487
0.19116685 0.036915887 0.65200001 4291216831
0.19240825 0.036917385 0.65200001 4291216831
0.19364977 0.036918886 0.65200001 4291347901
0.19489126 0.036920391 0.65200001 4291479487
0.19553111 0.036808629 0.64999998 4291413694
0.19646609 0.036753494 0.64899999 4291413694
0.19770187 0.036754988 0.64899999 4291479487
0.20016384 0.036983021 0.653 4291413694
0.20171568 0.037041161 0.65399998 4291413440
0.2042024 0.037269223 0.65799999 4291479489
0.20545533 0.037270728 0.65799999 4291545280
0.20670827 0.037272234 0.65799999 4291676609
0.20796125 0.037273742 0.65799999 4291480000
0.20953213 0.037331887 0.65899998 4291414207
0.21078695 0.037333388 0.65899998 4291414207
0.21204181 0.037334889 0.65899998 4291480000
0.21329664 0.037336394 0.65899998 4291480000
0.21455146 0.037337884 0.65899998 4291414207
0.21580626 0.037339378 0.65899998 4291282878
0.21706104 0.037340868 0.65899998 4291282878
0.21831581 0.037342355 0.65899998 4291217342
0.21957055 0.037343834 0.65899998 4291217342
0.22149545 0.037458647 0.66100001 4291085758
0.222754 0.037460133 0.66100001 4291085758
0.2240124 0.037461601 0.66100001 4291019197
0.2262933 0.037633099 0.66399997 4290953404
0.22824283 0.037747923 0.66600001 4290822334
0.23123376 0.0380328 0.671 4290756541
0.23355071 0.038204327 0.67400002 4290887863
0.23483376 0.038205806 0.67400002 4290690485
0.23611678 0.038207274 0.67400002 4290690487
0.23739968 0.038208734 0.67400002 4290624693
0.11961885 0.040284548 0.69 4290821041
0.12040395 0.040110644 0.68699998 4291017137
0.12153205 0.040053513 0.68599999 4291148467
0.12247736 0.039937999 0.68400002 4291083696
0.12377704 0.039939269 0.68400002 4291083696
0.12507677 0.039940555 0.68400002 4291083948
0.12637658 0.039941847 0.68400002 4291083948
0.12767643 0.039943144 0.68400002 4290952107
0.12709072 0.039360479 0.67400002 4291083950
0.12837169 0.039361779 0.67400002 4291412658
0.12965271 0.039363082 0.67400002 4291346865
0.13054527 0.039247598 0.67199999 4291216051
0.13162644 0.039190516 0.671 4291281844
0.13270387 0.039133433 0.67000002 4291478969
0.13357759 0.039017953 0.66799998 4291478969
0.13484749 0.039019294 0.66799998 4291282103
0.13611747 0.039020643 0.66799998 4291347897
0.1371818 0.038963586 0.667 4291413692
0.13844997 0.038964946 0.667 4291413692
0.1397182 0.03896632 0.667 4291544508
0.14077511 0.038909279 0.66600001 4291676350
0.14204155 0.038910661 0.66600001 4291676602
0.14287767 0.038795196 0.66399997 4291676602
0.14392334 0.038738165 0.66299999 4291676087
0.14496526 0.038681138 0.662 4291610294
0.14622428 0.038682535 0.662 4291544249
0.14726061 0.038625516 0.66100001 4291675835
0.14806847 0.038510054 0.65899998 4291676089
0.14932196 0.03851147 0.65899998 4291676089
0.15034704 0.038454462 0.65799999 4291807166
0.15159869 0.038455881 0.65799999 4291675837
0.15261817 0.038398873 0.65700001 4291675837
0.15339965 0.038283415 0.65499997 4291872959
0.15440968 0.038226403 0.65399998 4291807418
0.15565395 0.038227841 0.65399998 4291939004
0.15689826 0.03822929 0.65399998 4291807936
0.15790084 0.03817229 0.653 4291807936
0.15914334 0.038173735 0.653 4291807938
0.16038589 0.038175195 0.653 4291742145
0.1616285 0.038176667 0.653 4291676096
0.16287114 0.038178131 0.653 4291676096
0.1641138 0.038179602 0.653 4291676859
0.16535656 0.038181085 0.653 4291742908
0.16659932 0.038182568 0.653 4291545532
0.16784213 0.038184047 0.653 4291676861
0.16908495 0.038185533 0.653 4291742143
0.17032784 0.038187027 0.653 4291742143
0.17157079 0.038188525 0.653 4291872957
0.17254907 0.038131539 0.65200001 4291807164
0.17379016 0.038133036 0.65200001 4291676350
0.17503126 0.038134538 0.65200001 4291939266
0.17627245 0.038136043 0.65200001 4291808452
0.17696908 0.038020562 0.64999998 4292005831
0.17820649 0.038022064 0.64999998 4291677380
0.17944393 0.038023576 0.64999998 4291677380
0.18068138 0.038025077 0.64999998 4291874245
0.18191886 0.038026586 0.64999998 4291874245
0.18371995 0.038145106 0.65200001 4291808452
0.18496127 0.038146626 0.65200001 4291808452
0.18563147 0.03803112 0.64999998 4291611586
0.18686906 0.038032636 0.64999998 4291611586
0.18868545 0.038151179 0.65200001 4291545280
0.18992686 0.038152698 0.65200001 4291479487
0.19116834 0.038154226 0.65200001 4291282108
0.19240977 0.038155742 0.65200001 4291347901
0.19365124 0.038157258 0.65200001 4291413692
0.19489279 0.038158786 0.65200001 4291413692
0.19613425 0.038160298 0.65200001 4291085242
0.19737576 0.038161818 0.65200001 4291282878
0.19861729 0.038163342 0.65200001 4291282878
0.19985883 0.038164862 0.65200001 4291282878
0.20110032 0.03816637 0.65200001 4291413440
0.20420392 0.038519125 0.65799999 4291413440
0.20545684 0.038520653 0.65799999 4291544510
0.20670982 0.038522173 0.65799999 4291544510
0.20827881 0.038582247 0.65899998 4291479487
0.20953363 0.038583763 0.65899998 4291413694
0.21078847 0.038585283 0.65899998 4291151036
0.21204332 0.038586799 0.65899998 4291216829
0.21329816 0.038588319 0.65899998 4291479487
0.21455297 0.038589824 0.65899998 4291413694
0.21580775 0.038591336 0.65899998 4290954428
0.21706256 0.038592841 0.65899998 4291217344
0.2183173 0.038594339 0.65899998 4291283389
0.21957204 0.038595837 0.65899998 4291217596
0.22149697 0.038714472 0.66100001 4290954426
0.22309244 0.038774531 0.662 4290954426
0.22503059 0.038893163 0.66399997 4290822840
0.22629474 0.038894653 0.66399997 4290822840
0.2282443 0.039013296 0.66600001 4290887609
0.23157987 0.039366264 0.67199999 4290756280
0.2335522 0.039484926 0.67400002 4290756028
0.23518364 0.039544996 0.67500001 4290690235
0.23646852 0.039546479 0.67500001 4290493625
0.23775339 0.039547957 0.67500001 4290493625
0.12058049 0.041474327 0.68800002 4290886064
0.12171047 0.041415315 0.68699998 4290886064
0.12283676 0.041356329 0.68599999 4290952361
0.12377834 0.041237056 0.68400002 4291018154
0.12507807 0.041238353 0.68400002 4291018154
0.12637788 0.041239671 0.68400002 4290952361
0.12655775 0.040879227 0.67799997 4290952111
0.12709203 0.040639367 0.67400002 4290952111
0.12837301 0.040640693 0.67400002 4291215788
0.12965406 0.040642027 0.67400002 4291347117
0.1305466 0.040522765 0.67199999 4291084209
0.13162778 0.040463805 0.671 4291018416
0.13270523 0.040404849 0.67000002 4291216049
0.13357891 0.040285595 0.66799998 4291347635
0.13484883 0.040286954 0.66799998 4291347635
0.13611883 0.040288333 0.66799998 4291478965
0.13738886 0.040289715 0.66799998 4291282103
0.13865894 0.040291104 0.66799998 4290953395
0.13992907 0.040292498 0.66799998 4291281592
0.14098789 0.040233582 0.667 4291610557
0.14204293 0.040174667 0.66600001 4291610807
0.14330944 0.040176082 0.66600001 4291545014
0.14414184 0.040056854 0.66399997 4291610040
0.14518565 0.03999795 0.66299999 4291478453
0.14622572 0.03993905 0.662 4291478201
0.14726202 0.039880149 0.66100001 4291675837
0.14806989 0.039760914 0.65899998 4291676089
0.1493234 0.039762355 0.65899998 4291676089
0.15057695 0.039763808 0.65899998 4291544510
0.15160015 0.039704919 0.65799999 4291478717
0.1526196 0.039646029 0.65700001 4291609790
0.15340108 0.039526798 0.65499997 4291872961
0.15441111 0.039467908 0.65399998 4291873211
0.15565538 0.039469372 0.65399998 4291939004
0.15689972 0.039470844 0.65399998 4291939004
0.1581441 0.039472319 0.65399998 4291807418
0.15914482 0.039413441 0.653 4291676350
0.16038738 0.039414927 0.653 4291676350
0.16162999 0.039416414 0.653 4291610557
0.16287263 0.0394179 0.653 4291544508
0.16411527 0.039419394 0.653 4291676598
0.16535802 0.039420895 0.653 4291808440
0.16660078 0.0394224 0.653 4291676602
0.16784362 0.039423909 0.653 4291610553
0.16908644 0.039425418 0.653 4291676348
0.17059019 0.03948731 0.65399998 4291676348
0.17157228 0.03942845 0.653 4291479487
0.17255059 0.039369587 0.65200001 4291479487
0.17379168 0.039371107 0.65200001 4291480000
0.17503279 0.03937263 0.65200001 4291611586
0.17627394 0.039374154 0.65200001 4291808450
0.17751512 0.039375681 0.65200001 4292006085
0.17875634 0.039377213 0.65200001 4291808452
0.17999761 0.039378747 0.65200001 4291742402
0.18123886 0.039380282 0.65200001 4291808452
0.18248014 0.039381817 0.65200001 4291808452
0.18372148 0.039383348 0.65200001 4291742402
0.18496281 0.039384887 0.65200001 4291742402
0.185633 0.039265607 0.64999998 4291545793
0.18687057 0.039267141 0.64999998 4291480000
0.18868698 0.039389506 0.65200001 4291545280
0.1899284 0.039391041 0.65200001 4291545280
0.19116987 0.039392587 0.65200001 4291413694
0.19241133 0.039394125 0.65200001 4291347901
0.19365279 0.039395664 0.65200001 4291347897
0.19489427 0.039397202 0.65200001 4291347897
0.19613576 0.039398737 0.65200001 4291347901
0.19768004 0.039460711 0.653 4291413694
0.19892344 0.03946225 0.653 4291413694
0.19986032 0.039403353 0.65200001 4291413694
0.20110185 0.039404891 0.65200001 4291347649
0.20389509 0.039708618 0.65700001 4291347649
0.20545836 0.039770599 0.65799999 4291413694
0.20702545 0.039832585 0.65899998 4291347901
0.20828031 0.039834127 0.65899998 4291216829
0.21017109 0.039956562 0.66100001 4291216829
0.21142973 0.039958108 0.66100001 4291151036
0.21268843 0.03995965 0.66100001 4291151036
0.213947 0.039961182 0.66100001 4291347901
0.21520562 0.039962716 0.66100001 4291347901
0.21646422 0.03996424 0.66100001 4291151038
0.21772285 0.039965771 0.66100001 4291216831
0.2189814 0.039967287 0.66100001 4291217081
0.22023994 0.039968804 0.66100001 4291085494
0.22183353 0.040030781 0.662 4290954424
0.22376794 0.040153228 0.66399997 4290888631
0.22570994 0.040275685 0.66600001 4290953656
0.22731867 0.040337671 0.667 4290953656
0.22961666 0.040520612 0.67000002 4290756278
0.23227063 0.040764041 0.67400002 4290558898
0.23390019 0.040826026 0.67500001 4290492090
0.23518513 0.040827531 0.67500001 4290426297
0.23647006 0.040829029 0.67500001 4290426810
0.12301712 0.042720102 0.68699998 4290623658
0.12414157 0.042659245 0.68599999 4290755500
0.12544511 0.042660572 0.68599999 4290821289
0.12674874 0.042661913 0.68599999 4290887338
0.12655909 0.04216573 0.67799997 4290821291
0.12784761 0.042167075 0.67799997 4290821291
0.12856482 0.041981846 0.67500001 4290821291
0.12965539 0.041921008 0.67400002 4290821291
0.13054794 0.041797969 0.67199999 4290886314
0.1318253 0.041799337 0.67199999 4290952107
0.13290465 0.041738518 0.671 4290887084
0.13398024 0.041677691 0.67000002 4291084463
0.13525397 0.041679084 0.67000002 4291084461
0.13652776 0.041680481 0.67000002 4291084461
0.13780159 0.041681886 0.67000002 4291019186
0.13907549 0.041683305 0.67000002 4290953393
0.13993047 0.041560292 0.66799998 4291084209
0.1409893 0.041499503 0.667 4291281844
0.14225766 0.041500941 0.667 4291216047
0.14331089 0.041440163 0.66600001 4291281840
0.14457743 0.041441601 0.66600001 4291412658
0.14518708 0.041256368 0.66299999 4291346865
0.14644805 0.041257825 0.66299999 4291281844
0.14748628 0.041197058 0.662 4291478967
0.14852075 0.041136287 0.66100001 4291347897
0.14977805 0.041137755 0.66100001 4291282103
0.15057841 0.04101475 0.65899998 4291347385
0.15160161 0.040953986 0.65799999 4291347385
0.15285337 0.040955465 0.65799999 4291478455
0.15340257 0.040770218 0.65499997 4291478455
0.1544126 0.040709458 0.65399998 4291544249
0.15565687 0.040710941 0.65399998 4291610042
0.15690121 0.040712439 0.65399998 4291610044
0.15814558 0.040713929 0.65399998 4291610044
0.15939002 0.040715437 0.65399998 4291609790
0.16038887 0.040654682 0.653 4291609790
0.16163148 0.040656194 0.653 4291544508
0.16312356 0.040719971 0.65399998 4291544508
0.16436815 0.040721491 0.65399998 4291544760
0.16561276 0.040723015 0.65399998 4291544760
0.1666023 0.04066227 0.653 4291478967
0.16784513 0.040663801 0.653 4291610553
0.16908796 0.040665332 0.653 4291610555
0.17033087 0.040666871 0.653 4291478969
0.17157382 0.040668413 0.653 4291019447
0.17281674 0.040669952 0.653 4291282876
0.17405976 0.040671501 0.653 4291349182
0.17530279 0.040673044 0.653 4291546560
0.17654583 0.04067459 0.653 4291611586
0.17751665 0.040613856 0.65200001 4291611586
0.17875789 0.040615406 0.65200001 4291676609
0.17999911 0.040616956 0.65200001 4291676609
0.18124039 0.040618513 0.65200001 4291676609
0.18248169 0.04062007 0.65200001 4291742402
0.18372302 0.040621627 0.65200001 4291742402
0.18496436 0.040623184 0.65200001 4291676609
0.18563457 0.040500131 0.64999998 4291480000
0.18687212 0.04050168 0.64999998 4291480000
0.18868856 0.040627863 0.65200001 4291347901
0.18992995 0.040629424 0.65200001 4291413694
0.19117139 0.040630981 0.65200001 4291479487
0.19241288 0.040632546 0.65200001 4291347901
0.19365436 0.040634103 0.65200001 4291347899
0.19489583 0.04063566 0.65200001 4291347899
0.19613732 0.040637217 0.65200001 4291347901
0.19768158 0.040701102 0.653 4291347901
0.19922958 0.040764991 0.65399998 4291216829
0.20047495 0.040766548 0.65399998 4291216829
0.20172027 0.040768106 0.65399998 4291216831
0.20389666 0.040956683 0.65700001 4291151038
0.20545991 0.041020576 0.65799999 4291216831
0.207027 0.04108448 0.65899998 4291216831
0.20828184 0.041086044 0.65899998 4291151289
0.21017267 0.041212302 0.66100001 4291217083
0.21143131 0.041213859 0.66100001 4291151036
0.21268994 0.041215412 0.66100001 4291151036
0.21394855 0.041216962 0.66100001 4291282105
0.21520719 0.041218512 0.66100001 4291282105
0.21646576 0.04122005 0.66100001 4291084729
0.21772434 0.041221593 0.66100001 4291084729
0.21898292 0.041223127 0.66100001 4291019701
0.22024144 0.041224658 0.66100001 4291019701
0.22183508 0.041288558 0.662 4290953908
0.22444348 0.041539565 0.66600001 4290953908
0.22605038 0.041603465 0.667 4290691000
0.22834262 0.041792113 0.67000002 4290625207
0.22996089 0.041856017 0.671 4290624693
0.23158288 0.041919913 0.67199999 4290624693
0.23390171 0.042108577 0.67500001 4290492853
0.23518664 0.042110093 0.67500001 4290427060
0.23647155 0.042111605 0.67500001 4290492603
0.12319753 0.044087719 0.68800002 4290623406
0.12432387 0.044024982 0.68699998 4290623406
0.12562934 0.04402633 0.68699998 4290821289
0.12693487 0.044027697 0.68699998 4290887338
0.12656043 0.043452274 0.67799997 4290821289
0.12784897 0.043453638 0.67799997 4290755496
0.12875663 0.043326829 0.676 4290755498
0.12984912 0.043264113 0.67500001 4290755498
0.13093786 0.043201413 0.67400002 4290886314
0.13182668 0.043074608 0.67199999 4290952107
0.13290605 0.043011907 0.671 4291018154
0.13398163 0.042949211 0.67000002 4291083948
0.13525538 0.042950623 0.67000002 4291018668
0.13652916 0.042952042 0.67000002 4291018668
0.13780303 0.042953484 0.67000002 4290887600
0.13907693 0.042954918 0.67000002 4290887600
0.13993192 0.042828135 0.66799998 4291084209
0.14099073 0.042765468 0.667 4291281844
0.14161925 0.042574566 0.66399997 4291412912
0.14288196 0.042576022 0.66399997 4291412912
0.14392763 0.042513367 0.66299999 4291412658
0.14518856 0.042514831 0.66299999 4291215536
0.14644951 0.042516306 0.66299999 4291150002
0.14771053 0.042517789 0.66299999 4291216051
0.14874689 0.042455144 0.662 4291216564
0.14977953 0.042392503 0.66100001 4291084979
0.15103689 0.042394001 0.66100001 4291216310
0.1516031 0.042203091 0.65799999 4291216310
0.15285486 0.042204596 0.65799999 4291412406
0.15340404 0.042013668 0.65499997 4291478455
0.15465018 0.042015176 0.65499997 4291478455
0.15589638 0.042016689 0.65499997 4291544249
0.15714262 0.042018209 0.65499997 4291543995
0.15814713 0.041955579 0.65399998 4291478201
0.15939154 0.041957099 0.65399998 4291347388
0.16063601 0.041958634 0.65399998 4291347388
0.16188051 0.041960165 0.65399998 4291347385
0.16312507 0.0419617 0.65399998 4291347385
0.16436966 0.041963242 0.65399998 4291347383
0.16561431 0.041964792 0.65399998 4291347383
0.16660385 0.041902181 0.653 4291282105
0.16784669 0.04190373 0.653 4291479485
0.16908953 0.041905284 0.653 4291610807
0.17033242 0.041906841 0.653 4291347635
0.17157535 0.041908402 0.653 4291151036
0.1728183 0.041909963 0.653 4291414207
0.1740613 0.041911528 0.653 4291349436
0.17530432 0.041913096 0.653 4291415229
0.17654739 0.041914675 0.653 4291676863
0.17779049 0.04191624 0.653 4291545534
0.17903362 0.041917816 0.653 4291545280
0.18027672 0.041919388 0.653 4291676609
0.18151994 0.041920975 0.653 4291546047
0.18276313 0.041922551 0.653 4291546047
0.18400639 0.04192413 0.653 4291676609
0.1852496 0.041925713 0.653 4291545280
0.18620732 0.041863088 0.65200001 4291545280
0.18744868 0.041864663 0.65200001 4291676609
0.18869011 0.041866247 0.65200001 4291282108
0.18993153 0.04186783 0.65200001 4291282108
0.19117299 0.041869409 0.65200001 4291478717
0.19241442 0.041870985 0.65200001 4291478717
0.19365591 0.041872561 0.65200001 4291282105
0.1948974 0.041874141 0.65200001 4291347899
0.19643971 0.041939944 0.653 4291478717
0.19798586 0.042005751 0.65399998 4291478717
0.19923118 0.042007327 0.65399998 4291347901
0.20078303 0.042073134 0.65499997 4291347901
0.20264715 0.042203188 0.65700001 4291282108
0.20420855 0.042269003 0.65799999 4291018936
0.20546152 0.042270586 0.65799999 4291085244
0.2070286 0.042336404 0.65899998 4291151038
0.20828344 0.04233798 0.65899998 4291151289
0.21049219 0.042532306 0.662 4291085496
0.2117527 0.042533875 0.662 4291216058
0.21301326 0.042535447 0.662 4291216058
0.2142738 0.042537026 0.662 4291084983
0.2155343 0.042538583 0.662 4291084983
0.21679479 0.042540148 0.662 4291019447
0.21805528 0.042541701 0.662 4290887861
0.21931571 0.042543255 0.662 4291084981
0.22090939 0.042609077 0.66299999 4291084981
0.223177 0.042803422 0.66600001 4290953906
0.224782 0.04286924 0.667 4291019699
0.22706862 0.043063611 0.67000002 4290690487
0.22834416 0.043065146 0.67000002 4290558900
0.22996241 0.043130964 0.671 4290624178
0.23158441 0.043196779 0.67199999 4290624178
0.12319886 0.045393188 0.68800002 4290492590
0.12432521 0.045328572 0.68699998 4290492590
0.12563069 0.045329954 0.68699998 4290623658
0.12693515 0.044870835 0.68000001 4290623658
0.1282275 0.044872224 0.68000001 4290623658
0.12913896 0.044741642 0.67799997 4290689705
0.13004288 0.04461107 0.676 4290623912
0.13093928 0.044480495 0.67400002 4290820008
0.13222043 0.044481911 0.67400002 4290885801
0.13310553 0.044351339 0.67199999 4290689705
0.13398306 0.044220768 0.67000002 4290755498
0.1352568 0.044222202 0.67000002 4290821289
0.13653061 0.044223655 0.67000002 4290821289
0.13780445 0.044225104 0.67000002 4290821289
0.13907838 0.044226572 0.67000002 4290821289
0.13993335 0.044096008 0.66799998 4291018668
0.14078082 0.043965459 0.66600001 4291018668
0.14162073 0.043834902 0.66399997 4291018152
0.14288343 0.043836381 0.66399997 4291083946
0.14392911 0.043771841 0.66299999 4291150002
0.14519002 0.043773331 0.66299999 4291084209
0.146451 0.043774828 0.66299999 4290887600
0.14771202 0.043776337 0.66299999 4291019186
0.1487484 0.043711822 0.662 4291019186
0.14978105 0.043647304 0.66100001 4291019186
0.15103839 0.043648824 0.66100001 4291019186
0.15183501 0.043518271 0.65899998 4291019186
0.15285636 0.04345376 0.65799999 4291150002
0.15387398 0.043389257 0.65700001 4291216051
0.15465172 0.043258693 0.65499997 4291215797
0.1558979 0.043260224 0.65499997 4291281590
0.15714417 0.043261774 0.65499997 4291281844
0.15839045 0.043263316 0.65499997 4291281844
0.15939307 0.043198813 0.65399998 4291281592
0.16063754 0.043200362 0.65399998 4291281592
0.16188206 0.04320192 0.65399998 4291281590
0.16312662 0.043203481 0.65399998 4291281590
0.16437124 0.043205045 0.65399998 4291281592
0.16561586 0.043206606 0.65399998 4291215799
0.16686055 0.043208178 0.65399998 4291281590
0.16810526 0.043209758 0.65399998 4291347383
0.16935001 0.043211337 0.65399998 4291478969
0.17059483 0.04321292 0.65399998 4291347383
0.17157693 0.043148428 0.653 4291216058
0.17281988 0.043150015 0.653 4291479487
0.17432943 0.043217685 0.65399998 4291414459
0.17530592 0.043153197 0.653 4291546045
0.17654897 0.043154787 0.653 4291414205
0.17806433 0.043222472 0.65399998 4291414205
0.17930937 0.043224063 0.65399998 4291545280
0.18055439 0.043225668 0.65399998 4291479487
0.1817995 0.043227267 0.65399998 4291414207
0.18304461 0.043228868 0.65399998 4291414207
0.18428974 0.043230467 0.65399998 4291414207
0.18553488 0.043232076 0.65399998 4291282878
0.18649448 0.043167572 0.653 4291216829
0.18773781 0.043169182 0.653 4291216829
0.18898113 0.04317078 0.653 4291282108
0.19022442 0.043172378 0.653 4291347901
0.19146776 0.04317398 0.653 4291347901
0.19271114 0.043175582 0.653 4291347901
0.19395451 0.04317718 0.653 4291282108
0.19519794 0.043178782 0.653 4291216058
0.19674213 0.043246504 0.65399998 4291347134
0.19798744 0.043248102 0.65399998 4291347134
0.19923274 0.0432497 0.65399998 4291347388
0.20078464 0.043317426 0.65499997 4291478717
0.20264876 0.043451291 0.65700001 4291282108
0.20421018 0.043519028 0.65799999 4291216058
0.20546305 0.043520622 0.65799999 4290953402
0.20703019 0.043588366 0.65899998 4291019451
0.208285 0.04358995 0.65899998 4291019449
0.21049377 0.043789994 0.662 4290953656
0.21175431 0.043791588 0.662 4290953656
0.21301484 0.043793175 0.662 4290953656
0.21427536 0.043794755 0.662 4290690485
0.21553589 0.043796346 0.662 4291019449
0.21712385 0.043864075 0.66299999 4291019449
0.21838623 0.043865647 0.66299999 4290756278
0.21964857 0.043867216 0.66299999 4290887348
0.22091091 0.043868776 0.66299999 4290821555
0.22317858 0.044068854 0.66600001 4290624430
0.22478358 0.044136584 0.667 4290624430
0.22707017 0.044336662 0.67000002 4290624178
0.22834571 0.044338215 0.67000002 4290558385
0.22996394 0.044405941 0.671 4290492340
0.23434293 0.045003112 0.68000001 4290492340
0.12749659 0.046364922 0.68300003 4290426535
0.1282289 0.046162676 0.68000001 4290557865
0.12933086 0.046096209 0.67900002 4290557865
0.13042904 0.04602975 0.67799997 4290623658
0.13113497 0.045827512 0.67500001 4290623658
0.13222189 0.045761067 0.67400002 4290557865
0.13350311 0.045762513 0.67400002 4290623658
0.13418448 0.045560278 0.671 4290623658
0.13546012 0.045561731 0.671 4290623658
0.13653207 0.045495298 0.67000002 4290689451
0.13780594 0.045496773 0.67000002 4290754983
0.13907984 0.045498263 0.67000002 4290754983
0.13993485 0.045363933 0.66799998 4290952359
0.14078233 0.04522961 0.66600001 4291083946
0.14204878 0.045231096 0.66600001 4291018668
0.14288491 0.04509677 0.66399997 4291018668
0.14414768 0.045098275 0.66399997 4291150256
0.14541051 0.045099795 0.66399997 4291150256
0.1464525 0.045033395 0.66299999 4291018668
0.14771353 0.045034919 0.66299999 4291018668
0.14897461 0.04503645 0.66299999 4290953645
0.15023576 0.045037996 0.66299999 4290953645
0.15126844 0.044971611 0.662 4291084461
0.15252775 0.044973157 0.662 4291150254
0.15285791 0.044702969 0.65799999 4291150256
0.15387553 0.044636589 0.65700001 4291150256
0.15512548 0.044638138 0.65700001 4291216051
0.15637551 0.044639703 0.65700001 4291150002
0.15786546 0.044709213 0.65799999 4291150004
0.15839201 0.044506934 0.65499997 4291215797
0.15963836 0.044508509 0.65499997 4291215797
0.16088474 0.044510085 0.65499997 4291215797
0.16188365 0.044443715 0.65399998 4291215799
0.1631282 0.044445295 0.65399998 4291215799
0.16437282 0.044446882 0.65399998 4291019449
0.16587068 0.044516433 0.65499997 4290953656
0.16711727 0.044518024 0.65499997 4291084983
0.1683639 0.044519626 0.65499997 4291216312
0.16961057 0.044521231 0.65499997 4291281592
0.1708573 0.044522848 0.65499997 4291347385
0.17262955 0.044660401 0.65700001 4291282108
0.17388012 0.044662017 0.65700001 4291479487
0.17513074 0.044663634 0.65700001 4291610555
0.17584445 0.044529289 0.65499997 4291742141
0.17709132 0.044530902 0.65499997 4291479485
0.1783382 0.044532519 0.65499997 4291413692
0.17931098 0.04446616 0.65399998 4291413694
0.18055603 0.044467777 0.65399998 4291347901
0.18180114 0.044469405 0.65399998 4291216831
0.18304621 0.044471022 0.65399998 4291282624
0.18429133 0.044472639 0.65399998 4291282878
0.18525282 0.044406261 0.653 4291216829
0.18649608 0.044407878 0.653 4291281854
0.18745188 0.044341497 0.65200001 4291347647
0.1886933 0.044343114 0.65200001 4291347901
0.19022606 0.044412754 0.653 4291347901
0.1914694 0.044414371 0.653 4291347901
0.19271274 0.044415992 0.653 4291347901
0.19395612 0.044417601 0.653 4291282105
0.1951995 0.044419222 0.653 4291084983
0.19674371 0.044488866 0.65399998 4291281602
0.19798906 0.04449049 0.65399998 4291215808
0.19953899 0.044560127 0.65499997 4291216312
0.20078622 0.044561736 0.65499997 4291216312
0.20265035 0.04469943 0.65700001 4291282105
0.20421177 0.044769078 0.65799999 4291347899
0.20546469 0.044770692 0.65799999 4291018938
0.20703179 0.044840347 0.65899998 4291018938
0.20828663 0.04484196 0.65899998 4290887611
0.2104954 0.045047712 0.662 4290756282
0.21175592 0.045049321 0.662 4290756280
0.21301647 0.045050923 0.662 4290887609
0.21427694 0.045052521 0.662 4290756280
0.21553746 0.045054119 0.662 4290953402
0.21712542 0.045123771 0.66299999 4290756278
0.21838781 0.045125362 0.66299999 4290558898
0.21965013 0.045126937 0.66299999 4290624691
0.22091247 0.045128517 0.66299999 4290624691
0.2235152 0.045402367 0.667 4290558387
0.22579616 0.045608159 0.67000002 4290558387
0.22741066 0.045677811 0.671 4290492592
0.22868811 0.045679387 0.671 4290426799
0.22996552 0.045680948 0.671 4290426549
0.12402042 0.048840132 0.69999999 4290361002
0.12535051 0.048841562 0.69999999 4290623406
0.12749799 0.047661074 0.68300003 4290557351
0.12860748 0.047592729 0.68199998 4290623145
0.12952279 0.047454614 0.68000001 4290623399
0.1304305 0.047316495 0.67799997 4290623399
0.13133068 0.047178365 0.676 4290623399
0.1324195 0.04711004 0.67500001 4290623399
0.13350458 0.047041718 0.67400002 4290753961
0.13438593 0.04690361 0.67199999 4290688167
0.13566348 0.046905097 0.67199999 4290688421
0.13694112 0.04690659 0.67199999 4290754215
0.13821878 0.046908092 0.67199999 4290689190
0.13949651 0.046909597 0.67199999 4290689190
0.14035533 0.046771504 0.67000002 4290689190
0.14162937 0.046773028 0.67000002 4290952361
0.14205028 0.046495304 0.66600001 4290821802
0.14288643 0.0463572 0.66399997 4290624680
0.14414923 0.046358734 0.66399997 4290689451
0.14541204 0.046360265 0.66399997 4290689451
0.14667495 0.046361815 0.66399997 4290820008
0.14793786 0.046363369 0.66399997 4290885801
0.14920087 0.046364922 0.66399997 4290821291
0.15023731 0.046296664 0.66299999 4290821291
0.15127 0.046228409 0.662 4290887084
0.15252933 0.04622997 0.662 4290821291
0.15355641 0.046161719 0.66100001 4290821291
0.15434551 0.046023626 0.65899998 4290887084
0.15559928 0.046025205 0.65899998 4290887346
0.15685309 0.046026796 0.65899998 4291019188
0.15810697 0.046028394 0.65899998 4291084979
0.15887724 0.04589029 0.65700001 4291084979
0.1601274 0.045891888 0.65700001 4291150002
0.16088633 0.045753788 0.65499997 4291216051
0.16213275 0.045755386 0.65499997 4291019188
0.16312981 0.045687139 0.65399998 4291019188
0.16437441 0.045688748 0.65399998 4290822586
0.16587229 0.045760218 0.65499997 4290756793
0.16711886 0.045761835 0.65499997 4290953908
0.16836552 0.045763459 0.65499997 4291019701
0.17013009 0.045904823 0.65700001 4291084979
0.17138064 0.045906462 0.65700001 4291282357
0.17289391 0.045977965 0.65799999 4291216310
0.1741464 0.045979608 0.65799999 4291216310
0.17539895 0.045981251 0.65799999 4291281590
0.17638302 0.045913007 0.65700001 4291347383
0.17763369 0.04591465 0.65700001 4291282105
0.1788844 0.045916297 0.65700001 4291282105
0.18013516 0.045917951 0.65700001 4291347901
0.18083373 0.045779806 0.65499997 4291347901
0.18208073 0.045781448 0.65499997 4291216829
0.18304785 0.045713201 0.65399998 4291151036
0.18429299 0.04571484 0.65399998 4291151289
0.18525447 0.045646586 0.653 4291151289
0.18649772 0.045648225 0.653 4291019449
0.18745348 0.045579959 0.65200001 4291151036
0.18869492 0.045581594 0.65200001 4291347901
0.19022767 0.045653146 0.653 4291216058
0.19147101 0.045654789 0.653 4291018936
0.19271441 0.045656428 0.653 4291084729
0.19544286 0.046007659 0.65799999 4291018936
0.19669577 0.046009313 0.65799999 4291018936
0.19704619 0.045801178 0.65499997 4290953402
0.1982934 0.045802817 0.65499997 4290953402
0.19954062 0.045804452 0.65499997 4291019447
0.20078786 0.04580608 0.65499997 4291019447
0.20265198 0.045947585 0.65700001 4290954426
0.2042134 0.046019163 0.65799999 4290954426
0.2054663 0.046020783 0.65799999 4290887609
0.20703337 0.04609235 0.65899998 4290887609
0.20892039 0.046233874 0.66100001 4290756280
0.21081498 0.046375398 0.66299999 4290690487
0.21207738 0.046377022 0.66299999 4290690485
0.21333984 0.046378653 0.66299999 4290756278
0.21427853 0.046310313 0.662 4290756532
0.21553904 0.046311922 0.662 4290690739
0.21712701 0.046383481 0.66299999 4290558898
0.2187188 0.046455055 0.66399997 4290493105
0.21998303 0.046456654 0.66399997 4290558898
0.22124727 0.046458244 0.66399997 4290558898
0.22485724 0.046949625 0.671 4290492592
0.22613473 0.046951219 0.671 4290426799
0.22741224 0.046952814 0.671 4290426545
0.12402184 0.050168496 0.69999999 4290097836
0.12535195 0.050169934 0.69999999 4290360238
0.13009566 0.04896022 0.68300003 4290623395
0.13081674 0.048746653 0.68000001 4290557601
0.131915 0.048676446 0.67900002 4290557349
0.13300952 0.048606247 0.67799997 4290557349
0.13390224 0.048464369 0.676 4290556838
0.13498735 0.048394177 0.67500001 4290556838
0.13627063 0.048395693 0.67500001 4290556838
0.1373502 0.04832552 0.67400002 4290556838
0.1382203 0.048183642 0.67199999 4290491043
0.13949804 0.048185173 0.67199999 4290491043
0.14035685 0.048043303 0.67000002 4290557349
0.1416309 0.048044845 0.67000002 4290623399
0.14162523 0.047616128 0.66399997 4290623399
0.14288796 0.047617674 0.66399997 4290623399
0.14415076 0.047619231 0.66399997 4290623406
0.14541359 0.047620784 0.66399997 4290557613
0.14667651 0.047622364 0.66399997 4290623406
0.14793946 0.047623936 0.66399997 4290689455
0.14920245 0.047625516 0.66399997 4290755498
0.15023889 0.047555372 0.66299999 4290755498
0.15150006 0.047556963 0.66299999 4290755498
0.15276133 0.047558568 0.66299999 4290755498
0.15379031 0.047488432 0.662 4290755500
0.15504973 0.047490038 0.662 4290821293
0.15630923 0.047491655 0.662 4290821039
0.15756875 0.047493272 0.662 4290755246
0.15858842 0.047423154 0.66100001 4291018668
0.15984613 0.047424775 0.66100001 4291150254
0.16037272 0.047211155 0.65799999 4291150254
0.1613792 0.047141034 0.65700001 4291216047
0.16213436 0.046999145 0.65499997 4291150256
0.16338085 0.047000777 0.65499997 4291150256
0.16462734 0.047002405 0.65499997 4291084990
0.16587393 0.047004048 0.65499997 4290953404
0.1671205 0.047005691 0.65499997 4291019188
0.16836716 0.047007326 0.65499997 4291019188
0.17013171 0.047152516 0.65700001 4291216047
0.17164311 0.047225941 0.65799999 4291479219
0.17289555 0.047227595 0.65799999 4291281590
0.17414807 0.04722926 0.65799999 4291150004
0.17540057 0.047230922 0.65799999 4291215545
0.17665313 0.047232579 0.65799999 4291281594
0.17790574 0.047234256 0.65799999 4291281594
0.17915834 0.047235925 0.65799999 4291281594
0.18041098 0.04723759 0.65799999 4291347901
0.18138756 0.047167476 0.65700001 4291347901
0.18263838 0.047169141 0.65700001 4291282103
0.1830495 0.046955418 0.65399998 4291282103
0.18429464 0.046957083 0.65399998 4291282103
0.18553981 0.046958748 0.65399998 4291084981
0.18649939 0.046888605 0.653 4291018936
0.18774265 0.046890266 0.653 4291018936
0.188986 0.046891924 0.653 4291018936
0.19022931 0.046893585 0.653 4290953143
0.19411165 0.047541574 0.662 4291018938
0.19448675 0.047327802 0.65899998 4291084731
0.19544452 0.047257651 0.65799999 4290953656
0.19669747 0.04725932 0.65799999 4290953656
0.19795036 0.047260981 0.65799999 4290953654
0.19829507 0.047047161 0.65499997 4290887861
0.19954227 0.047048811 0.65499997 4290887861
0.20078948 0.047050465 0.65499997 4290624945
0.20265362 0.047195785 0.65700001 4290690487
0.20390466 0.047197428 0.65700001 4290690487
0.20578018 0.047342751 0.65899998 4290690487
0.20703508 0.047344401 0.65899998 4290690487
0.20923808 0.047561578 0.662 4290690485
0.21113457 0.047706917 0.66399997 4290690485
0.21239892 0.047708567 0.66399997 4290821555
0.21334144 0.047638349 0.66299999 4290887348
0.21460386 0.047639988 0.66299999 4290821552
0.2158663 0.047641613 0.66299999 4290821552
0.21712862 0.047643233 0.66299999 4290558898
0.21872039 0.047716722 0.66399997 4290427312
0.21998464 0.047718335 0.66399997 4290558385
0.22124885 0.047719937 0.66399997 4290558385
0.22485889 0.048224635 0.671 4290426032
0.22613631 0.048226234 0.671 4290360238
0.22876951 0.048515342 0.67500001 4290098095
0.23305315 0.048877932 0.68000001 4290229938
0.12402329 0.051496889 0.69999999 4290360238
0.12535341 0.051498361 0.69999999 4290228652
0.1306686 0.050477263 0.68599999 4290491556
0.13158774 0.050331607 0.68400002 4290491556
0.13269362 0.050259542 0.68300003 4290425763
0.13320723 0.049966719 0.67900002 4290425763
0.1342999 0.049894646 0.67799997 4290425765
0.13558884 0.049896177 0.67799997 4290425765
0.13647406 0.049750529 0.676 4290491045
0.13775931 0.049752071 0.676 4290425252
0.1390446 0.049753636 0.676 4290425250
0.14032993 0.049755197 0.676 4290425250
0.14035839 0.049315136 0.67000002 4290556836
0.14163245 0.049316701 0.67000002 4290688421
0.14162679 0.048876625 0.66399997 4290557349
0.14288953 0.048878193 0.66399997 4290557349
0.14415233 0.048879765 0.66399997 4290426535
0.14541519 0.048881348 0.66399997 4290557865
0.14667808 0.048882939 0.66399997 4290557613
0.14794104 0.048884537 0.66399997 4290689455
0.14920405 0.048886143 0.66399997 4290493103
0.15046708 0.048887745 0.66399997 4290493103
0.15173018 0.048889358 0.66399997 4290492842
0.15299335 0.048890989 0.66399997 4290492842
0.15425654 0.048892614 0.66399997 4290426535
0.15528557 0.048820611 0.66299999 4290623658
0.15654698 0.048822246 0.66299999 4290755248
0.15780842 0.048823893 0.66299999 4290689455
0.1590699 0.04882554 0.66299999 4290754987
0.16008963 0.048753548 0.662 4290886316
0.16061808 0.048534252 0.65899998 4290952107
0.16162647 0.048462257 0.65799999 4291017900
0.162136 0.048242941 0.65499997 4290887084
0.16338249 0.048244596 0.65499997 4291018414
0.16462898 0.048246246 0.65499997 4291018936
0.16587558 0.048247907 0.65499997 4290953143
0.16712214 0.048249561 0.65499997 4291084211
0.1683688 0.048251227 0.65499997 4291084211
0.1701334 0.048400234 0.65700001 4291083698
0.17164478 0.048475578 0.65799999 4291215284
0.17316 0.048550934 0.65899998 4291150006
0.17414971 0.048478939 0.65799999 4291215799
0.17540225 0.048480626 0.65799999 4291084983
0.17665479 0.04848231 0.65799999 4291018934
0.17790738 0.048483998 0.65799999 4291018936
0.17916001 0.048485689 0.65799999 4291084729
0.18041267 0.048487384 0.65799999 4291084729
0.18166533 0.048489071 0.65799999 4291084729
0.18291801 0.048490759 0.65799999 4291018934
0.18417075 0.048492454 0.65799999 4291018934
0.18457812 0.048273046 0.65499997 4291150004
0.18554147 0.048201028 0.65399998 4291150004
0.18650107 0.048129011 0.653 4291018934
0.18774435 0.048130691 0.653 4291018934
0.18898766 0.048132367 0.653 4291018936
0.19285282 0.048797451 0.662 4291018936
0.19411333 0.048799157 0.662 4290953402
0.19448844 0.048579697 0.65899998 4290953402
0.19574323 0.048581392 0.65899998 4290756793
0.19669914 0.048509359 0.65799999 4290756793
0.19795203 0.048511036 0.65799999 4290822840
0.19890222 0.048438989 0.65700001 4290756791
0.19954391 0.048293199 0.65499997 4290887861
0.20079114 0.048294865 0.65499997 4290690739
0.20265529 0.048443999 0.65700001 4290755761
0.20390631 0.048445668 0.65700001 4290821555
0.20703089 0.048889771 0.66299999 4290755761
0.20829338 0.048891444 0.66299999 4290755761
0.20955579 0.048893105 0.66299999 4290624691
0.21113621 0.04896852 0.66399997 4290427312
0.21240056 0.048970178 0.66399997 4290557615
0.2133431 0.048898086 0.66299999 4290623408
0.21428181 0.048825976 0.662 4290492590
0.21554233 0.048827622 0.662 4290492590
0.21713027 0.048903015 0.66299999 4290492592
0.21872202 0.048978399 0.66399997 4290426799
0.2206489 0.049127568 0.66600001 4290426799
0.22724825 0.050309468 0.68199998 4290361006
0.22620092 0.049794741 0.67500001 4290360238
0.227486 0.049796373 0.67500001 4290294445
0.22877111 0.049797997 0.67500001 4290032300
0.23176025 0.050168499 0.68000001 4290164142
0.23305477 0.050170116 0.68000001 4290099390
0.13158926 0.051629864 0.68400002 4290425765
0.13269515 0.051555924 0.68300003 4290294434
0.13320874 0.051255524 0.67900002 4290294434
0.13449955 0.051257074 0.67900002 4290294436
0.13559037 0.051183134 0.67799997 4290228387
0.13687938 0.051184703 0.67799997 4290228387
0.13816844 0.051186278 0.67799997 4290294436
0.13904616 0.051036868 0.676 4290359459
0.14033151 0.051038444 0.676 4290293410
0.14035997 0.050587025 0.67000002 4290359457
0.14163405 0.050588619 0.67000002 4290491043
0.14205496 0.050288178 0.66600001 4290557088
0.1433215 0.050289765 0.66600001 4290557088
0.14480522 0.05036689 0.667 4290556838
0.14541677 0.050141949 0.66399997 4290688167
0.1466797 0.050143566 0.66399997 4290294445
0.14794263 0.050145175 0.66399997 4290294445
0.14965506 0.050297849 0.66600001 4290294443
0.15092194 0.050299492 0.66600001 4290360492
0.15173183 0.050150078 0.66399997 4290360488
0.15299498 0.050151717 0.66399997 4290360488
0.15472281 0.050304435 0.66600001 4290360488
0.15552142 0.050155025 0.66399997 4290426538
0.15678474 0.050156686 0.66399997 4290557613
0.15804809 0.050158359 0.66399997 4290623406
0.15931147 0.050160021 0.66399997 4290623406
0.16033311 0.050086156 0.66299999 4290623406
0.16110721 0.049936738 0.66100001 4290754733
0.16187377 0.04978732 0.65899998 4291017904
0.16312782 0.049788997 0.65899998 4291018154
0.16438192 0.049790677 0.65899998 4291018154
0.16513334 0.049641248 0.65700001 4290886832
0.16638373 0.049642928 0.65700001 4290886832
0.16763413 0.049644616 0.65700001 4290886832
0.16888459 0.049646311 0.65700001 4290886832
0.170394 0.049723566 0.65799999 4291018166
0.17190731 0.049800836 0.65899998 4291083959
0.17316172 0.049802538 0.65899998 4291018166
0.17441608 0.049804244 0.65899998 4291083959
0.17540394 0.049730372 0.65799999 4291083959
0.17665648 0.049732082 0.65799999 4291083959
0.17790909 0.049733784 0.65799999 4291083959
0.17916171 0.049735494 0.65799999 4291083959
0.18041436 0.049737204 0.65799999 4291084983
0.18166701 0.04973891 0.65799999 4291084983
0.18291974 0.049740631 0.65799999 4291018936
0.18417247 0.049742337 0.65799999 4290953143
0.18457982 0.049517252 0.65499997 4291084211
0.18554316 0.049443357 0.65399998 4291150004
0.18678837 0.049445063 0.65399998 4291084209
0.18803352 0.049446765 0.65399998 4290887086
0.18927874 0.04944846 0.65399998 4290821557
0.19285457 0.050055057 0.662 4290755507
0.19411504 0.050056774 0.662 4290755509
0.19508041 0.049982879 0.66100001 4290755509
0.1957449 0.049833339 0.65899998 4290755509
0.19699974 0.049835045 0.65899998 4290755509
0.19825457 0.049836747 0.65899998 4290624691
0.1995094 0.049838446 0.65899998 4290558898
0.19954559 0.049537621 0.65499997 4290624945
0.20079283 0.049539309 0.65499997 4290624945
0.20327386 0.049843527 0.65899998 4290755759
0.20452872 0.049845219 0.65899998 4290755759
0.20921846 0.050678942 0.67000002 4290756011
0.21049425 0.050680649 0.67000002 4290756011
0.21177001 0.050682351 0.67000002 4290558383
0.21113789 0.050230157 0.66399997 4290361004
0.21240224 0.05023184 0.66399997 4290557361
0.21334475 0.050157856 0.66299999 4290557361
0.21428347 0.050083861 0.662 4290360752
0.21554394 0.050085507 0.662 4290360752
0.2174594 0.050238479 0.66399997 4290426797
0.22267652 0.051148083 0.676 4290361004
0.22396359 0.051149756 0.676 4290360488
0.22625031 0.051378421 0.67900002 4290294695
0.22787811 0.051455744 0.68000001 4290097836
0.22782466 0.051154714 0.676 4290031787
0.22911167 0.051156364 0.676 4289966507
0.23176189 0.051460698 0.68000001 4290492851
0.13269672 0.052852359 0.68300003 4290228641
0.13321032 0.052544393 0.67900002 4290228641
0.13450108 0.052545954 0.67900002 4290228641
0.13559195 0.05247014 0.67799997 4290162848
0.13688095 0.052471738 0.67799997 4290162594
0.13837382 0.052550722 0.67900002 4290228387
0.13904777 0.052320141 0.676 4290228641
0.1403331 0.052321743 0.676 4290162848
0.14203753 0.052478161 0.67799997 4290097052
0.14184703 0.051937968 0.671 4290294432
0.14290975 0.05186218 0.67000002 4290425250
0.14375351 0.051708985 0.66799998 4290227870
0.14502391 0.051710613 0.66799998 4290358946
0.1460754 0.051634837 0.667 4290358946
0.14712311 0.051559065 0.66600001 4290293412
0.14838989 0.051560711 0.66600001 4290359205
0.1496567 0.051562358 0.66600001 4290294436
0.15092358 0.051564019 0.66600001 4290294436
0.15219052 0.051565684 0.66600001 4290294436
0.15345748 0.051567353 0.66600001 4290294436
0.15472449 0.051569033 0.66600001 4290425765
0.15599157 0.051570714 0.66600001 4290491558
0.15725867 0.051572405 0.66600001 4290360488
0.15852582 0.0515741 0.66600001 4290557867
0.15979303 0.051575791 0.66600001 4290623406
0.16057663 0.051422603 0.66399997 4290623406
0.16135263 0.051269416 0.662 4290688170
0.16236672 0.051193669 0.66100001 4290753963
0.16362461 0.051195383 0.66100001 4290820010
0.16488251 0.051197086 0.66100001 4290820010
0.16538639 0.050966419 0.65799999 4290886316
0.16638543 0.050890673 0.65700001 4290886316
0.16763586 0.050892383 0.65700001 4290821039
0.16914333 0.050971553 0.65799999 4290821039
0.17039575 0.050973266 0.65799999 4290886835
0.171909 0.051052451 0.65899998 4291018164
0.1731634 0.05105418 0.65899998 4291018418
0.17441779 0.051055897 0.65899998 4291018418
0.17567222 0.051057622 0.65899998 4291018164
0.17692669 0.051059362 0.65899998 4291018164
0.17818122 0.051061086 0.65899998 4290821041
0.1794357 0.051062822 0.65899998 4291018164
0.18069027 0.051064555 0.65899998 4290953141
0.18194485 0.051066287 0.65899998 4290887348
0.18319947 0.05106803 0.65899998 4290821555
0.18445408 0.051069755 0.65899998 4290755761
0.18570873 0.051071491 0.65899998 4290755246
0.18582858 0.05076322 0.65499997 4290755246
0.18707564 0.050764944 0.65499997 4290755248
0.18832278 0.050766665 0.65499997 4290821041
0.19159582 0.051310953 0.662 4290821041
0.19285627 0.051312681 0.662 4290755248
0.19411676 0.051314421 0.662 4290624178
0.19508213 0.051238637 0.66100001 4290624178
0.19634074 0.051240373 0.66100001 4290624178
0.19700146 0.051087048 0.65899998 4290624178
0.19825625 0.051088769 0.65899998 4290624432
0.19951113 0.051090494 0.65899998 4290624432
0.20046125 0.051014673 0.65799999 4290624432
0.20171419 0.051016379 0.65799999 4290558383
0.20327555 0.051095616 0.65899998 4290361255
0.20453042 0.051097322 0.65899998 4290427049
0.20922017 0.051951963 0.67000002 4290689451
0.21049598 0.051953685 0.67000002 4290623658
0.21177171 0.051955402 0.67000002 4290360492
0.21304747 0.051957108 0.67000002 4290426286
0.21464311 0.052036371 0.671 4290492592
0.21592072 0.052038066 0.671 4290361006
0.21719839 0.052039776 0.671 4290294958
0.21945278 0.05227413 0.67400002 4290163629
0.22139108 0.052430946 0.676 4290163627
0.22267818 0.052432645 0.676 4290097834
0.22396526 0.052434321 0.676 4290031787
0.22525232 0.052435994 0.676 4290097836
0.22720955 0.052592799 0.67799997 4290032041
0.22782631 0.052439317 0.676 4290163627
0.22911327 0.052440971 0.676 4290163892
0.23040017 0.052442607 0.676 4290624443
0.13450268 0.053834889 0.67900002 4290096798
0.13559353 0.053757194 0.67799997 4290031005
0.13688254 0.053758793 0.67799997 4290096801
0.13837542 0.053839713 0.67900002 4290096801
0.13946076 0.053762045 0.67799997 4290293662
0.14074992 0.053763676 0.67799997 4290293662
0.14203915 0.053765323 0.67799997 4290293662
0.14206004 0.053291161 0.67199999 4290359455
0.1431247 0.053213499 0.671 4290227870
0.14418557 0.053135846 0.67000002 4290030492
0.14545979 0.053137492 0.67000002 4290096035
0.14629607 0.052980538 0.66799998 4290293414
