# .PCD v0.7 - Point Cloud Data file format
VERSION 0.7
FIELDS x y z rgba
SIZE 4 4 4 4
TYPE F F F U
COUNT 1 1 1 1
WIDTH 1069
HEIGHT 1
VIEWPOINT 0 0 0 1 0 0 0
POINTS 1069
DATA ascii
0.08909224 -0.12124184 0.778 4294967295
0.090801269 -0.12155446 0.77999997 4294967295
0.092399605 -0.12171125 0.78100002 4294967295
0.094122 -0.12202392 0.78299999 4294967295
0.095607832 -0.12202491 0.78299999 4294967295
0.097341701 -0.1223376 0.78500003 4294967295
0.0988314 -0.12233864 0.78500003 4294967295
0.10032118 -0.12233967 0.78500003 4294967295
0.101811 -0.1223407 0.78500003 4294967295
0.10330085 -0.12234177 0.78500003 4294967295
0.10505774 -0.12265452 0.787 4294967295
0.10655151 -0.12265559 0.787 4294967295
0.00058946561 -0.12220255 0.79400003 4278527488
0.0020946036 -0.12220243 0.79400003 4291949501
0.0036088042 -0.12251011 0.796 4294835707
0.0051177265 -0.12251003 0.796 4294967295
0.0066266474 -0.12250999 0.796 4294967295
0.0081355674 -0.12250995 0.796 4294967292
0.009620253 -0.12220209 0.79400003 4294769398
0.011069335 -0.12158647 0.79000002 4294967294
0.012566884 -0.12158649 0.79000002 4294967295
0.014046632 -0.12143259 0.78899997 4294967295
0.015502894 -0.12112486 0.787 4294967295
0.016951581 -0.12081712 0.78500003 4294967295
0.018439667 -0.12081721 0.78500003 4294967295
0.01987699 -0.12050951 0.78299999 4294967295
0.021306744 -0.12020186 0.78100002 4294967295
0.022787269 -0.12020199 0.78100002 4294967295
0.024236739 -0.12004825 0.77999997 4294967295
0.025649454 -0.11974066 0.778 4294967295
0.027124332 -0.11974087 0.778 4294967295
0.028525697 -0.11943328 0.77600002 4294967295
0.029919492 -0.11912571 0.77399999 4294967295
0.03138683 -0.11912599 0.77399999 4294967295
0.032811724 -0.11897236 0.773 4294967295
0.034188509 -0.11866486 0.77100003 4294967295
0.035650201 -0.11866517 0.77100003 4294967295
0.037111919 -0.11866554 0.77100003 4294967295
0.038573649 -0.11866591 0.77100003 4294967295
0.039931543 -0.11835846 0.76899999 4294967295
0.041389525 -0.11835886 0.76899999 4294967295
0.042847522 -0.11835928 0.76899999 4294967295
0.044305552 -0.11835972 0.76899999 4294967295
0.045763589 -0.11836017 0.76899999 4294967295
0.047221668 -0.11836065 0.76899999 4294967295
0.048553158 -0.1180533 0.76700002 4294967295
0.050007489 -0.11805382 0.76700002 4294967295
0.051461846 -0.11805435 0.76700002 4294967295
0.052916221 -0.11805488 0.76700002 4294967295
0.054370645 -0.11805546 0.76700002 4294967295
0.055825084 -0.11805604 0.76700002 4294967295
0.05727955 -0.11805662 0.76700002 4294967295
0.059040356 -0.11867291 0.77100003 4294967295
0.060502473 -0.11867355 0.77100003 4294967295
0.061964635 -0.11867422 0.77100003 4294967295
0.063426815 -0.11867487 0.77100003 4294967295
0.064889036 -0.11867556 0.77100003 4294967295
0.066351295 -0.11867626 0.77100003 4294967295
0.067813575 -0.11867698 0.77100003 4294967295
0.069096193 -0.11836984 0.76899999 4294967295
0.070554748 -0.11837056 0.76899999 4294967295
0.072013371 -0.11837134 0.76899999 4294967295
0.073663086 -0.11867997 0.77100003 4294967295
0.07512556 -0.11868075 0.77100003 4294967295
0.076786757 -0.11898943 0.773 4294967295
0.078556813 -0.11945206 0.77600002 4294967295
0.080028892 -0.11945289 0.77600002 4294967295
0.081711076 -0.11976162 0.778 4294967295
0.083187036 -0.1197625 0.778 4294967295
0.084445395 -0.11945552 0.77600002 4294967295
0.085917644 -0.11945641 0.77600002 4294967295
0.087389946 -0.11945731 0.77600002 4294967295
0.089091301 -0.11976612 0.778 4294967295
0.090567484 -0.11976704 0.778 4294967295
0.092280321 -0.12007587 0.77999997 4294967295
0.093880616 -0.1202308 0.78100002 4294967295
0.095606834 -0.12053967 0.78299999 4294967295
0.097092688 -0.12054065 0.78299999 4294967295
0.098578587 -0.12054168 0.78299999 4294967295
0.10006455 -0.12054271 0.78299999 4294967295
0.10180995 -0.12085162 0.78500003 4294967295
0.1032998 -0.12085268 0.78500003 4294967295
0.10505667 -0.12116162 0.787 4294967295
0.10655043 -0.1211627 0.787 4294967295
-0.00091782602 -0.12100096 0.796 4289836191
0.00058960234 -0.12069681 0.79400003 4291874243
0.0020947198 -0.12069669 0.79400003 4294967293
0.0035998332 -0.12069659 0.79400003 4294967295
0.0051178029 -0.12100054 0.796 4294967295
0.0066100527 -0.12069643 0.79400003 4294967290
0.0081151603 -0.12069639 0.79400003 4294967289
0.0095960349 -0.12039235 0.792 4294967293
0.011069329 -0.12008832 0.79000002 4294967295
0.012550949 -0.11993632 0.78899997 4294967295
0.014010979 -0.11963233 0.787 4294967295
0.015463431 -0.11932837 0.78500003 4294967295
0.016908307 -0.11902444 0.78299999 4294967295
0.01839258 -0.11902452 0.78299999 4294967295
0.019826094 -0.11872064 0.78100002 4294967295
0.021306599 -0.11872076 0.78100002 4294967295
0.022757925 -0.1185689 0.77999997 4294967295
0.024174405 -0.11826504 0.778 4294967295
0.025583314 -0.11796121 0.77600002 4294967295
0.027054379 -0.11796144 0.77600002 4294967295
0.028451936 -0.11765764 0.77399999 4294967295
0.029919233 -0.11765788 0.77399999 4294967295
0.031345997 -0.11750615 0.773 4294967295
0.032811433 -0.11750644 0.773 4294967295
0.034188196 -0.11720272 0.77100003 4294967295
0.03564987 -0.11720305 0.77100003 4294967295
0.037111562 -0.11720338 0.77100003 4294967295
0.038473215 -0.11689971 0.76899999 4294967295
0.039931156 -0.11690009 0.76899999 4294967295
0.041389119 -0.11690049 0.76899999 4294967295
0.042735662 -0.11659688 0.76700002 4294967295
0.044189882 -0.11659732 0.76700002 4294967295
0.045644112 -0.11659776 0.76700002 4294967295
0.047098372 -0.11659824 0.76700002 4294967295
0.048552662 -0.1165987 0.76700002 4294967295
0.050006974 -0.11659921 0.76700002 4294967295
0.051461309 -0.11659972 0.76700002 4294967295
0.052846685 -0.11644826 0.76599997 4294967295
0.054299183 -0.1164488 0.76599997 4294967295
0.055824496 -0.11660141 0.76700002 4294967295
0.057278946 -0.11660197 0.76700002 4294967295
0.05888658 -0.11690664 0.76899999 4294967295
0.060344882 -0.11690727 0.76899999 4294967295
0.061963979 -0.11721197 0.77100003 4294967295
0.063261613 -0.11690855 0.76899999 4294967295
0.06472002 -0.11690922 0.76899999 4294967295
0.066178471 -0.11690993 0.76899999 4294967295
0.067636952 -0.11691064 0.76899999 4294967295
0.069095463 -0.11691136 0.76899999 4294967295
0.070554018 -0.1169121 0.76899999 4294967295
0.072012603 -0.11691285 0.76899999 4294967295
0.073471233 -0.11691361 0.76899999 4294967295
0.075124785 -0.11721846 0.77100003 4294967295
0.07658729 -0.11721926 0.77100003 4294967295
0.078252286 -0.11752414 0.773 4294967295
0.080028057 -0.11798108 0.77600002 4294967295
0.081500158 -0.11798194 0.77600002 4294967295
0.08297231 -0.11798279 0.77600002 4294967295
0.084444508 -0.11798365 0.77600002 4294967295
0.085916743 -0.11798454 0.77600002 4294967295
0.08738903 -0.11798544 0.77600002 4294967295
0.088861354 -0.11798635 0.77600002 4294967295
0.090566561 -0.11829139 0.778 4294967295
0.092042774 -0.11829232 0.778 4294967295
0.09375944 -0.11859736 0.77999997 4294967295
0.09536165 -0.11875038 0.78100002 4294967295
0.096843697 -0.11875135 0.78100002 4294967295
0.098325796 -0.11875236 0.78100002 4294967295
0.099807955 -0.11875336 0.78100002 4294967295
0.10154954 -0.11905847 0.78299999 4294967295
0.10329875 -0.11936363 0.78500003 4294967295
0.10505561 -0.11966878 0.787 4294967295
0.10654935 -0.11966984 0.787 4294967295
0.10845498 -0.12012707 0.79000002 4294967295
-0.00091767043 -0.1194915 0.796 4293386714
0.00059122295 -0.11949136 0.796 4293717995
0.0020948348 -0.11919102 0.79400003 4294967295
0.0035999282 -0.1191909 0.79400003 4294967295
0.0051178774 -0.11949104 0.796 4294967291
0.0066101057 -0.11919076 0.79400003 4294967292
0.0081151947 -0.11919072 0.79400003 4294967292
0.0095960479 -0.11889045 0.792 4294967292
0.01105531 -0.11844012 0.78899997 4294967294
0.012519107 -0.11813991 0.787 4294967293
0.013975328 -0.11783972 0.78500003 4294967295
0.015423967 -0.11753954 0.78299999 4294967295
0.016908219 -0.11753961 0.78299999 4294967295
0.018392475 -0.1175397 0.78299999 4294967295
0.019825969 -0.11723959 0.78100002 4294967295
0.021306451 -0.11723972 0.78100002 4294967295
0.022757767 -0.11708976 0.77999997 4294967295
0.024112081 -0.11648947 0.77600002 4294967295
0.025517177 -0.11618944 0.77399999 4294967295
0.026984427 -0.11618964 0.77399999 4294967295
0.028414935 -0.11603976 0.773 4294967295
0.029880323 -0.11604001 0.773 4294967295
0.031264622 -0.11574004 0.77100003 4294967295
0.032726243 -0.11574034 0.77100003 4294967295
0.034187883 -0.11574063 0.77100003 4294967295
0.035557058 -0.1154407 0.76899999 4294967295
0.037014943 -0.11544103 0.76899999 4294967295
0.038472846 -0.11544141 0.76899999 4294967295
0.039930765 -0.11544178 0.76899999 4294967295
0.041281067 -0.11514194 0.76700002 4294967295
0.042735241 -0.11514235 0.76700002 4294967295
0.044131823 -0.11499265 0.76599997 4294967295
0.045584146 -0.1149931 0.76599997 4294967295
0.047097895 -0.11514367 0.76700002 4294967295
0.048488863 -0.11499403 0.76599997 4294967295
0.049941272 -0.11499453 0.76599997 4294967295
0.05139368 -0.11499503 0.76599997 4294967295
0.052846145 -0.11499557 0.76599997 4294967295
0.054298624 -0.11499611 0.76599997 4294967295
0.05575113 -0.11499668 0.76599997 4294967295
0.057203669 -0.11499728 0.76599997 4294967295
0.058885977 -0.11544825 0.76899999 4294967295
0.060344264 -0.11544887 0.76899999 4294967295
0.061802596 -0.1154495 0.76899999 4294967295
0.063260958 -0.11545017 0.76899999 4294967295
0.064719334 -0.11545081 0.76899999 4294967295
0.06617777 -0.11545151 0.76899999 4294967295
0.067636237 -0.11545219 0.76899999 4294967295
0.06909474 -0.11545291 0.76899999 4294967295
0.07055328 -0.11545364 0.76899999 4294967295
0.072011843 -0.11545438 0.76899999 4294967295
0.073470458 -0.11545514 0.76899999 4294967295
0.075123996 -0.11575619 0.77100003 4294967295
0.076586485 -0.11575698 0.77100003 4294967295
0.078049004 -0.11575777 0.77100003 4294967295
0.07971783 -0.11605888 0.773 4294967295
0.081289254 -0.11620983 0.77399999 4294967295
0.0827576 -0.11621069 0.77399999 4294967295
0.08422599 -0.11621156 0.77399999 4294967295
0.085694417 -0.11621242 0.77399999 4294967295
0.087162904 -0.11621333 0.77399999 4294967295
0.088631414 -0.11621422 0.77399999 4294967295
0.090332806 -0.11651544 0.77600002 4294967295
0.09180522 -0.11651636 0.77600002 4294967295
0.093758486 -0.1171179 0.77999997 4294967295
0.095238574 -0.11711887 0.77999997 4294967295
0.096718714 -0.11711983 0.77999997 4294967295
0.098324805 -0.11727097 0.78100002 4294967295
0.099806942 -0.11727197 0.78100002 4294967295
0.10154851 -0.11757328 0.78299999 4294967295
0.10303454 -0.11757431 0.78299999 4294967295
0.10478762 -0.11787567 0.78500003 4294967295
0.10627753 -0.1178767 0.78500003 4294967295
0.10831665 -0.11847839 0.78899997 4294967295
0.1102318 -0.11892995 0.792 4294967295
-0.0024324921 -0.11827867 0.79799998 4289635005
-0.00091751665 -0.11798207 0.796 4294966271
0.0005913566 -0.11798193 0.796 4294967295
0.0021002246 -0.11798179 0.796 4294967295
0.0036090892 -0.11798171 0.796 4294967290
0.00511795 -0.11798163 0.796 4294967033
0.0066101598 -0.11768514 0.79400003 4294967291
0.0081152283 -0.11768509 0.79400003 4294967293
0.0095718298 -0.11709218 0.79000002 4294967295
0.011055305 -0.11694398 0.78899997 4294967295
0.012487266 -0.11635111 0.78500003 4294967295
0.01390407 -0.11575826 0.78100002 4294967295
0.015384506 -0.11575834 0.78100002 4294967295
0.016864948 -0.1157584 0.78100002 4294967295
0.018345391 -0.1157585 0.78100002 4294967295
0.019825846 -0.11575861 0.78100002 4294967295
0.02127903 -0.11561053 0.77999997 4294967295
0.022640897 -0.11501779 0.77600002 4294967295
0.024111904 -0.11501797 0.77600002 4294967295
0.025484016 -0.11457351 0.773 4294967295
0.026949348 -0.11457372 0.773 4294967295
0.028414698 -0.11457393 0.773 4294967295
0.029802755 -0.11427773 0.77100003 4294967295
0.031264346 -0.114278 0.77100003 4294967295
0.032725945 -0.11427827 0.77100003 4294967295
0.034098882 -0.11398212 0.76899999 4294967295
0.035556726 -0.11398244 0.76899999 4294967295
0.0370146 -0.11398278 0.76899999 4294967295
0.038372427 -0.1136867 0.76700002 4294967295
0.039826538 -0.11368709 0.76700002 4294967295
0.041280672 -0.11368746 0.76700002 4294967295
0.042679101 -0.11353964 0.76599997 4294967295
0.044016171 -0.11324362 0.764 4294967295
0.045464672 -0.11324403 0.764 4294967295
0.047036022 -0.11354095 0.76599997 4294967295
0.048361786 -0.11324498 0.764 4294967295
0.049810369 -0.11324548 0.764 4294967295
0.051393166 -0.11354243 0.76599997 4294967295
0.05270762 -0.11324649 0.764 4294967295
0.054156307 -0.11324705 0.764 4294967295
0.055604994 -0.11324758 0.764 4294967295
0.057203092 -0.11354464 0.76599997 4294967295
0.058732223 -0.11369345 0.76700002 4294967295
0.060343634 -0.11399052 0.76899999 4294967295
0.061801959 -0.11399116 0.76899999 4294967295
0.063260294 -0.11399179 0.76899999 4294967295
0.064718679 -0.11399246 0.76899999 4294967295
0.066177085 -0.11399313 0.76899999 4294967295
0.067459643 -0.11369735 0.76700002 4294967295
0.068914339 -0.11369805 0.76700002 4294967295
0.070369057 -0.11369876 0.76700002 4294967295
0.071823828 -0.11369951 0.76700002 4294967295
0.073278621 -0.11370024 0.76700002 4294967295
0.074928336 -0.11399747 0.76899999 4294967295
0.076387018 -0.11399826 0.76899999 4294967295
0.077845737 -0.11399905 0.76899999 4294967295
0.079510763 -0.11429635 0.77100003 4294967295
0.080973357 -0.11429717 0.77100003 4294967295
0.082435995 -0.11429801 0.77100003 4294967295
0.084116317 -0.11459536 0.773 4294967295
0.085582837 -0.1145962 0.773 4294967295
0.086824171 -0.11430058 0.77100003 4294967295
0.088287003 -0.11430149 0.77100003 4294967295
0.090099066 -0.11474712 0.77399999 4294967295
0.091567673 -0.11474804 0.77399999 4294967295
0.093517132 -0.11534199 0.778 4294967295
0.09499342 -0.11534294 0.778 4294967295
0.096469752 -0.11534388 0.778 4294967295
0.098197915 -0.11564136 0.77999997 4294967295
0.099805959 -0.11579062 0.78100002 4294967295
0.10154752 -0.11608812 0.78299999 4294967295
0.10303353 -0.11608914 0.78299999 4294967295
0.10478656 -0.11638667 0.78500003 4294967295
0.1062765 -0.1163877 0.78500003 4294967295
0.10831558 -0.1169818 0.78899997 4294967295
0.11023073 -0.11742766 0.792 4294967295
-0.0024323198 -0.11676551 0.79799998 4291873993
-0.00091736473 -0.1164727 0.796 4294967295
0.00059148861 -0.11647256 0.796 4294967294
0.0021003371 -0.11647247 0.796 4294967292
0.0036091811 -0.11647235 0.796 4294967289
0.0051180227 -0.11647226 0.796 4294967289
0.0066102124 -0.11617958 0.79400003 4294967292
0.008115259 -0.11617952 0.79400003 4294967292
0.0095718428 -0.11559422 0.79000002 4294967293
0.011027274 -0.11515523 0.787 4294967295
0.012423609 -0.11427732 0.78100002 4294967295
0.013886222 -0.11413104 0.77999997 4294967295
0.01536474 -0.11413109 0.77999997 4294967295
0.016843269 -0.11413115 0.77999997 4294967295
0.018321801 -0.11413126 0.77999997 4294967295
0.019800337 -0.11413136 0.77999997 4294967295
0.021224324 -0.11383885 0.778 4294967294
0.022640739 -0.11354637 0.77600002 4294967295
0.02404958 -0.11325389 0.77399999 4294967295
0.025483815 -0.11310773 0.773 4294967295
0.026949132 -0.11310794 0.773 4294967295
0.028340954 -0.11281554 0.77100003 4294967295
0.029802511 -0.11281577 0.77100003 4294967295
0.031264078 -0.11281602 0.77100003 4294967295
0.032725662 -0.11281631 0.77100003 4294967295
0.03409858 -0.11252394 0.76899999 4294967295
0.035556406 -0.11252426 0.76899999 4294967295
0.037014253 -0.11252458 0.76899999 4294967295
0.038372066 -0.11223229 0.76700002 4294967295
0.039826158 -0.11223266 0.76700002 4294967295
0.04122645 -0.1120867 0.76599997 4294967295
0.042678688 -0.11208711 0.76599997 4294967295
0.044015735 -0.11179487 0.764 4294967295
0.045464233 -0.11179531 0.764 4294967295
0.046912748 -0.11179575 0.764 4294967295
0.048361301 -0.11179623 0.764 4294967295
0.049809873 -0.11179671 0.764 4294967295
0.051258471 -0.1117972 0.764 4294967295
0.052707095 -0.11179773 0.764 4294967295
0.054155748 -0.11179826 0.764 4294967295
0.055604436 -0.11179881 0.764 4294967295
0.057053152 -0.11179937 0.764 4294967295
0.058655046 -0.11209264 0.76599997 4294967295
0.060186084 -0.11223957 0.76700002 4294967295
0.061640594 -0.11224017 0.76700002 4294967295
0.063095137 -0.11224083 0.76700002 4294967295
0.064549699 -0.11224147 0.76700002 4294967295
0.066004299 -0.11224213 0.76700002 4294967295
0.067458935 -0.1122428 0.76700002 4294967295
0.068913616 -0.11224351 0.76700002 4294967295
0.070368335 -0.11224422 0.76700002 4294967295
0.071823075 -0.11224493 0.76700002 4294967295
0.073277883 -0.11224567 0.76700002 4294967295
0.074732699 -0.11224642 0.76700002 4294967295
0.076187581 -0.11224719 0.76700002 4294967295
0.077844948 -0.11254066 0.76899999 4294967295
0.079303697 -0.11254147 0.76899999 4294967295
0.080972537 -0.11283498 0.77100003 4294967295
0.082435161 -0.11283579 0.77100003 4294967295
0.083897822 -0.11283662 0.77100003 4294967295
0.085360549 -0.11283749 0.77100003 4294967295
0.086823307 -0.11283837 0.77100003 4294967295
0.088286109 -0.11283923 0.77100003 4294967295
0.089748964 -0.11284012 0.77100003 4294967295
0.091211855 -0.11284102 0.77100003 4294967295
0.093275808 -0.11357372 0.77600002 4294967295
0.094748281 -0.11357463 0.77600002 4294967295
0.096468799 -0.11386831 0.778 4294967295
0.097945169 -0.11386928 0.778 4294967295
0.099804975 -0.11430933 0.78100002 4294967295
0.10154649 -0.11460301 0.78299999 4294967295
0.10303251 -0.11460402 0.78299999 4294967295
0.10478555 -0.11489776 0.78500003 4294967295
0.10627547 -0.11489876 0.78500003 4294967295
0.10803998 -0.11519255 0.787 4294967295
0.10995133 -0.1156327 0.79000002 4294967295
0.11229733 -0.11651196 0.796 4294967295
0.11380834 -0.11651303 0.796 4294967295
0.1158989 -0.11709962 0.80000001 4294967295
-0.002438246 -0.11554126 0.80000001 4294768367
-0.00091951946 -0.11525223 0.79799998 4294967295
0.00059310539 -0.11525209 0.79799998 4294967292
0.0021057252 -0.11525198 0.79799998 4294966776
0.0036092724 -0.11496302 0.796 4294967032
0.0051180944 -0.11496296 0.796 4294967032
0.0065936139 -0.11438518 0.792 4294967293
0.0080744093 -0.1140963 0.79000002 4294967294
0.0095355064 -0.11366298 0.787 4294967294
0.010971219 -0.11308528 0.78299999 4294967294
0.012423586 -0.11279646 0.78100002 4294967295
0.013886175 -0.11265205 0.77999997 4294967295
0.015364676 -0.11265209 0.77999997 4294967295
0.016843183 -0.11265218 0.77999997 4294967295
0.018321697 -0.11265228 0.77999997 4294967295
0.01974945 -0.11236353 0.778 4294967295
0.021224186 -0.11236365 0.778 4294967295
0.022640582 -0.11207497 0.77600002 4294967295
0.024018329 -0.11164183 0.773 4294967295
0.025417686 -0.11135317 0.77100003 4294967295
0.026879195 -0.11135336 0.77100003 4294967295
0.028267199 -0.11106474 0.76899999 4294967295
0.029724952 -0.11106499 0.76899999 4294967295
0.031182706 -0.11106523 0.76899999 4294967295
0.032640487 -0.11106551 0.76899999 4294967295
0.034098279 -0.1110658 0.76899999 4294967295
0.035463616 -0.11077725 0.76700002 4294967295
0.036917653 -0.11077756 0.76700002 4294967295
0.038321681 -0.1106335 0.76599997 4294967295
0.039773859 -0.11063384 0.76599997 4294967295
0.041226063 -0.11063423 0.76599997 4294967295
0.042566855 -0.11034574 0.764 4294967295
0.044015314 -0.11034617 0.764 4294967295
0.045463793 -0.1103466 0.764 4294967295
0.04678949 -0.11005817 0.76200002 4294967295
0.048234235 -0.11005866 0.76200002 4294967295
0.049679 -0.11005913 0.76200002 4294967295
0.051123783 -0.11005961 0.76200002 4294967295
0.0525686 -0.11006011 0.76200002 4294967295
0.05401345 -0.11006063 0.76200002 4294967295
0.055458322 -0.11006119 0.76200002 4294967295
0.05705259 -0.11035062 0.764 4294967295
0.058654457 -0.11064009 0.76599997 4294967295
0.060185485 -0.1107851 0.76700002 4294967295
0.061639976 -0.11078573 0.76700002 4294967295
0.063094497 -0.11078635 0.76700002 4294967295
0.064549044 -0.11078699 0.76700002 4294967295
0.066003636 -0.11078764 0.76700002 4294967295
0.06737031 -0.11064386 0.76599997 4294967295
0.068823069 -0.11064453 0.76599997 4294967295
0.07027588 -0.11064524 0.76599997 4294967295
0.071728714 -0.11064596 0.76599997 4294967295
0.073181592 -0.11064667 0.76599997 4294967295
0.074634515 -0.11064743 0.76599997 4294967295
0.076087475 -0.11064819 0.76599997 4294967295
0.077641711 -0.1107934 0.76700002 4294967295
0.0793029 -0.11108309 0.76899999 4294967295
0.080761671 -0.11108388 0.76899999 4294967295
0.082220495 -0.11108471 0.76899999 4294967295
0.083896987 -0.11137445 0.77100003 4294967295
0.085359685 -0.11137527 0.77100003 4294967295
0.086822435 -0.11137614 0.77100003 4294967295
0.088285223 -0.11137699 0.77100003 4294967295
0.089748062 -0.11137788 0.77100003 4294967295
0.091210954 -0.11137876 0.77100003 4294967295
0.092914283 -0.1116686 0.773 4294967295
0.094503149 -0.11181397 0.77399999 4294967295
0.09621986 -0.11210383 0.77600002 4294967295
0.097944193 -0.11239368 0.778 4294967295
0.099420637 -0.11239465 0.778 4294967295
0.10128615 -0.11282901 0.78100002 4294967295
0.10276835 -0.11282998 0.78100002 4294967295
0.10451758 -0.11311993 0.78299999 4294967295
0.10600368 -0.11312092 0.78299999 4294967295
0.10776439 -0.1134109 0.78500003 4294967295
0.10981111 -0.11398982 0.78899997 4294967295
0.11144983 -0.11413532 0.79000002 4294967295
0.11352133 -0.11471428 0.79400003 4294967295
0.11502857 -0.11471533 0.79400003 4294967295
0.11624233 -0.11442745 0.792 4294967295
0.11774591 -0.11442852 0.792 4294967295
-0.0054845824 -0.11430983 0.80199999 4289045155
-0.0039643729 -0.11430962 0.80199999 4294506231
-0.0024380775 -0.11402438 0.80000001 4294967293
-0.00091937097 -0.11373917 0.79799998 4294967295
0.00059323432 -0.11373903 0.79799998 4294967291
0.0021005569 -0.11345385 0.796 4294967034
0.0036093618 -0.11345376 0.796 4294901239
0.0051053055 -0.11316862 0.79400003 4294967289
0.0065520378 -0.11217086 0.787 4294967291
0.0080233356 -0.11188575 0.78500003 4294967293
0.0094870534 -0.11160067 0.78299999 4294967295
0.010929177 -0.11117306 0.77999997 4294967295
0.012407652 -0.11117309 0.77999997 4294967295
0.013886133 -0.11117314 0.77999997 4294967295
0.015325219 -0.11088812 0.778 4294967295
0.016799917 -0.1108882 0.778 4294967295
0.01827462 -0.11088828 0.778 4294967295
0.01969856 -0.11060333 0.77600002 4294967295
0.021169489 -0.11060347 0.77600002 4294967295
0.022582075 -0.11031855 0.77399999 4294967295
0.023956014 -0.10989111 0.77100003 4294967295
0.025417496 -0.1098913 0.77100003 4294967295
0.026809264 -0.10960642 0.76899999 4294967295
0.028266972 -0.10960664 0.76899999 4294967295
0.029724708 -0.10960689 0.76899999 4294967295
0.031182446 -0.10960714 0.76899999 4294967295
0.032640208 -0.1096074 0.76899999 4294967295
0.034097977 -0.1096077 0.76899999 4294967295
0.0354633 -0.10932293 0.76700002 4294967295
0.036869187 -0.10918071 0.76599997 4294967295
0.038321331 -0.10918105 0.76599997 4294967295
0.03977349 -0.1091814 0.76599997 4294967295
0.041225679 -0.10918178 0.76599997 4294967295
0.042566456 -0.10889709 0.764 4294967295
0.044014893 -0.1088975 0.764 4294967295
0.045344349 -0.10861288 0.76200002 4294967295
0.046789043 -0.1086133 0.76200002 4294967295
0.048233766 -0.10861377 0.76200002 4294967295
0.049678519 -0.10861423 0.76200002 4294967295
0.051123288 -0.10861473 0.76200002 4294967295
0.052568082 -0.10861523 0.76200002 4294967295
0.054012913 -0.10861574 0.76200002 4294967295
0.055457782 -0.10861629 0.76200002 4294967295
0.056902677 -0.10861684 0.76200002 4294967295
0.058653872 -0.10918756 0.76599997 4294967295
0.060106415 -0.10918814 0.76599997 4294967295
0.061558995 -0.10918874 0.76599997 4294967295
0.063011602 -0.10918936 0.76599997 4294967295
0.064464241 -0.10918999 0.76599997 4294967295
0.065916918 -0.10919064 0.76599997 4294967295
0.067369625 -0.10919128 0.76599997 4294967295
0.068822384 -0.10919197 0.76599997 4294967295
0.070275173 -0.10919268 0.76599997 4294967295
0.071727991 -0.10919335 0.76599997 4294967295
0.073180869 -0.1091941 0.76599997 4294967295
0.07463377 -0.10919482 0.76599997 4294967295
0.076086715 -0.10919556 0.76599997 4294967295
0.077640936 -0.10933889 0.76700002 4294967295
0.07909587 -0.10933966 0.76700002 4294967295
0.080760881 -0.10962557 0.76899999 4294967295
0.082219675 -0.10962636 0.76899999 4294967295
0.083678529 -0.10962719 0.76899999 4294967295
0.085137427 -0.109628 0.76899999 4294967295
0.086596355 -0.10962884 0.76899999 4294967295
0.088055342 -0.1096297 0.76899999 4294967295
0.089747183 -0.10991569 0.77100003 4294967295
0.091210067 -0.10991657 0.77100003 4294967295
0.092672981 -0.10991745 0.77100003 4294967295
0.094380133 -0.11020349 0.773 4294967295
0.095846966 -0.11020441 0.773 4294967295
0.097439691 -0.11034789 0.77399999 4294967295
0.098908529 -0.11034884 0.77399999 4294967295
0.10089612 -0.11092006 0.778 4294967295
0.10263579 -0.11120617 0.77999997 4294967295
0.10424963 -0.11134974 0.78100002 4294967295
0.10600268 -0.11163586 0.78299999 4294967295
0.10748883 -0.11163686 0.78299999 4294967295
0.10953175 -0.11220817 0.787 4294967295
0.11144881 -0.11263695 0.79000002 4294967295
0.11323433 -0.11292312 0.792 4294967295
0.11473776 -0.11292417 0.792 4294967295
0.11624128 -0.11292522 0.792 4294967295
0.11774483 -0.1129263 0.792 4294967295
0.11924842 -0.11292736 0.792 4294835709
-0.005484377 -0.11278922 0.80199999 4291216088
-0.003964188 -0.11278901 0.80199999 4294967295
-0.0024379119 -0.11250758 0.80000001 4294967295
-0.00091922464 -0.11222617 0.79799998 4294967295
0.00059336156 -0.11222604 0.79799998 4294967293
0.0021006644 -0.11194463 0.796 4294967291
0.0036094508 -0.11194453 0.796 4294900987
0.005079655 -0.11110067 0.79000002 4294967293
0.0065354374 -0.11039743 0.78500003 4294967293
0.0080029257 -0.11011613 0.78299999 4294967294
0.0094870646 -0.11011608 0.78299999 4294967295
0.010929172 -0.10969421 0.77999997 4294967295
0.012407629 -0.10969421 0.77999997 4294967295
0.013850483 -0.10941298 0.778 4294967295
0.015325158 -0.10941304 0.778 4294967295
0.016799835 -0.1094131 0.778 4294967295
0.018227544 -0.10913193 0.77600002 4294967295
0.019647673 -0.10885075 0.77399999 4294967295
0.021087516 -0.10871027 0.773 4294967295
0.022552745 -0.10871041 0.773 4294967295
0.023955846 -0.10842929 0.77100003 4294967295
0.025351375 -0.10814821 0.76899999 4294967295
0.026809055 -0.1081484 0.76899999 4294967295
0.028193239 -0.10786735 0.76700002 4294967295
0.029647155 -0.10786756 0.76700002 4294967295
0.031101091 -0.10786782 0.76700002 4294967295
0.03255504 -0.10786809 0.76700002 4294967295
0.034009002 -0.10786836 0.76700002 4294967295
0.035462987 -0.10786865 0.76700002 4294967295
0.036868863 -0.10772833 0.76599997 4294967295
0.038320985 -0.10772868 0.76599997 4294967295
0.039773133 -0.10772903 0.76599997 4294967295
0.041225296 -0.10772938 0.76599997 4294967295
0.042566061 -0.10744851 0.764 4294967295
0.044014491 -0.10744892 0.764 4294967295
0.045343917 -0.10716803 0.76200002 4294967295
0.046727192 -0.10702782 0.76099998 4294967295
0.048170004 -0.10702829 0.76099998 4294967295
0.049482446 -0.10674746 0.759 4294967295
0.050921522 -0.10674793 0.759 4294967295
0.052498586 -0.10702971 0.76099998 4294967295
0.053941507 -0.10703024 0.76099998 4294967295
0.055384453 -0.10703076 0.76099998 4294967295
0.056827437 -0.10703131 0.76099998 4294967295
0.05850016 -0.1074538 0.764 4294967295
0.059948895 -0.10745438 0.764 4294967295
0.061397668 -0.10745498 0.764 4294967295
0.062846467 -0.10745558 0.764 4294967295
0.064295299 -0.10745621 0.764 4294967295
0.065744169 -0.10745683 0.764 4294967295
0.067017175 -0.10717618 0.76200002 4294967295
0.068462327 -0.10717685 0.76200002 4294967295
0.069907516 -0.10717753 0.76200002 4294967295
0.071540013 -0.10745954 0.764 4294967295
0.072989076 -0.10746024 0.764 4294967295
0.074438177 -0.10746096 0.764 4294967295
0.075887315 -0.10746169 0.764 4294967295
0.077538952 -0.10774375 0.76599997 4294967295
0.078991957 -0.10774451 0.76599997 4294967295
0.080550052 -0.10788597 0.76700002 4294967295
0.082005046 -0.10788675 0.76700002 4294967295
0.083677709 -0.10816886 0.76899999 4294967295
0.0851366 -0.10816968 0.76899999 4294967295
0.08659552 -0.10817051 0.76899999 4294967295
0.088054501 -0.10817137 0.76899999 4294967295
0.089746326 -0.10845354 0.77100003 4294967295
0.091209181 -0.10845441 0.77100003 4294967295
0.092672087 -0.10845529 0.77100003 4294967295
0.094379246 -0.10873753 0.773 4294967295
0.095846049 -0.10873841 0.773 4294967295
0.097312883 -0.10873934 0.773 4294967295
0.098907582 -0.10888093 0.77399999 4294967295
0.1006358 -0.10916322 0.77600002 4294967295
0.10263483 -0.10972686 0.77999997 4294967295
0.10424865 -0.1098685 0.78100002 4294967295
0.10600168 -0.11015083 0.78299999 4294967295
0.10748783 -0.11015182 0.78299999 4294967295
0.10953073 -0.11071555 0.787 4294967295
0.11130669 -0.1109979 0.78899997 4294967295
0.11294734 -0.1111396 0.79000002 4294967295
0.11473673 -0.111422 0.792 4294967295
0.11624023 -0.11142305 0.792 4294967295
0.11774376 -0.1114241 0.792 4294967295
0.11924736 -0.11142515 0.792 4294967295
0.12075101 -0.1114262 0.792 4293851131
-0.0070130867 -0.11140759 0.80299997 4292532954
-0.0054841749 -0.11126867 0.80199999 4292995301
-0.003964005 -0.11126848 0.80199999 4294770687
-0.0024377478 -0.11099084 0.80000001 4294901241
-0.00092138379 -0.11099067 0.80000001 4294967034
0.000593487 -0.11071304 0.79799998 4294967291
0.0021007711 -0.11043546 0.796 4294967291
0.0036004691 -0.11015788 0.79400003 4294967034
0.0050732931 -0.10946413 0.78899997 4294967292
0.0065188347 -0.10863163 0.78299999 4294967292
0.0080029564 -0.10863159 0.78299999 4294967292
0.0094628446 -0.10835412 0.78100002 4294967293
0.010929164 -0.10821536 0.77999997 4294967295
0.012407603 -0.10821538 0.77999997 4294967295
0.013850438 -0.10793795 0.778 4294967295
0.015285701 -0.10766052 0.77600002 4294967295
0.01675657 -0.10766059 0.77600002 4294967295
0.018180467 -0.10738321 0.77399999 4294967295
0.019647559 -0.1073833 0.77399999 4294967295
0.021032821 -0.10696721 0.77100003 4294967295
0.022494242 -0.10696735 0.77100003 4294967295
0.023893533 -0.10669004 0.76899999 4294967295
0.025351185 -0.10669021 0.76899999 4294967295
0.026808852 -0.10669041 0.76899999 4294967295
0.028193017 -0.10641313 0.76700002 4294967295
0.029646918 -0.10641334 0.76700002 4294967295
0.031100838 -0.10641361 0.76700002 4294967295
0.032554772 -0.10641387 0.76700002 4294967295
0.034008719 -0.10641415 0.76700002 4294967295
0.035462685 -0.10641445 0.76700002 4294967295
0.036868539 -0.10627601 0.76599997 4294967295
0.038320642 -0.10627633 0.76599997 4294967295
0.039668925 -0.10599921 0.764 4294967295
0.041009653 -0.10572208 0.76200002 4294967295
0.042454246 -0.10572246 0.76200002 4294967295
0.043841247 -0.1055841 0.76099998 4294967295
0.045283984 -0.10558451 0.76099998 4294967295
0.046481151 -0.10502998 0.75700003 4294967295
0.047789771 -0.10475292 0.755 4294967295
0.049221206 -0.10475337 0.755 4294967295
0.050652679 -0.10475384 0.755 4294967295
0.052222148 -0.10503183 0.75700003 4294967295
0.053657472 -0.10503233 0.75700003 4294967295
0.055092819 -0.10503285 0.75700003 4294967295
0.056677539 -0.10531086 0.759 4294967295
0.058269881 -0.10558893 0.76099998 4294967295
0.059791386 -0.10572825 0.76200002 4294967295
0.061236344 -0.10572883 0.76200002 4294967295
0.06268134 -0.10572942 0.76200002 4294967295
0.064126365 -0.10573003 0.76200002 4294967295
0.065571427 -0.10573068 0.76200002 4294967295
0.06701652 -0.10573129 0.76200002 4294967295
0.068461664 -0.10573196 0.76200002 4294967295
0.069906831 -0.10573263 0.76200002 4294967295
0.07135205 -0.10573331 0.76200002 4294967295
0.072797298 -0.10573401 0.76200002 4294967295
0.074437454 -0.10601223 0.764 4294967295
0.075886585 -0.10601297 0.764 4294967295
0.077335753 -0.1060137 0.764 4294967295
0.078784965 -0.10601446 0.764 4294967295
0.080444247 -0.10629272 0.76599997 4294967295
0.082004257 -0.10643228 0.76700002 4294967295
0.08345928 -0.10643307 0.76700002 4294967295
0.08513578 -0.10671141 0.76899999 4294967295
0.086594701 -0.10671224 0.76899999 4294967295
0.088053651 -0.10671306 0.76899999 4294967295
0.089512661 -0.1067139 0.76899999 4294967295
0.091208331 -0.1069923 0.77100003 4294967295
0.092671223 -0.10699318 0.77100003 4294967295
0.094134174 -0.10699404 0.77100003 4294967295
0.095845133 -0.10727247 0.773 4294967295
0.097311966 -0.10727337 0.773 4294967295
0.098778889 -0.10727429 0.773 4294967295
0.10063486 -0.10769155 0.77600002 4294967295
0.10237072 -0.10797004 0.778 4294967295
0.1041142 -0.10824855 0.77999997 4294967295
0.10572997 -0.1083883 0.78100002 4294967295
0.10748684 -0.10866684 0.78299999 4294967295
0.10952973 -0.10922293 0.787 4294967295
0.11130569 -0.1095015 0.78899997 4294967295
0.11294635 -0.10964128 0.79000002 4294967295
0.11473569 -0.10991988 0.792 4294967295
0.11623918 -0.10992091 0.792 4294967295
0.11774273 -0.10992195 0.792 4294967295
0.11924632 -0.10992299 0.792 4294967295
0.12074998 -0.10992405 0.792 4294967295
-0.0070128692 -0.1098852 0.80299997 4293915638
-0.0054839752 -0.10974818 0.80199999 4294967286
-0.0039638239 -0.10974798 0.80199999 4294967288
-0.0024375867 -0.10947414 0.80000001 4294966776
-0.00091893767 -0.10920029 0.79799998 4294966519
0.00059212313 -0.10892648 0.796 4294967032
0.0021008758 -0.10892637 0.796 4294901239
0.0035824163 -0.10810522 0.79000002 4294967034
0.0050476398 -0.10742094 0.78500003 4294967294
0.0065188836 -0.10714719 0.78299999 4294967291
0.0080029862 -0.10714714 0.78299999 4294967291
0.0094628567 -0.10687344 0.78100002 4294967291
0.010929157 -0.10673658 0.77999997 4294967295
0.012407578 -0.1067366 0.77999997 4294967295
0.013850398 -0.10646296 0.778 4294967294
0.015285639 -0.10618933 0.77600002 4294967294
0.016756494 -0.10618939 0.77600002 4294967295
0.018156881 -0.10577895 0.773 4294967295
0.019571291 -0.10550538 0.77100003 4294967295
0.02097813 -0.10523181 0.76899999 4294967295
0.022435743 -0.10523196 0.76899999 4294967295
0.023893373 -0.10523211 0.76899999 4294967295
0.025285076 -0.10495859 0.76700002 4294967295
0.026738932 -0.10495879 0.76700002 4294967295
0.02815604 -0.10482214 0.76599997 4294967295
0.029608032 -0.10482236 0.76599997 4294967295
0.031060036 -0.1048226 0.76599997 4294967295
0.03251205 -0.10482286 0.76599997 4294967295
0.033964086 -0.10482313 0.76599997 4294967295
0.035416141 -0.10482344 0.76599997 4294967295
0.036771961 -0.10455006 0.764 4294967295
0.038220257 -0.10455038 0.764 4294967295
0.039564744 -0.10427704 0.76200002 4294967295
0.041009285 -0.10427739 0.76200002 4294967295
0.042398144 -0.10414091 0.76099998 4294967295
0.043840848 -0.10414129 0.76099998 4294967295
0.045164566 -0.10386802 0.759 4294967295
0.046480715 -0.10359472 0.75700003 4294967295
0.04778932 -0.10332146 0.755 4294967295
0.049220752 -0.10332191 0.755 4294967295
0.050652198 -0.10332236 0.755 4294967295
0.05222166 -0.10359656 0.75700003 4294967295
0.053656965 -0.10359704 0.75700003 4294967295
0.055092294 -0.10359757 0.75700003 4294967295
0.056677002 -0.10387179 0.759 4294967295
0.058269329 -0.10414604 0.76099998 4294967295
0.059790809 -0.10428346 0.76200002 4294967295
0.061235756 -0.10428403 0.76200002 4294967295
0.062680744 -0.10428462 0.76200002 4294967295
0.064125754 -0.10428523 0.76200002 4294967295
0.065570794 -0.10428584 0.76200002 4294967295
0.067015879 -0.10428647 0.76200002 4294967295
0.068461008 -0.10428714 0.76200002 4294967295
0.069906168 -0.10428779 0.76200002 4294967295
0.071351364 -0.10428847 0.76200002 4294967295
0.072796598 -0.10428914 0.76200002 4294967295
0.074241884 -0.10428984 0.76200002 4294967295
0.0756872 -0.10429056 0.76200002 4294967295
0.077335007 -0.10456501 0.764 4294967295
0.078784205 -0.10456575 0.764 4294967295
0.080443472 -0.10484023 0.76599997 4294967295
0.081896551 -0.104841 0.76599997 4294967295
0.083458498 -0.10497865 0.76700002 4294967295
0.084913559 -0.10497945 0.76700002 4294967295
0.086593866 -0.10525399 0.76899999 4294967295
0.088052824 -0.10525481 0.76899999 4294967295
0.089511812 -0.10525564 0.76899999 4294967295
0.090970874 -0.10525649 0.76899999 4294967295
0.092670351 -0.10553108 0.77100003 4294967295
0.094133288 -0.10553195 0.77100003 4294967295
0.095844246 -0.10580658 0.773 4294967295
0.09731108 -0.10580748 0.773 4294967295
0.098777965 -0.10580836 0.773 4294967295
0.10063394 -0.10621992 0.77600002 4294967295
0.10236978 -0.10649461 0.778 4294967295
0.1038463 -0.10649554 0.778 4294967295
0.10559363 -0.10677025 0.77999997 4294967295
0.10721132 -0.1069081 0.78100002 4294967295
0.10925041 -0.10745662 0.78500003 4294967295
0.11102255 -0.10773137 0.787 4294967295
0.11294533 -0.10814302 0.79000002 4294967295
0.11444497 -0.10814404 0.79000002 4294967295
0.11623815 -0.10841882 0.792 4294967295
0.11774168 -0.10841984 0.792 4294967295
0.11924528 -0.10842089 0.792 4294967295
0.12074893 -0.10842191 0.792 4294967295
-0.0070126555 -0.10836287 0.80299997 4294965757
-0.0054906164 -0.10836265 0.80299997 4294967293
-0.0039537614 -0.10795764 0.80000001 4294967292
-0.0024374272 -0.10795746 0.80000001 4294703603
-0.00090958638 -0.10660785 0.79000002 4294901239
0.00058703677 -0.10647277 0.78899997 4294966776
0.0020772247 -0.10620277 0.787 4294966776
0.0035598269 -0.10593279 0.78500003 4294966521
0.0050348449 -0.10566282 0.78299999 4294966778
0.0065189316 -0.10566276 0.78299999 4294967033
0.0079825744 -0.10539283 0.78100002 4294967033
0.0094628679 -0.10539281 0.78100002 4294901241
0.010929152 -0.10525785 0.77999997 4294967294
0.012407554 -0.10525788 0.77999997 4294967295
0.013850357 -0.10498802 0.778 4294967295
0.015285579 -0.10471817 0.77600002 4294967295
0.016713228 -0.10444836 0.77399999 4294967295
0.018109811 -0.1040436 0.77100003 4294967295
0.019571181 -0.10404371 0.77100003 4294967295
0.020978 -0.10377391 0.76899999 4294967295
0.0224356 -0.10377407 0.76899999 4294967295
0.023893207 -0.10377422 0.76899999 4294967295
0.02528489 -0.10350448 0.76700002 4294967295
0.026738729 -0.10350467 0.76700002 4294967295
0.028155824 -0.10336991 0.76599997 4294967295
0.029607799 -0.10337015 0.76599997 4294967295
0.031059787 -0.10337038 0.76599997 4294967295
0.032511789 -0.10337064 0.76599997 4294967295
0.033963803 -0.1033709 0.76599997 4294967295
0.035323378 -0.10310131 0.764 4294967295
0.03677164 -0.1031016 0.764 4294967295
0.038219932 -0.10310195 0.764 4294967295
0.039564386 -0.10283235 0.76200002 4294967295
0.040955104 -0.10269776 0.76099998 4294967295
0.042397767 -0.10269812 0.76099998 4294967295
0.043840457 -0.10269851 0.76099998 4294967295
0.045164157 -0.10242902 0.759 4294967295
0.046480298 -0.10215952 0.75700003 4294967295
0.047915477 -0.10215995 0.75700003 4294967295
0.04935069 -0.10216039 0.75700003 4294967295
0.050785918 -0.10216085 0.75700003 4294967295
0.052221175 -0.10216133 0.75700003 4294967295
0.053656459 -0.10216181 0.75700003 4294967295
0.055091787 -0.10216232 0.75700003 4294967295
0.056676477 -0.10243275 0.759 4294967295
0.058115643 -0.10243328 0.759 4294967295
0.059711784 -0.10270376 0.76099998 4294967295
0.061235182 -0.10283927 0.76200002 4294967295
0.062680155 -0.10283986 0.76200002 4294967295
0.064125143 -0.10284044 0.76200002 4294967295
0.065570176 -0.10284105 0.76200002 4294967295
0.067015246 -0.10284168 0.76200002 4294967295
0.068460353 -0.10284232 0.76200002 4294967295
0.069905505 -0.10284297 0.76200002 4294967295
0.071350679 -0.10284362 0.76200002 4294967295
0.072795913 -0.1028443 0.76200002 4294967295
0.074241176 -0.10284499 0.76200002 4294967295
0.075686485 -0.1028457 0.76200002 4294967295
0.077131838 -0.10284641 0.76200002 4294967295
0.078577235 -0.10284715 0.76200002 4294967295
0.080232695 -0.10311782 0.764 4294967295
0.081895784 -0.10338851 0.76599997 4294967295
0.083348893 -0.10338929 0.76599997 4294967295
0.084912755 -0.10352505 0.76700002 4294967295
0.08636786 -0.10352584 0.76700002 4294967295
0.087823004 -0.10352663 0.76700002 4294967295
0.089510985 -0.10379741 0.76899999 4294967295
0.090970024 -0.10379825 0.76899999 4294967295
0.092429101 -0.10379907 0.76899999 4294967295
0.094132416 -0.10406987 0.77100003 4294967295
0.095843375 -0.10434071 0.773 4294967295
0.097310185 -0.1043416 0.773 4294967295
0.098777063 -0.10434248 0.773 4294967295
0.10037366 -0.10447837 0.77399999 4294967295
0.10236885 -0.10501921 0.778 4294967295
0.10384537 -0.10502014 0.778 4294967295
0.10532194 -0.10502107 0.778 4294967295
0.10679857 -0.10502201 0.778 4294967295
0.1089711 -0.10569791 0.78299999 4294967295
0.11102158 -0.10623883 0.787 4294967295
0.11280137 -0.10650978 0.78899997 4294967295
0.11444397 -0.10664578 0.79000002 4294967295
0.11594362 -0.10664677 0.79000002 4294967295
0.11744336 -0.10664778 0.79000002 4294967295
0.11924427 -0.10691879 0.792 4294967295
0.12074788 -0.1069198 0.792 4294967295
-0.0054904222 -0.10684035 0.80299997 4294967033
-0.0039535868 -0.10644104 0.80000001 4294967033
-0.00243727 -0.10644084 0.80000001 4294966259
-0.00090829784 -0.10497714 0.78899997 4294834930
0.00058715581 -0.10497702 0.78899997 4294966776
0.0020720465 -0.1044447 0.78500003 4294967291
0.0035599102 -0.10444462 0.78500003 4294835191
0.00503491 -0.10417845 0.78299999 4294835191
0.006502327 -0.10391228 0.78100002 4294966776
0.0079826042 -0.10391225 0.78100002 4294967290
0.00946288 -0.10391223 0.78100002 4294967291
0.010929146 -0.10377915 0.77999997 4294967292
0.01240753 -0.10377917 0.77999997 4294967294
0.013850314 -0.10351313 0.778 4294967295
0.015285521 -0.10324706 0.77600002 4294967295
0.016713152 -0.10298103 0.77399999 4294967295
0.01810972 -0.10258199 0.77100003 4294967295
0.019571073 -0.10258207 0.77100003 4294967295
0.020977873 -0.10231607 0.76899999 4294967295
0.022435455 -0.10231622 0.76899999 4294967295
0.023893043 -0.10231636 0.76899999 4294967295
0.025284717 -0.10205045 0.76700002 4294967295
0.026738536 -0.10205062 0.76700002 4294967295
0.028155616 -0.10191777 0.76599997 4294967295
0.029607574 -0.10191799 0.76599997 4294967295
0.030978447 -0.10165212 0.764 4294967295
0.032426644 -0.10165236 0.764 4294967295
0.033874851 -0.10165263 0.764 4294967295
0.035323083 -0.10165291 0.764 4294967295
0.036675073 -0.1013871 0.76200002 4294967295
0.038119551 -0.10138743 0.76200002 4294967295
0.039512124 -0.10125469 0.76099998 4294967295
0.04095475 -0.10125504 0.76099998 4294967295
0.042397399 -0.10125539 0.76099998 4294967295
0.043840066 -0.10125577 0.76099998 4294967295
0.045163758 -0.10099006 0.759 4294967295
0.046479885 -0.10072435 0.75700003 4294967295
0.047915049 -0.10072479 0.75700003 4294967295
0.049350232 -0.10072521 0.75700003 4294967295
0.050785448 -0.10072567 0.75700003 4294967295
0.052220698 -0.10072614 0.75700003 4294967295
0.053655967 -0.1007266 0.75700003 4294967295
0.055091273 -0.10072712 0.75700003 4294967295
0.056526609 -0.10072763 0.75700003 4294967295
0.058115114 -0.10099425 0.759 4294967295
0.059554309 -0.10099481 0.759 4294967295
0.06099353 -0.10099536 0.759 4294967295
0.062679559 -0.10139512 0.76200002 4294967295
0.064124539 -0.10139572 0.76200002 4294967295
0.065569565 -0.10139631 0.76200002 4294967295
0.067014627 -0.10139694 0.76200002 4294967295
0.068459712 -0.10139754 0.76200002 4294967295
0.069904849 -0.10139819 0.76200002 4294967295
0.071350023 -0.10139886 0.76200002 4294967295
0.072795235 -0.10139951 0.76200002 4294967295
0.074240491 -0.10140019 0.76200002 4294967295
0.075685784 -0.10140088 0.76200002 4294967295
0.077131107 -0.10140158 0.76200002 4294967295
0.078576498 -0.1014023 0.76200002 4294967295
0.080021925 -0.10140305 0.76200002 4294967295
0.081681199 -0.10166992 0.764 4294967295
0.083130509 -0.10167067 0.764 4294967295
0.084801272 -0.1019376 0.76599997 4294967295
0.086367063 -0.10207146 0.76700002 4294967295
0.087822191 -0.10207224 0.76700002 4294967295
0.089277379 -0.10207307 0.76700002 4294967295
0.090969197 -0.10234004 0.76899999 4294967295
0.092428274 -0.10234086 0.76899999 4294967295
0.094131567 -0.10260787 0.77100003 4294967295
0.09584251 -0.1028749 0.773 4294967295
0.097309299 -0.10287574 0.773 4294967295
0.098776177 -0.10287663 0.773 4294967295
0.10037278 -0.10301059 0.77399999 4294967295
0.10210478 -0.10327766 0.77600002 4294967295
0.10357752 -0.10327858 0.77600002 4294967295
0.105321 -0.10354567 0.778 4294967295
0.10679763 -0.1035466 0.778 4294967295
0.1086918 -0.10394683 0.78100002 4294967295
0.11045635 -0.10421395 0.78299999 4294967295
0.11251447 -0.10474729 0.787 4294967295
0.11429811 -0.10501447 0.78899997 4294967295
0.11594264 -0.10514855 0.79000002 4294967295
0.11744235 -0.10514954 0.79000002 4294967295
0.11894215 -0.10515054 0.79000002 4294967295
0.12074687 -0.10541773 0.792 4294967295
0.12255929 -0.10568497 0.79400003 4294967295
-0.0039336467 -0.10439983 0.796 4294835445
-0.0024249298 -0.10439967 0.796 4294966261
-0.00090816285 -0.10348143 0.78899997 4294966519
0.00058727321 -0.10348132 0.78899997 4294967034
0.0020721457 -0.10295659 0.78500003 4294901241
0.003559991 -0.1029565 0.78500003 4294637297
0.0050349738 -0.10269411 0.78299999 4294966776
0.0065023736 -0.10243175 0.78100002 4294967287
0.0079826321 -0.10243171 0.78100002 4294967288
0.0094507737 -0.10230053 0.77999997 4294967292
0.010901117 -0.10203822 0.778 4294967292
0.012375692 -0.10203824 0.778 4294967291
0.01381467 -0.10177596 0.77600002 4294967294
0.015246068 -0.10151369 0.77399999 4294967293
0.016713075 -0.10151375 0.77399999 4294967295
0.018062649 -0.10085808 0.76899999 4294967295
0.019520195 -0.10085817 0.76899999 4294967295
0.020977749 -0.10085829 0.76899999 4294967294
0.022435311 -0.10085842 0.76899999 4294967295
0.023830747 -0.10059626 0.76700002 4294967295
0.025284536 -0.10059641 0.76700002 4294967295
0.026703484 -0.10046543 0.76599997 4294967294
0.028081898 -0.10020334 0.764 4294967295
0.029530045 -0.10020354 0.764 4294967295
0.030978205 -0.10020377 0.764 4294967295
0.032341499 -0.099941701 0.76200002 4294967294
0.033785906 -0.099941961 0.76200002 4294967295
0.035230331 -0.099942259 0.76200002 4294967295
0.036626637 -0.099811375 0.76099998 4294967295
0.038069207 -0.099811681 0.76099998 4294967295
0.039407946 -0.099549688 0.759 4294967295
0.040846765 -0.099550046 0.759 4294967295
0.04228561 -0.099550389 0.759 4294967295
0.04372447 -0.099550761 0.759 4294967295
0.045044351 -0.099288829 0.75700003 4294967295
0.046479471 -0.099289231 0.75700003 4294967295
0.04791462 -0.099289648 0.75700003 4294967295
0.0493498 -0.09929008 0.75700003 4294967295
0.050784994 -0.099290527 0.75700003 4294967295
0.052220225 -0.099290997 0.75700003 4294967295
0.053655483 -0.099291459 0.75700003 4294967295
0.055090774 -0.099291943 0.75700003 4294967295
0.056526095 -0.099292435 0.75700003 4294967295
0.058114581 -0.099555299 0.759 4294967295
0.059553757 -0.099555828 0.759 4294967295
0.060992964 -0.099556372 0.759 4294967295
0.062678985 -0.099950448 0.76200002 4294967295
0.064123951 -0.099951014 0.76200002 4294967295
0.065568961 -0.099951603 0.76200002 4294967295
0.067014001 -0.099952206 0.76200002 4294967295
0.068459086 -0.099952832 0.76200002 4294967295
0.069904208 -0.099953465 0.76200002 4294967295
0.07134936 -0.099954091 0.76200002 4294967295
0.072699025 -0.099823579 0.76099998 4294967295
0.074142374 -0.09982425 0.76099998 4294967295
0.075585768 -0.099824928 0.76099998 4294967295
0.077130422 -0.099956818 0.76200002 4294967295
0.078575782 -0.099957511 0.76200002 4294967295
0.080021195 -0.099958226 0.76200002 4294967295
0.081466645 -0.099958964 0.76200002 4294967295
0.083129756 -0.10022206 0.764 4294967295
0.084579103 -0.10022283 0.764 4294967295
0.086253673 -0.10048594 0.76599997 4294967295
0.087706909 -0.10048673 0.76599997 4294967295
0.089276567 -0.1006187 0.76700002 4294967295
0.0907318 -0.10061951 0.76700002 4294967295
0.092187062 -0.10062032 0.76700002 4294967295
0.093886547 -0.10088351 0.76899999 4294967295
0.095593683 -0.10114673 0.77100003 4294967295
0.097056679 -0.10114758 0.77100003 4294967295
0.098519742 -0.10114843 0.77100003 4294967295
0.1002422 -0.10141168 0.773 4294967295
0.1021039 -0.10180614 0.77600002 4294967295
0.10357659 -0.10180703 0.77600002 4294967295
0.10504934 -0.10180793 0.77600002 4294967295
0.1067967 -0.10207123 0.778 4294967295
0.1085517 -0.10233456 0.77999997 4294967295
0.1104554 -0.10272909 0.78299999 4294967295
0.11222758 -0.10299242 0.78500003 4294967295
0.11400742 -0.10325577 0.787 4294967295
0.1157949 -0.10351913 0.78899997 4294967295
0.11744139 -0.10365132 0.79000002 4294967295
0.11894115 -0.10365231 0.79000002 4294967295
0.12074588 -0.10391568 0.792 4294967295
0.12255828 -0.10417912 0.79400003 4294967295
0.12500334 -0.10496736 0.80000001 4294967295
0.1265223 -0.10496838 0.80000001 4281282869
