# .PCD v0.7 - Point Cloud Data file format
VERSION 0.7
FIELDS x y z rgba
SIZE 4 4 4 4
TYPE F F F U
COUNT 1 1 1 1
WIDTH 1057
HEIGHT 1
VIEWPOINT 0 0 0 1 0 0 0
POINTS 1057
DATA ascii
0.067320004 -0.026259813 0.653 4293979105
0.068453409 -0.026219616 0.65200001 4293979105
0.069689944 -0.026219632 0.65200001 4293978592
0.070708953 -0.026139215 0.64999998 4294109921
0.071831107 -0.026099015 0.64899999 4294109921
0.073062092 -0.026099032 0.64899999 4294109921
0.074293107 -0.026099047 0.64899999 4293913056
0.075524181 -0.026099063 0.64899999 4293913056
0.076873548 -0.026139282 0.64999998 4293715934
0.077866286 -0.026058869 0.648 4293847263
0.079095602 -0.026058881 0.648 4293912799
0.080324955 -0.026058894 0.648 4293846750
0.081554346 -0.026058905 0.648 4293781210
0.082656071 -0.026018701 0.64700001 4293912797
0.083883673 -0.026018713 0.64700001 4293846750
0.085111327 -0.026018726 0.64700001 4293912799
0.086339027 -0.026018728 0.64700001 4293912545
0.087566786 -0.026018737 0.64700001 4293912545
0.088794596 -0.026018742 0.64700001 4293846750
0.090022452 -0.026018746 0.64700001 4293780956
0.091250367 -0.026018752 0.64700001 4293846752
0.092478327 -0.026018754 0.64700001 4293846752
0.093561515 -0.025978545 0.64600003 4293846238
0.094787672 -0.025978545 0.64600003 4293780445
0.096013904 -0.025978545 0.64600003 4293715163
0.097390704 -0.026018754 0.64700001 4293715163
0.098618925 -0.026018752 0.64700001 4293715163
0.099847212 -0.02601875 0.64700001 4293452248
0.10107555 -0.026018742 0.64700001 4293386201
0.10230394 -0.026018733 0.64700001 4293386201
0.1036924 -0.026058936 0.648 4293385685
0.10476088 -0.026018711 0.64700001 4293385685
0.10598944 -0.026018701 0.64700001 4293517271
0.10721806 -0.026018685 0.64700001 4293385685
0.10844672 -0.026018664 0.64700001 4293319894
0.10967545 -0.026018647 0.64700001 4293319894
0.11090421 -0.026018621 0.64700001 4293254610
0.11213307 -0.026018599 0.64700001 4293254610
0.11336195 -0.026018573 0.64700001 4293320405
0.1145909 -0.026018545 0.64700001 4293254612
0.1158199 -0.026018512 0.64700001 4293057236
0.11722988 -0.026058692 0.648 4293188565
0.11846089 -0.026058657 0.648 4293057749
0.11987667 -0.026098831 0.64899999 4292991956
0.12110969 -0.026098786 0.64899999 4293057488
0.12234279 -0.026098741 0.64899999 4292991695
0.12376636 -0.026138909 0.64999998 4292729038
0.12538606 -0.026219282 0.65200001 4292729038
0.1262366 -0.026138803 0.64999998 4292663245
0.1274718 -0.026138745 0.64999998 4292597452
0.12969711 -0.026339749 0.65499997 4292531659
0.1313418 -0.026420113 0.65700001 4292531659
0.13259046 -0.026420044 0.65700001 4292531657
0.13383922 -0.026419971 0.65700001 4292465864
0.1346768 -0.026339468 0.65499997 4292333510
0.13592184 -0.026339384 0.65499997 4292399303
0.13758579 -0.026419731 0.65700001 4292267202
0.13883473 -0.026419638 0.65700001 4292332995
0.14029697 -0.026459761 0.65799999 4292398790
0.14154793 -0.026459664 0.65799999 4292201411
0.14301598 -0.026499774 0.65899998 4292069822
0.14492576 -0.026620308 0.662 4291938493
0.14640531 -0.026660405 0.66299999 4291939006
0.14766601 -0.026660288 0.66299999 4291872957
0.15004988 -0.026861222 0.66799998 4291675835
0.1513202 -0.0268611 0.66799998 4291478455
0.15327585 -0.026981601 0.671 4291412406
0.15616429 -0.027262941 0.67799997 4291346613
0.15745379 -0.027262796 0.67799997 4291215538
0.15897748 -0.027302859 0.67900002 4291083696
0.160505 -0.027342916 0.68000001 4291083698
0.16227432 -0.027423171 0.68199998 4291083698
0.16405129 -0.027503422 0.68400002 4291149502
0.16535245 -0.027503248 0.68400002 4291544260
0.030720338 -0.026555533 0.69300002 4293912015
0.03194112 -0.026478881 0.69099998 4293714900
0.033058111 -0.026325596 0.68699998 4293846742
0.034360014 -0.026325589 0.68699998 4293913049
0.035246663 -0.026019026 0.67900002 4293913049
0.036479641 -0.025980698 0.67799997 4293978590
0.037653156 -0.025904054 0.676 4294241761
0.038876712 -0.02586573 0.67500001 4294109919
0.040096499 -0.025827406 0.67400002 4294109919
0.04125113 -0.02575076 0.67199999 4293978590
0.042461496 -0.025712442 0.671 4293978590
0.043537743 -0.025597479 0.66799998 4294109919
0.044803854 -0.025597477 0.66799998 4294241761
0.046001039 -0.025559155 0.667 4294241761
0.047194451 -0.025520835 0.66600001 4294307555
0.048456866 -0.025520831 0.66600001 4294109919
0.049420692 -0.025367554 0.662 4293978590
0.050445944 -0.025252597 0.65899998 4294109669
0.051695183 -0.025252597 0.65899998 4294109669
0.052864112 -0.025214273 0.65799999 4294110171
0.054111518 -0.025214279 0.65799999 4294175964
0.055358965 -0.025214279 0.65799999 4294109919
0.056520414 -0.025175959 0.65700001 4293978590
0.057766035 -0.025175959 0.65700001 4294109919
0.058832053 -0.025099322 0.65499997 4293978590
0.060073946 -0.025099324 0.65499997 4294043613
0.06131589 -0.025099324 0.65499997 4294109406
0.06246236 -0.025061002 0.65399998 4294043615
0.063702479 -0.025061006 0.65399998 4294109408
0.06494265 -0.025061008 0.65399998 4293847267
0.066182852 -0.025061008 0.65399998 4293847267
0.067319997 -0.025022691 0.653 4293979103
0.068558395 -0.025022691 0.653 4294044896
0.069689952 -0.024984371 0.65200001 4293912797
0.070926525 -0.024984371 0.65200001 4293912797
0.071941778 -0.024907729 0.64999998 4294043615
0.073062077 -0.024869407 0.64899999 4294043615
0.074293099 -0.024869405 0.64899999 4293912799
0.075524166 -0.024869405 0.64899999 4293912799
0.076873541 -0.024907717 0.64999998 4293846752
0.077986442 -0.024869395 0.64899999 4293846752
0.079095602 -0.024831071 0.648 4293846750
0.080324955 -0.02483107 0.648 4293780956
0.081554361 -0.024831064 0.648 4293780956
0.082783811 -0.024831055 0.648 4293846750
0.083883673 -0.024792729 0.64700001 4293846752
0.085111327 -0.024792723 0.64700001 4293846752
0.086339042 -0.02479271 0.64700001 4293780958
0.0875668 -0.024792699 0.64700001 4293780958
0.088794604 -0.024792688 0.64700001 4293780958
0.09002246 -0.024792677 0.64700001 4293780958
0.091250375 -0.02479266 0.64700001 4293715165
0.092335403 -0.024754327 0.64600003 4293649116
0.093561523 -0.02475431 0.64600003 4293649116
0.094787672 -0.024754291 0.64600003 4293649116
0.096013919 -0.024754269 0.64600003 4293649370
0.097390719 -0.024792569 0.64700001 4293649370
0.09861894 -0.024792545 0.64700001 4293649368
0.09984722 -0.024792518 0.64700001 4293320659
0.10107557 -0.024792496 0.64700001 4293320407
0.10230397 -0.024792468 0.64700001 4293320407
0.10369241 -0.024830755 0.648 4293385939
0.10476091 -0.024792401 0.64700001 4293320146
0.10598947 -0.024792371 0.64700001 4293188819
0.10721809 -0.024792332 0.64700001 4293057490
0.10844676 -0.024792291 0.64700001 4293188565
0.10967547 -0.02479225 0.64700001 4293188565
0.11073285 -0.024753889 0.64600003 4293188817
0.11195979 -0.024753844 0.64600003 4293188817
0.11283635 -0.024677157 0.64399999 4293189587
0.1140596 -0.024677109 0.64399999 4293058001
0.11564094 -0.024753692 0.64600003 4293057490
0.11722992 -0.024830272 0.648 4293188819
0.11846095 -0.024830211 0.648 4293057490
0.11987672 -0.02486847 0.64899999 4292991697
0.12110976 -0.024868404 0.64899999 4293057486
0.12234284 -0.024868336 0.64899999 4293189071
0.12414721 -0.024983218 0.65200001 4292860108
0.12538613 -0.024983145 0.65200001 4292794059
0.12623666 -0.024906434 0.64999998 4292596939
0.12747188 -0.02490635 0.64999998 4292531146
0.1296972 -0.025097853 0.65499997 4292531146
0.13134187 -0.0251744 0.65700001 4292596939
0.13259055 -0.025174305 0.65700001 4292531142
0.13383929 -0.02517421 0.65700001 4292465349
0.13529374 -0.025212428 0.65799999 4292333512
0.13675199 -0.025250638 0.65899998 4292267719
0.13800469 -0.025250528 0.65899998 4292070341
0.13968012 -0.025327051 0.66100001 4292136134
0.14093675 -0.025326936 0.66100001 4292267454
0.14240853 -0.025365125 0.662 4291938489
0.14366718 -0.025365001 0.662 4291872959
0.14514481 -0.025403187 0.66299999 4291872959
0.14640543 -0.025403049 0.66299999 4291807416
0.14766613 -0.025402907 0.66299999 4291610294
0.15049928 -0.025670972 0.67000002 4291544247
0.15177341 -0.025670819 0.67000002 4291215538
0.15418974 -0.025862232 0.67500001 4291215286
0.15616444 -0.02597701 0.67799997 4291149493
0.15745394 -0.025976842 0.67799997 4291017904
0.15897763 -0.026014982 0.67900002 4290886062
0.16050515 -0.026053112 0.68000001 4290885812
0.16251242 -0.02616787 0.68300003 4291149241
0.16405149 -0.026205989 0.68400002 4291018686
0.030631687 -0.02517011 0.69099998 4293713617
0.031894907 -0.025133668 0.69 4293517519
0.033058126 -0.025024381 0.68699998 4293846740
0.034109954 -0.024842236 0.68199998 4293847002
0.035246674 -0.024732945 0.67900002 4293847002
0.036479652 -0.024696507 0.67799997 4293912795
0.037653167 -0.024623642 0.676 4294110173
0.03893432 -0.024623634 0.676 4293978588
0.040156003 -0.024587194 0.67500001 4293978588
0.041373916 -0.024550753 0.67400002 4293978588
0.042461507 -0.024441464 0.671 4293978588
0.043668102 -0.024405029 0.67000002 4294043611
0.044803858 -0.024332164 0.66799998 4294175453
0.046001043 -0.024295727 0.667 4294175199
0.047194462 -0.024259292 0.66600001 4294175199
0.04845687 -0.024259284 0.66600001 4293978590
0.049420699 -0.024113568 0.662 4293912797
0.05059905 -0.024077134 0.66100001 4293780958
0.051695183 -0.024004271 0.65899998 4293978338
0.052864116 -0.023967834 0.65799999 4293978590
0.054111522 -0.023967823 0.65799999 4293978590
0.055358972 -0.023967816 0.65799999 4293978590
0.056520421 -0.023931378 0.65700001 4293978590
0.057766035 -0.023931362 0.65700001 4293978590
0.058832057 -0.023858504 0.65499997 4293978590
0.060073957 -0.023858493 0.65499997 4293912797
0.061315902 -0.02385848 0.65499997 4293912797
0.062462363 -0.023822041 0.65399998 4294043615
0.063702486 -0.023822028 0.65399998 4294043615
0.064942658 -0.023822017 0.65399998 4293847267
0.066182867 -0.023822004 0.65399998 4293847267
0.067423105 -0.023821989 0.65399998 4293912797
0.068558402 -0.023785548 0.653 4293978590
0.069689952 -0.023749111 0.65200001 4293977820
0.070926532 -0.023749094 0.65200001 4294175199
0.071941786 -0.023676226 0.64999998 4293978590
0.073174655 -0.023676211 0.64999998 4293912797
0.074293114 -0.02363977 0.64899999 4293912797
0.075524166 -0.023639746 0.64899999 4293912797
0.076873556 -0.023676153 0.64999998 4293846750
0.077986456 -0.023639712 0.64899999 4293846750
0.079095617 -0.023603268 0.648 4293847004
0.080324963 -0.023603244 0.648 4293847004
0.081554368 -0.02360322 0.648 4293518041
0.082783841 -0.023603195 0.648 4293715163
0.084013335 -0.023603171 0.648 4293780958
0.085111335 -0.023566721 0.64700001 4293780958
0.086339056 -0.023566693 0.64700001 4293650142
0.087566815 -0.023566665 0.64700001 4293584093
0.088794626 -0.023566635 0.64700001 4293715163
0.090022482 -0.023566604 0.64700001 4293780956
0.09125039 -0.02356657 0.64700001 4293649370
0.092335425 -0.023530109 0.64600003 4293518041
0.093561552 -0.023530075 0.64600003 4293714650
0.094787709 -0.023530038 0.64600003 4293714650
0.096013948 -0.023529997 0.64600003 4293518041
0.097390749 -0.023566382 0.64700001 4293452248
0.098618969 -0.023566337 0.64700001 4293452248
0.09984725 -0.023566291 0.64700001 4293386199
0.1010756 -0.023566244 0.64700001 4293320405
0.10246211 -0.02360262 0.648 4293320405
0.10369244 -0.023602566 0.648 4293254610
0.10476097 -0.023566095 0.64700001 4293188817
0.10598951 -0.023566037 0.64700001 4293188304
0.10721813 -0.02356598 0.64700001 4293188304
0.10844682 -0.023565918 0.64700001 4292991697
0.10967553 -0.023565857 0.64700001 4293057490
0.11073291 -0.023529368 0.64600003 4293057490
0.11195984 -0.0235293 0.64600003 4293254612
0.11283642 -0.023456387 0.64399999 4293189589
0.11405966 -0.023456313 0.64399999 4293058003
0.11564101 -0.023529086 0.64600003 4292926161
0.11723001 -0.023601852 0.648 4292926161
0.11846101 -0.023601772 0.648 4292925902
0.11987679 -0.023638105 0.64899999 4292925902
0.12110983 -0.023638017 0.64899999 4292991697
0.12234294 -0.02363793 0.64899999 4292925648
0.12414731 -0.0237471 0.65200001 4292597450
0.12538621 -0.023747003 0.65200001 4292663243
0.12662518 -0.023746904 0.65200001 4292465610
0.12825643 -0.02381964 0.65399998 4292268487
0.12969728 -0.023855951 0.65499997 4292398790
0.13154189 -0.023965107 0.65799999 4292267204
0.13279247 -0.023964988 0.65799999 4292267202
0.13404313 -0.023964867 0.65799999 4292399044
0.13529384 -0.023964746 0.65799999 4292267719
0.13716714 -0.024073878 0.66100001 4292267719
0.13842365 -0.024073742 0.66100001 4292136388
0.13989155 -0.024110025 0.662 4292070595
0.1411501 -0.024109887 0.662 4292004800
0.14262378 -0.024146158 0.66299999 4291872957
0.14388435 -0.024146007 0.66299999 4291872957
0.14514492 -0.024145851 0.66299999 4291544249
0.1466264 -0.024182107 0.66399997 4291412147
0.14788902 -0.024181943 0.66399997 4291412147
0.1518472 -0.024618795 0.676 4291215284
0.15313272 -0.024618614 0.676 4291215284
0.15441832 -0.024618434 0.676 4291149491
0.15639496 -0.024727497 0.67900002 4291149491
0.15768637 -0.024727305 0.67900002 4291017900
0.15897781 -0.024727102 0.67900002 4290623399
0.16050535 -0.024763314 0.68000001 4290687918
0.030631708 -0.02386133 0.69099998 4293647821
0.03189493 -0.023826778 0.69 4293386189
0.03305814 -0.023723163 0.68699998 4293649105
0.034109972 -0.023550482 0.68199998 4293714900
0.035246693 -0.023446869 0.67900002 4293780693
0.036533479 -0.023446849 0.67900002 4294043865
0.037764583 -0.023412293 0.67799997 4294109658
0.039049529 -0.023412272 0.67799997 4293978842
0.040215507 -0.023343191 0.676 4293978842
0.04143532 -0.023308637 0.67500001 4293978842
0.0425248 -0.02320502 0.67199999 4293978842
0.043668117 -0.023135936 0.67000002 4293912797
0.04480388 -0.023066854 0.66799998 4293912797
0.046001054 -0.0230323 0.667 4294109406
0.047194477 -0.022997752 0.66600001 4294109406
0.048456885 -0.022997726 0.66600001 4294043613
0.04957002 -0.022928646 0.66399997 4294043613
0.050599054 -0.022825029 0.66100001 4293912545
0.05169519 -0.022755943 0.65899998 4293978338
0.05294447 -0.022755921 0.65899998 4293847517
0.05411154 -0.022721371 0.65799999 4293847517
0.055358987 -0.02272135 0.65799999 4293978590
0.056606468 -0.022721324 0.65799999 4294109919
0.057766058 -0.02268677 0.65700001 4293978590
0.05901172 -0.022686742 0.65700001 4293978590
0.060257405 -0.022686718 0.65700001 4293912797
0.061503142 -0.022686694 0.65700001 4293847004
0.062557891 -0.022617606 0.65499997 4293977568
0.063799925 -0.022617582 0.65499997 4293846238
0.065041974 -0.022617552 0.65499997 4293715936
0.066182882 -0.022582997 0.65399998 4293715936
0.06742312 -0.022582967 0.65399998 4293847004
0.068558417 -0.022548411 0.653 4293912797
0.069796853 -0.022548379 0.653 4293847004
0.070926547 -0.02251382 0.65200001 4294109919
0.071941815 -0.022444727 0.64999998 4293978588
0.073174678 -0.022444692 0.64999998 4293978588
0.074407607 -0.02244466 0.64999998 4293912797
0.075640574 -0.022444624 0.64999998 4293781210
0.076873593 -0.022444591 0.64999998 4293977820
0.078106657 -0.022444552 0.64999998 4293977820
0.079217695 -0.022409983 0.64899999 4293847004
0.080448955 -0.022409944 0.64899999 4293847004
0.081554405 -0.022375379 0.648 4293649116
0.082783878 -0.022375338 0.648 4293649116
0.08401338 -0.022375291 0.648 4293584093
0.085242935 -0.022375248 0.648 4293518300
0.086472534 -0.022375204 0.648 4293649370
0.0877022 -0.022375155 0.648 4293649370
0.088931903 -0.022375107 0.648 4293649370
0.090022519 -0.022340527 0.64700001 4293715163
0.091250442 -0.022340477 0.64700001 4293518041
0.092478402 -0.022340422 0.64700001 4293452248
0.093561605 -0.022305839 0.64600003 4293714648
0.094787769 -0.022305783 0.64600003 4293846490
0.096013986 -0.022305721 0.64600003 4293518039
0.097390801 -0.02234019 0.64700001 4293386453
0.098619029 -0.022340124 0.64700001 4293320405
0.099847317 -0.022340061 0.64700001 4293254612
0.10107566 -0.022339992 0.64700001 4293254610
0.10246218 -0.022374455 0.648 4293320659
0.10369252 -0.022374382 0.648 4293188817
0.10492292 -0.022374308 0.648 4292991695
0.1061534 -0.022374233 0.648 4293122511
0.10738392 -0.022374153 0.648 4293122511
0.10861449 -0.022374071 0.648 4293056718
0.10967561 -0.022339461 0.64700001 4293056718
0.1109044 -0.022339374 0.64700001 4292925648
0.11213325 -0.022339284 0.64700001 4292991697
0.11318692 -0.022304665 0.64600003 4293057488
0.11441398 -0.022304568 0.64600003 4293057488
0.11564109 -0.022304472 0.64600003 4292991693
0.117411 -0.022407951 0.64899999 4292925900
0.11864391 -0.022407847 0.64899999 4292925902
0.1198769 -0.02240774 0.64899999 4292860108
0.12110993 -0.022407629 0.64899999 4292728270
0.12253153 -0.022442041 0.64999998 4292530892
0.12414742 -0.022510979 0.65200001 4292531659
0.12557864 -0.022545386 0.653 4292794832
0.12681951 -0.022545259 0.653 4292465864
0.12825654 -0.022579659 0.65399998 4292334535
0.13009344 -0.022683099 0.65700001 4292399557
0.131542 -0.022717489 0.65799999 4292136386
0.13279259 -0.022717349 0.65799999 4292267717
0.13404326 -0.022717208 0.65799999 4292267717
0.13529398 -0.022717055 0.65799999 4292267715
0.13716729 -0.022820476 0.66100001 4292267715
0.13842382 -0.022820318 0.66100001 4292201663
0.1398917 -0.022854682 0.662 4292069820
0.14115024 -0.022854514 0.662 4291939004
0.14262395 -0.022888863 0.66299999 4291873211
0.14388449 -0.02288869 0.66299999 4291675835
0.14536403 -0.022923036 0.66399997 4291346613
0.14662659 -0.022922847 0.66399997 4291346615
0.14915188 -0.022922464 0.66399997 4291215538
0.15381251 -0.023440087 0.67900002 4291149489
0.15510382 -0.02343988 0.67900002 4291083696
0.15639517 -0.023439664 0.67900002 4290952109
0.15768656 -0.023439443 0.67900002 4290951848
0.15921217 -0.023473734 0.68000001 4290557090
0.16097765 -0.023542544 0.68199998 4290294447
0.030720398 -0.022617828 0.69300002 4293780177
0.031894956 -0.022519886 0.69 4293386189
0.033058167 -0.022421943 0.68699998 4293386189
0.034310058 -0.022389283 0.68599999 4293517005
0.035246715 -0.022160787 0.67900002 4293648592
0.036533505 -0.022160765 0.67900002 4293779925
0.037764605 -0.022128094 0.67799997 4293845718
0.039049547 -0.022128064 0.67799997 4293780693
0.040215526 -0.02206276 0.676 4293846742
0.041496728 -0.022062734 0.676 4293846742
0.04252483 -0.021932153 0.67199999 4293978072
0.043733325 -0.02189949 0.671 4294043611
0.04493805 -0.021866821 0.67000002 4294109660
0.046001092 -0.021768879 0.667 4293912797
0.047265362 -0.021768847 0.667 4293912797
0.048456922 -0.021736179 0.66600001 4293912797
0.049570046 -0.02167087 0.66399997 4293912797
0.050675642 -0.021605568 0.662 4293912797
0.051852122 -0.021572895 0.66100001 4293912797
0.0529445 -0.021507589 0.65899998 4293781210
0.054111578 -0.021474918 0.65799999 4293781210
0.05535901 -0.021474881 0.65799999 4293847004
0.056606505 -0.021474848 0.65799999 4293847004
0.057854012 -0.021474812 0.65799999 4293847004
0.059011742 -0.021442138 0.65700001 4293847004
0.060257442 -0.0214421 0.65700001 4293780697
0.061503168 -0.021442061 0.65700001 4293780697
0.062557921 -0.021376751 0.65499997 4293780958
0.063799948 -0.02137671 0.65499997 4293780958
0.065042011 -0.021376671 0.65499997 4293780956
0.066182911 -0.021343993 0.65399998 4293780956
0.067423157 -0.021343946 0.65399998 4293781210
0.068663448 -0.021343905 0.65399998 4293847004
0.06979689 -0.021311224 0.653 4293780697
0.070926592 -0.021278547 0.65200001 4293977820
0.072163217 -0.021278497 0.65200001 4293847004
0.073399879 -0.021278448 0.65200001 4293847004
0.074636601 -0.021278396 0.65200001 4293780956
0.075640611 -0.021213075 0.64999998 4293780956
0.076873638 -0.021213025 0.64999998 4293977820
0.078106701 -0.021212971 0.64999998 4293977820
0.079339802 -0.021212913 0.64999998 4293583062
0.080449007 -0.021180227 0.64899999 4293780697
0.081680298 -0.021180168 0.64899999 4293649370
0.082783915 -0.021147477 0.648 4293649370
0.084013417 -0.021147417 0.648 4293649370
0.085242987 -0.02114735 0.648 4293649370
0.086472601 -0.021147292 0.648 4293518554
0.087702252 -0.021147223 0.648 4293518554
0.088931963 -0.021147158 0.648 4293255637
0.090022594 -0.021114456 0.64700001 4293518552
0.091250502 -0.021114383 0.64700001 4293518552
0.092478462 -0.02111431 0.64700001 4293518552
0.093706489 -0.021114236 0.64700001 4293518039
0.094934568 -0.021114158 0.64700001 4293452246
0.096162692 -0.021114081 0.64700001 4293517269
0.097390875 -0.021114001 0.64700001 4293385939
0.098619103 -0.021113915 0.64700001 4293188819
0.099847399 -0.021113833 0.64700001 4293057490
0.10123196 -0.021146376 0.648 4293057490
0.10246225 -0.021146288 0.648 4293057490
0.10369261 -0.021146191 0.648 4293056718
0.10492301 -0.021146096 0.648 4293056718
0.10615347 -0.021145998 0.648 4292991697
0.107384 -0.021145901 0.648 4292925648
0.10861458 -0.021145796 0.648 4292728007
0.10984522 -0.021145694 0.648 4292859593
0.11090449 -0.021112956 0.64700001 4292860106
0.11213335 -0.021112842 0.64700001 4292860106
0.11336224 -0.021112729 0.64700001 4292925902
0.1145912 -0.021112613 0.64700001 4292925902
0.11635724 -0.021210384 0.64999998 4292794313
0.11759201 -0.021210259 0.64999998 4292728520
0.11882684 -0.021210134 0.64999998 4292794313
0.12006173 -0.021210004 0.64999998 4292794313
0.12129667 -0.021209871 0.64999998 4292531659
0.12290869 -0.021274993 0.65200001 4292531659
0.12433796 -0.021307485 0.653 4292531657
0.12557878 -0.02130734 0.653 4292531657
0.12681964 -0.021307193 0.653 4292269001
0.12825668 -0.021339672 0.65399998 4292203207
0.1300936 -0.021437401 0.65700001 4292334281
0.13154213 -0.021469871 0.65799999 4292136901
0.13279276 -0.021469707 0.65799999 4292267717
0.13404341 -0.021469539 0.65799999 4292070595
0.13549973 -0.021501992 0.65899998 4292135616
0.13716745 -0.021567076 0.66100001 4292135616
0.13842399 -0.021566892 0.66100001 4291938493
0.13989189 -0.021599334 0.662 4291938493
0.14115043 -0.021599144 0.662 4291872957
0.14262414 -0.021631576 0.66299999 4291675835
0.14410171 -0.021663999 0.66399997 4291478201
0.14580207 -0.021729046 0.66600001 4291346615
0.14706846 -0.021728842 0.66600001 4291346615
0.15403926 -0.022184927 0.68000001 4291017651
0.15533246 -0.022184692 0.68000001 4290886062
0.15662575 -0.022184454 0.68000001 4290754733
0.15791903 -0.022184206 0.68000001 4290623912
0.15921241 -0.022183953 0.68000001 4290426533
0.030720426 -0.021305261 0.69300002 4293583302
0.031941205 -0.021243736 0.69099998 4293779662
0.033058196 -0.021120731 0.68699998 4293582282
0.0343601 -0.021120694 0.68699998 4293451212
0.035246752 -0.020874714 0.67900002 4293648592
0.036533538 -0.020874679 0.67900002 4293779923
0.037764642 -0.020843897 0.67799997 4293779923
0.039049584 -0.020843862 0.67799997 4293714648
0.040215563 -0.020782337 0.676 4293780697
0.041496761 -0.020782299 0.676 4293780695
0.042651419 -0.020720774 0.67400002 4293977818
0.043733355 -0.020628504 0.671 4294043865
0.044938087 -0.020597722 0.67000002 4294109658
0.046001121 -0.020505453 0.667 4293912795
0.047265399 -0.020505413 0.667 4293781208
0.048456952 -0.020474626 0.66600001 4293847004
0.049570084 -0.020413099 0.66399997 4293847004
0.050675672 -0.02035157 0.662 4293847256
0.051852159 -0.020320784 0.66100001 4293847256
0.052944548 -0.020259256 0.65899998 4293846490
0.054111615 -0.020228466 0.65799999 4293846490
0.055359051 -0.020228419 0.65799999 4293846490
0.056606539 -0.020228371 0.65799999 4293846490
0.057854056 -0.020228323 0.65799999 4293846490
0.059011791 -0.020197531 0.65700001 4293846490
0.06025748 -0.020197481 0.65700001 4293714650
0.061503217 -0.020197431 0.65700001 4293780443
0.06255798 -0.020135894 0.65499997 4293780443
0.063799985 -0.020135837 0.65499997 4293780443
0.065240666 -0.02019727 0.65700001 4293715163
0.066284165 -0.020135729 0.65499997 4293715163
0.067526303 -0.020135671 0.65499997 4293781208
0.068768486 -0.020135609 0.65499997 4293781208
0.069903836 -0.020104814 0.65399998 4293780697
0.071035422 -0.020074008 0.653 4293846490
0.072163276 -0.020043205 0.65200001 4293715163
0.073399939 -0.02004314 0.65200001 4293649370
0.074636668 -0.020043077 0.65200001 4293715163
0.075640693 -0.019981528 0.64999998 4293780956
0.07687369 -0.019981457 0.64999998 4293780697
0.078106754 -0.01998139 0.64999998 4293780697
0.079339877 -0.019981317 0.64999998 4293648855
0.080449067 -0.019950503 0.64899999 4293780697
0.081680365 -0.019950431 0.64899999 4293714648
0.082911737 -0.019950353 0.64899999 4293714648
0.084013507 -0.019919535 0.648 4293518039
0.085243069 -0.019919457 0.648 4293452246
0.086472668 -0.019919373 0.648 4293649368
0.087702319 -0.019919291 0.648 4293715161
0.088932037 -0.019919204 0.648 4293452246
0.090022653 -0.019888379 0.64700001 4293649368
0.091250576 -0.019888287 0.64700001 4293714648
0.092478544 -0.019888194 0.64700001 4293714648
0.093706578 -0.019888103 0.64700001 4293452244
0.09493465 -0.019888006 0.64700001 4293386451
0.096162781 -0.019887907 0.64700001 4293254612
0.097390965 -0.019887807 0.64700001 4293057490
0.098619193 -0.019887704 0.64700001 4292991443
0.10000183 -0.019918336 0.648 4292925650
0.10123206 -0.019918228 0.648 4292925648
0.10262047 -0.019948855 0.64899999 4292925648
0.10369273 -0.019918006 0.648 4292859341
0.10492312 -0.019917887 0.648 4292859341
0.1063174 -0.019948507 0.64899999 4292859595
0.10754982 -0.019948382 0.64899999 4292793546
0.10945278 -0.020071208 0.653 4292793546
0.1106929 -0.02007108 0.653 4293056718
0.11124743 -0.019948002 0.64899999 4292859593
0.1124801 -0.019947872 0.64899999 4292859593
0.11371278 -0.019947732 0.64899999 4292860106
0.11547688 -0.020039801 0.65200001 4292860106
0.11671541 -0.020039659 0.65200001 4292794313
0.11795398 -0.020039512 0.65200001 4292597191
0.11882699 -0.019977894 0.64999998 4292728520
0.12006186 -0.019977737 0.64999998 4292794313
0.12129682 -0.019977581 0.64999998 4292596937
0.12290885 -0.020038893 0.65200001 4292531144
0.12433811 -0.020069463 0.653 4292334535
0.12577122 -0.020100025 0.65399998 4292268485
0.12701401 -0.020099858 0.65399998 4292333508
0.12884519 -0.020191882 0.65700001 4292070593
0.13009377 -0.020191703 0.65700001 4292070595
0.13154233 -0.02022225 0.65799999 4292136388
0.13299474 -0.020252796 0.65899998 4292069822
0.13424732 -0.020252604 0.65899998 4291938493
0.13549992 -0.020252405 0.65899998 4291872959
0.13716763 -0.020313667 0.66100001 4291872959
0.13842417 -0.020313464 0.66100001 4291939004
0.13989209 -0.020343982 0.662 4291873211
0.14115064 -0.020343767 0.662 4291676089
0.14283945 -0.020405008 0.66399997 4291478453
0.14453597 -0.020466244 0.66600001 4291412406
0.14580229 -0.020466015 0.66600001 4291215284
0.14728947 -0.020496506 0.667 4291149239
0.14855781 -0.020496268 0.667 4290951859
0.15533273 -0.020894978 0.68000001 4290952111
0.15662597 -0.02089471 0.68000001 4290557354
0.1579193 -0.02089444 0.68000001 4290361004
0.035246789 -0.019588636 0.67900002 4293451212
0.036533576 -0.019588593 0.67900002 4293647821
0.03776468 -0.019559696 0.67799997 4293647821
0.039049622 -0.019559653 0.67799997 4293648596
0.040215608 -0.01950191 0.676 4293779925
0.041496802 -0.019501863 0.676 4293780695
0.042651471 -0.019444117 0.67400002 4293714902
0.043733403 -0.019357523 0.671 4293780695
0.044938128 -0.019328624 0.67000002 4293780695
0.046001166 -0.019242028 0.667 4293780697
0.047265444 -0.019241977 0.667 4293780697
0.048456989 -0.019213075 0.66600001 4293780697
0.049570136 -0.019155324 0.66399997 4293977820
0.050752275 -0.019126423 0.66299999 4293846742
0.051930647 -0.019097518 0.662 4293780693
0.053105272 -0.019068614 0.66100001 4293780697
0.054193899 -0.01901086 0.65899998 4293977820
0.055443238 -0.019010799 0.65899998 4293846490
0.056692615 -0.019010741 0.65899998 4293780697
0.057854105 -0.018981831 0.65799999 4293846490
0.059101671 -0.018981772 0.65799999 4293846490
0.06034926 -0.018981706 0.65799999 4293780697
0.061596896 -0.018981643 0.65799999 4293714648
0.062749043 -0.018952727 0.65700001 4293649368
0.063994862 -0.01895266 0.65700001 4293649368
0.065240718 -0.018952589 0.65700001 4293649368
0.066284224 -0.018894827 0.65499997 4293715161
0.067526363 -0.018894754 0.65499997 4293715161
0.068768561 -0.018894682 0.65499997 4293715161
0.069903888 -0.018865757 0.65399998 4293715161
0.071035504 -0.018836837 0.653 4293715161
0.072274022 -0.018836759 0.653 4293780697
0.073400013 -0.018807832 0.65200001 4293780697
0.074636742 -0.018807752 0.65200001 4293714648
0.075873487 -0.018807666 0.65200001 4293583062
0.077110313 -0.018807583 0.65200001 4293583062
0.078106835 -0.018749805 0.64999998 4293583062
0.079339951 -0.018749718 0.64999998 4293583062
0.080573104 -0.018749624 0.64999998 4293648855
0.08180631 -0.018749531 0.64999998 4293648855
0.082911827 -0.018720593 0.64899999 4293648855
0.084143221 -0.018720498 0.64899999 4293583062
0.085374698 -0.018720401 0.64899999 4293583062
0.086606197 -0.018720301 0.64899999 4293451996
0.087702431 -0.018691353 0.648 4293386203
0.088932134 -0.018691249 0.648 4293319892
0.090022758 -0.0186623 0.64700001 4293385685
0.09125068 -0.01866219 0.64700001 4293385939
0.09247864 -0.018662078 0.64700001 4293385939
0.09370669 -0.018661967 0.64700001 4293385939
0.094934762 -0.018661849 0.64700001 4293320146
0.096162893 -0.018661732 0.64700001 4293057488
0.097391076 -0.018661613 0.64700001 4293057488
0.098619312 -0.018661486 0.64700001 4292991697
0.10000193 -0.018690204 0.648 4292859854
0.10123219 -0.018690078 0.648 4292859595
0.10262061 -0.018718787 0.64899999 4292793546
0.10385285 -0.018718651 0.64899999 4292793800
0.10508516 -0.018718516 0.64899999 4292793800
0.10631754 -0.018718377 0.64899999 4292924616
0.10754996 -0.018718231 0.64899999 4292858823
0.10945293 -0.018833455 0.653 4292858823
0.11069304 -0.0188333 0.653 4292858823
0.11176183 -0.01880431 0.65200001 4292661701
0.11248022 -0.01871763 0.64899999 4292727494
0.11371294 -0.018717473 0.64899999 4292793798
0.11565416 -0.018832672 0.653 4292859591
0.11689457 -0.018832507 0.653 4292728520
0.11795414 -0.018803498 0.65200001 4292597191
0.11919278 -0.018803326 0.65200001 4292531142
0.12043148 -0.018803149 0.65200001 4292531142
0.12167021 -0.018802969 0.65200001 4292530373
0.12290902 -0.018802784 0.65200001 4292530373
0.12452869 -0.018860275 0.65399998 4292333510
0.1257714 -0.018860081 0.65399998 4292333510
0.1272084 -0.018888723 0.65499997 4292267717
0.12884536 -0.018946201 0.65700001 4292070595
0.13009398 -0.018945998 0.65700001 4292201411
0.13154253 -0.018974626 0.65799999 4292135618
0.13299493 -0.019003248 0.65899998 4291872700
0.13424753 -0.019003032 0.65899998 4291872700
0.13550015 -0.019002812 0.65899998 4291872957
0.13716787 -0.019060258 0.66100001 4291872957
0.1386338 -0.019088861 0.662 4291807166
0.1398923 -0.019088626 0.662 4291675837
0.14136408 -0.019117221 0.66299999 4291478455
0.14326996 -0.019203478 0.66600001 4291346613
0.14475323 -0.019232061 0.667 4291280307
0.14602146 -0.019231806 0.667 4291148720
0.14751056 -0.019260377 0.66799998 4291082160
0.035298742 -0.018329509 0.68000001 4293450960
0.036587428 -0.018329456 0.68000001 4293451212
0.037820436 -0.018302452 0.67900002 4293451212
0.03904967 -0.018275442 0.67799997 4293516753
0.04021566 -0.018221481 0.676 4293648596
0.041496854 -0.018221421 0.676 4293583314
0.042651527 -0.018167458 0.67400002 4293714900
0.043733463 -0.018086536 0.671 4293648855
0.044938188 -0.01805952 0.67000002 4293648855
0.046070188 -0.01800555 0.66799998 4293714648
0.047265496 -0.017978534 0.667 4293714648
0.048457056 -0.017951518 0.66600001 4293780697
0.049719509 -0.017951455 0.66600001 4293846490
0.050828878 -0.017897481 0.66399997 4293649105
0.051930707 -0.017843505 0.662 4293583312
0.053185679 -0.01784344 0.662 4293714650
0.054358445 -0.017816417 0.66100001 4293780443
0.055611569 -0.017816344 0.66100001 4293780697
0.056864746 -0.017816273 0.66100001 4293714648
0.0579421 -0.01776229 0.65899998 4293714648
0.059191547 -0.017762216 0.65899998 4293714648
0.060441047 -0.017762139 0.65899998 4293714648
0.061596956 -0.017735109 0.65799999 4293648855
0.062749125 -0.017708074 0.65700001 4293714648
0.063994937 -0.017707994 0.65700001 4293714648
0.0652408 -0.01770791 0.65700001 4293518039
0.066486694 -0.017707825 0.65700001 4293452246
0.06773264 -0.017707739 0.65700001 4293649368
0.068978623 -0.017707651 0.65700001 4293715161
0.070010863 -0.017653653 0.65499997 4293780695
0.071144357 -0.01762661 0.65399998 4293780695
0.072274111 -0.017599568 0.653 4293780695
0.073512681 -0.017599471 0.653 4293846488
0.074751288 -0.017599372 0.653 4293649109
0.075989954 -0.017599273 0.653 4293583316
0.077228673 -0.017599173 0.653 4293583062
0.078467421 -0.017599067 0.653 4293583062
0.079706229 -0.017598962 0.653 4293517271
0.080821127 -0.017571904 0.65200001 4293517271
0.082058132 -0.017571796 0.65200001 4293583062
0.083295181 -0.017571684 0.65200001 4293648855
0.084272988 -0.017517667 0.64999998 4293583062
0.085506342 -0.017517548 0.64999998 4293583062
0.086606316 -0.017490484 0.64899999 4293451996
0.087702528 -0.01746341 0.648 4293320153
0.088932246 -0.017463291 0.648 4293319894
0.090022884 -0.017436216 0.64700001 4293319894
0.091250807 -0.017436089 0.64700001 4293254610
0.092478767 -0.017435957 0.64700001 4293254610
0.093561977 -0.017408878 0.64600003 4293254610
0.094788164 -0.017408744 0.64600003 4293188817
0.096014395 -0.017408604 0.64600003 4293057488
0.097240679 -0.017408464 0.64600003 4293057488
0.09846703 -0.017408321 0.64600003 4292925902
0.099847741 -0.017435122 0.64700001 4292860108
0.1010761 -0.017434971 0.64700001 4292990922
0.10262074 -0.017488712 0.64899999 4292793800
0.103853 -0.017488558 0.64899999 4292727494
0.10508531 -0.017488401 0.64899999 4292858823
0.1063177 -0.017488241 0.64899999 4292858821
0.10755014 -0.017488075 0.64899999 4292727492
0.10945307 -0.01759569 0.653 4292661701
0.11069321 -0.017595518 0.653 4292661701
0.11176199 -0.017568398 0.65200001 4292661701
0.1126537 -0.017514329 0.64999998 4292661701
0.11388832 -0.017514151 0.64999998 4292794052
0.11583144 -0.017621744 0.65399998 4292859845
0.11689476 -0.017594613 0.653 4292728516
0.11813521 -0.017594418 0.653 4292465601
0.11937575 -0.017594222 0.653 4292531142
0.12061635 -0.017594023 0.653 4292465349
0.12185701 -0.017593822 0.653 4292333510
0.12309772 -0.017593615 0.653 4292267717
0.1245289 -0.017620344 0.65399998 4292070341
0.12596393 -0.017647071 0.65499997 4292070341
0.12720859 -0.017646851 0.65499997 4292004548
0.12884557 -0.017700512 0.65700001 4292004548
0.13009419 -0.017700287 0.65700001 4292069568
0.13154274 -0.017726993 0.65799999 4292069568
0.13299516 -0.017753696 0.65899998 4291872446
0.13424775 -0.017753458 0.65899998 4291872446
0.13550036 -0.017753208 0.65899998 4291610044
0.13737562 -0.01783378 0.662 4291610044
0.13863406 -0.017833522 0.662 4291543995
0.14010388 -0.017860202 0.66299999 4291478201
0.14136434 -0.017859938 0.66299999 4291412660
0.14327021 -0.01794048 0.66600001 4291149489
0.14475349 -0.01796714 0.667 4290951857
0.14624067 -0.017993797 0.66799998 4290886064
0.14751084 -0.01799351 0.66799998 4290885553
0.035402615 -0.017091654 0.68199998 4293385167
0.036695093 -0.017091595 0.68199998 4293320396
0.037876185 -0.017041411 0.68000001 4293320396
0.039107326 -0.01701629 0.67900002 4293320142
0.040334694 -0.016991166 0.67799997 4293386191
0.041496918 -0.016940981 0.676 4293320142
0.042651586 -0.016890796 0.67400002 4293583314
0.043798693 -0.016840605 0.67199999 4293518037
0.045072392 -0.016840536 0.67199999 4293518037
0.046277158 -0.016815405 0.671 4293649368
0.047265571 -0.016715094 0.667 4293649368
0.048529882 -0.016715018 0.667 4293714648
0.049719572 -0.016689885 0.66600001 4293714648
0.050828949 -0.016639689 0.66399997 4293583314
0.051930785 -0.016589493 0.662 4293714900
0.05318575 -0.016589412 0.662 4293649370
0.054440748 -0.016589332 0.662 4293715163
0.05569578 -0.016589249 0.662 4293714648
0.05686482 -0.016564107 0.66100001 4293648855
0.05811803 -0.016564019 0.66100001 4293648855
0.059371281 -0.016563933 0.66100001 4293648855
0.060441133 -0.016513724 0.65899998 4293648855
0.061690666 -0.016513633 0.65899998 4293648855
0.062844723 -0.016488478 0.65799999 4293518039
0.064092435 -0.016488381 0.65799999 4293518039
0.065340184 -0.016488284 0.65799999 4293386451
0.066587992 -0.016488187 0.65799999 4293518037
0.067835823 -0.016488085 0.65799999 4293518037
0.068978719 -0.016462924 0.65700001 4293518037
0.070010975 -0.016412705 0.65499997 4293583316
0.071253255 -0.016412595 0.65499997 4293649109
0.072384894 -0.016387427 0.65399998 4293583316
0.073625363 -0.016387317 0.65399998 4293583316
0.074865878 -0.016387206 0.65399998 4293517267
0.076106437 -0.016387088 0.65399998 4293583316
0.077347048 -0.016386969 0.65399998 4293583062
0.078467533 -0.016361792 0.653 4293583062
0.079706356 -0.016361672 0.653 4293386453
0.080945201 -0.016361546 0.653 4293320659
0.082184114 -0.016361419 0.653 4293385939
0.083423071 -0.016361285 0.653 4293517269
0.08453241 -0.016336098 0.65200001 4293254099
0.085506469 -0.016285853 0.64999998 4293385685
0.086739883 -0.016285717 0.64999998 4293386203
0.087702662 -0.016235467 0.648 4293320153
0.088932388 -0.016235327 0.648 4293188565
0.090023011 -0.016210129 0.64700001 4293188565
0.091250941 -0.016209982 0.64700001 4293188817
0.092478901 -0.016209833 0.64700001 4293188817
0.093562119 -0.016184628 0.64600003 4293254610
0.094788291 -0.016184472 0.64600003 4293188817
0.096014537 -0.016184315 0.64600003 4292992208
0.097240828 -0.016184155 0.64600003 4292992208
0.098467171 -0.016183991 0.64600003 4292795086
0.09984789 -0.016208878 0.64700001 4292663243
0.10107626 -0.016208706 0.64700001 4292728266
0.1024628 -0.016233588 0.648 4292728266
0.10385317 -0.016258461 0.64899999 4292662214
0.10508548 -0.016258281 0.64899999 4292662214
0.10631786 -0.0162581 0.64899999 4292661960
0.10854462 -0.016408218 0.65499997 4292661960
0.10962087 -0.016382976 0.65399998 4292596165
0.1108629 -0.016382782 0.65399998 4292596165
0.112105 -0.016382586 0.65399998 4292596165
0.11317384 -0.016357334 0.653 4292662214
0.11441416 -0.016357131 0.653 4292596165
0.11583162 -0.016381972 0.65399998 4292530371
0.11689495 -0.016356712 0.653 4292399555
0.11813544 -0.016356498 0.653 4292399555
0.11937597 -0.016356278 0.653 4292465351
0.12061657 -0.016356057 0.653 4292399557
0.12185723 -0.016355829 0.653 4292136388
0.12309793 -0.016355598 0.653 4292136388
0.12452912 -0.016380411 0.65399998 4292070341
0.12596415 -0.016405219 0.65499997 4292004548
0.12720884 -0.016404975 0.65499997 4292069568
0.12884584 -0.016454821 0.65700001 4291938239
0.13009442 -0.016454568 0.65700001 4292069055
0.13154301 -0.016479358 0.65799999 4292069055
0.13299541 -0.016504141 0.65899998 4291872446
0.134248 -0.016503874 0.65899998 4291806653
0.13591187 -0.016553694 0.66100001 4291610044
0.13737588 -0.01657846 0.662 4291610044
0.13884373 -0.016603222 0.66299999 4291478201
0.14010414 -0.016602937 0.66299999 4291412408
0.1413646 -0.016602648 0.66299999 4291346615
0.14284024 -0.016627394 0.66399997 4291083444
0.1447538 -0.016702216 0.667 4291017391
0.14624096 -0.016726952 0.66799998 4290951598
0.14795278 -0.016776716 0.67000002 4291016619
0.14967228 -0.016826479 0.67199999 4291016619
0.15095021 -0.016826157 0.67199999 4290819497
0.036695156 -0.015799817 0.68199998 4293385417
0.037876256 -0.015753416 0.68000001 4293385417
0.039107397 -0.015730182 0.67900002 4293385419
0.040334765 -0.015706941 0.67799997 4293451212
0.041619755 -0.015706867 0.67799997 4293386191
0.042778213 -0.015660459 0.676 4293583314
0.043929119 -0.01561405 0.67400002 4293583314
0.045072466 -0.015567639 0.67199999 4293649107
0.046277232 -0.015544393 0.671 4293714902
0.047549099 -0.015544312 0.671 4293714902
0.048748232 -0.01552106 0.67000002 4293649109
0.049719654 -0.015428312 0.66600001 4293649109
0.050982133 -0.015428225 0.66600001 4293648855
0.052323096 -0.015451301 0.667 4293714648
0.053507209 -0.015428045 0.66600001 4293715165
0.054605309 -0.01538162 0.66399997 4293715165
0.055695873 -0.015335198 0.662 4293714648
0.056950945 -0.0153351 0.662 4293648855
0.058118131 -0.015311836 0.66100001 4293648855
0.059371371 -0.015311733 0.66100001 4293648855
0.060624659 -0.01531163 0.66100001 4293648855
0.061690751 -0.015265196 0.65899998 4293583062
0.062844828 -0.015241926 0.65799999 4293648855
0.064092532 -0.015241815 0.65799999 4293583062
0.065439604 -0.015264869 0.65899998 4293583316
0.066689298 -0.015264754 0.65899998 4293714902
0.067835934 -0.015241472 0.65799999 4293649107
0.069083817 -0.015241356 0.65799999 4293649107
0.070224859 -0.015218072 0.65700001 4293649109
0.071470939 -0.01521795 0.65700001 4293649109
0.072717041 -0.015217822 0.65700001 4293583316
0.073738053 -0.015171368 0.65499997 4293517267
0.074865997 -0.015148078 0.65399998 4293517269
0.076106563 -0.015147945 0.65399998 4293517269
0.077347174 -0.01514781 0.65399998 4293517269
0.078587845 -0.015147675 0.65399998 4293254097
0.079828545 -0.015147533 0.65399998 4293254099
0.080945335 -0.015124229 0.653 4293385685
0.082184248 -0.015124084 0.653 4293385939
0.083423205 -0.015123937 0.653 4293385939
0.084662229 -0.015123786 0.653 4293320146
0.085769713 -0.015100474 0.65200001 4293320146
0.086740024 -0.015053997 0.64999998 4293254612
0.087838158 -0.01503068 0.64899999 4293254612
0.089069761 -0.015030518 0.64899999 4293254097
0.0901623 -0.015007197 0.648 4293188304
0.091251098 -0.014983872 0.64700001 4293057488
0.09247908 -0.014983702 0.64700001 4293057488
0.093562283 -0.014960374 0.64600003 4292991693
0.094788462 -0.014960198 0.64600003 4292925900
0.09616334 -0.01498318 0.64700001 4292925900
0.097391523 -0.014982997 0.64700001 4292925900
0.098619774 -0.014982813 0.64700001 4292728266
0.099848077 -0.014982628 0.64700001 4292465351
0.10123266 -0.015005593 0.648 4292531142
0.10246298 -0.0150054 0.648 4292597191
0.10433342 -0.015097829 0.65200001 4292596167
0.10557144 -0.015097626 0.65200001 4292596167
0.10697333 -0.015120576 0.653 4292595655
0.1085448 -0.015166677 0.65499997 4292595655
0.10978869 -0.015166464 0.65499997 4292399044
0.11103263 -0.01516625 0.65499997 4292530373
0.11227661 -0.015166029 0.65499997 4292530371
0.11352068 -0.015165806 0.65499997 4292662214
0.11476481 -0.015165579 0.65499997 4292399557
0.11583186 -0.015142193 0.65399998 4292399557
0.11689518 -0.015118807 0.653 4292399555
0.11813566 -0.015118567 0.653 4292399555
0.11937621 -0.015118329 0.653 4292333510
0.12080152 -0.015141234 0.65399998 4292136388
0.12185746 -0.015117831 0.653 4292136388
0.12309818 -0.015117578 0.653 4292136388
0.12471978 -0.015163622 0.65499997 4292004546
0.1259644 -0.015163358 0.65499997 4291872959
0.12759753 -0.015209393 0.65700001 4291938239
0.12884608 -0.015209123 0.65700001 4291872446
0.13029268 -0.015231993 0.65799999 4291872700
0.13154326 -0.015231714 0.65799999 4291806651
0.13299569 -0.015254576 0.65899998 4291478204
0.13465573 -0.015300582 0.66100001 4291412410
0.13591215 -0.015300287 0.66100001 4291412408
0.13758367 -0.015346279 0.66299999 4291412408
0.13884406 -0.015345976 0.66299999 4291215538
0.14031576 -0.01536881 0.66399997 4291017902
0.14157812 -0.015368494 0.66399997 4290951857
0.14284056 -0.015368174 0.66399997 4290886064
0.14497112 -0.015460426 0.66799998 4291082664
0.14711697 -0.015552671 0.67199999 4291016871
0.14839476 -0.015552333 0.67199999 4291016869
0.14967263 -0.015551989 0.67199999 4290819747
0.15095052 -0.01555164 0.67199999 4290753699
0.036749035 -0.014529308 0.68300003 4292794052
0.037987728 -0.014507959 0.68199998 4293056968
0.039165061 -0.014465335 0.68000001 4293385419
0.04039434 -0.014443984 0.67900002 4293451212
0.041619834 -0.014422626 0.67799997 4293320396
0.042778302 -0.014380001 0.676 4293386189
0.043994382 -0.014358642 0.67500001 4293386189
0.045072552 -0.014294737 0.67199999 4293583312
0.046346296 -0.014294648 0.67199999 4293452244
0.047549188 -0.014273282 0.671 4293452244
0.048821084 -0.014273187 0.671 4293452244
0.050018366 -0.014251821 0.67000002 4293452244
0.05128843 -0.014251721 0.67000002 4293452246
0.05240164 -0.014209077 0.66799998 4293518039
0.053587642 -0.014187702 0.667 4293518039
0.054769885 -0.014166326 0.66600001 4293649368
0.055780102 -0.014102407 0.66299999 4293649109
0.05695105 -0.014081027 0.662 4293649109
0.05820616 -0.014080914 0.662 4293583062
0.059371483 -0.014059531 0.66100001 4293583062
0.060624775 -0.014059413 0.66100001 4293583062
0.0618781 -0.014059295 0.66100001 4293517269
0.062940441 -0.014016635 0.65899998 4293583316
0.06419006 -0.014016511 0.65899998 4293583316
0.065439716 -0.014016384 0.65899998 4293649109
0.066689417 -0.014016254 0.65899998 4293583316
0.067836061 -0.013994856 0.65799999 4293320657
0.069083944 -0.013994722 0.65799999 4293320657
0.070438758 -0.014015852 0.65899998 4293320144
0.071471065 -0.013973178 0.65700001 4293385937
0.072717182 -0.013973038 0.65700001 4293385939
0.073738188 -0.013930357 0.65499997 4293320146
0.074866131 -0.013908943 0.65399998 4293320146
0.076106697 -0.013908796 0.65399998 4293385939
0.077347331 -0.013908643 0.65399998 4293320146
0.078587987 -0.013908491 0.65399998 4293254097
0.07982868 -0.013908332 0.65399998 4293122511
0.080945484 -0.013886906 0.653 4293320146
0.082184397 -0.013886744 0.653 4293188304
0.083423361 -0.013886577 0.653 4293188304
0.08466237 -0.013886411 0.653 4293188304
0.085901432 -0.013886238 0.653 4293122511
0.087007113 -0.013864801 0.65200001 4293056718
0.087973662 -0.013822092 0.64999998 4293056718
0.08920718 -0.013821914 0.64999998 4293056718
0.090301633 -0.013800467 0.64899999 4292990924
0.091392316 -0.013779019 0.648 4292990924
0.092622191 -0.013778831 0.648 4292990924
0.093707301 -0.013757374 0.64700001 4292860106
0.09493538 -0.013757179 0.64700001 4292925900
0.096163534 -0.013756983 0.64700001 4292729290
0.097391732 -0.013756783 0.64700001 4292663497
0.098772399 -0.013777841 0.648 4292334535
0.10000261 -0.013777632 0.648 4292334535
0.10123287 -0.013777422 0.648 4292596165
0.10309567 -0.013862249 0.65200001 4292596165
0.10433363 -0.01386203 0.65200001 4292399044
0.10557166 -0.013861809 0.65200001 4292332995
0.10697354 -0.013882841 0.653 4292529860
0.10854501 -0.01392513 0.65499997 4292529860
0.1097889 -0.013924895 0.65499997 4292399042
0.11103286 -0.013924656 0.65499997 4292530371
0.11227685 -0.013924414 0.65499997 4292399555
0.11352091 -0.013924169 0.65499997 4292399555
0.11476503 -0.013923916 0.65499997 4292399555
0.11583211 -0.013902409 0.65399998 4292333762
0.11689542 -0.013880894 0.653 4292267202
0.1181359 -0.013880631 0.653 4292201409
0.11937645 -0.013880368 0.653 4292201411
0.12080177 -0.013901354 0.65399998 4292267204
0.12204434 -0.013901081 0.65399998 4292201409
0.12328696 -0.013900804 0.65399998 4292201409
0.12510088 -0.013964286 0.65700001 4291938493
0.12634933 -0.013964 0.65700001 4291872700
0.12779202 -0.013984962 0.65799999 4291740860
0.12923859 -0.014005917 0.65899998 4291806653
0.130491 -0.014005618 0.65899998 4291807166
0.13214329 -0.014047817 0.66100001 4291675837
0.13339964 -0.014047507 0.66100001 4291346615
0.13485973 -0.014068443 0.662 4291346615
0.13611807 -0.014068122 0.662 4291346100
0.13758402 -0.014089049 0.66299999 4291148720
0.13905378 -0.014109967 0.66399997 4291214516
0.14073874 -0.014152133 0.66600001 4290819758
0.14221813 -0.014173038 0.667 4290884268
0.14370139 -0.014193942 0.66799998 4290950061
0.14583956 -0.01427858 0.67199999 4291016617
0.1471173 -0.01427822 0.67199999 4290819495
0.14883679 -0.01432035 0.67400002 4290556836
0.15011844 -0.014319979 0.67400002 4290556836
0.15140018 -0.014319606 0.67400002 4290556320
0.036802918 -0.013255003 0.68400002 4292597191
0.03804351 -0.013235542 0.68300003 4292794313
0.03928034 -0.013216075 0.68199998 4293123015
0.040453911 -0.013177229 0.68000001 4293320394
0.041681316 -0.013157763 0.67900002 4293385417
0.042904947 -0.013138288 0.67799997 4293451210
0.043994471 -0.01308006 0.67500001 4293386189
0.045072652 -0.013021829 0.67199999 4293583312
0.046346389 -0.013021729 0.67199999 4293517521
0.047620151 -0.013021626 0.67199999 4293386191
0.048821196 -0.013002144 0.671 4293385937
0.050093118 -0.013002035 0.671 4293583316
0.05128853 -0.012982547 0.67000002 4293583316
0.052558638 -0.012982435 0.67000002 4293517267
0.053668093 -0.012943566 0.66799998 4293649107
0.054852236 -0.012924071 0.667 4293649107
0.056116756 -0.012923954 0.667 4293649107
0.057037201 -0.012846326 0.66299999 4293714900
0.058206279 -0.012826825 0.662 4293517267
0.059461426 -0.012826698 0.662 4293517267
0.060624897 -0.012807191 0.66100001 4293517269
0.061878227 -0.01280706 0.66100001 4293385939
0.063131601 -0.012806925 0.66100001 4293385937
0.064190201 -0.012768039 0.65899998 4293320144
0.065439858 -0.012767896 0.65899998 4293517521
