# .PCD v0.7 - Point Cloud Data file format
VERSION 0.7
FIELDS x y z rgba
SIZE 4 4 4 4
TYPE F F F U
COUNT 1 1 1 1
WIDTH 1043
HEIGHT 1
VIEWPOINT 0 0 0 1 0 0 0
POINTS 1043
DATA ascii
-0.17859104 -0.052362744 0.704 4292924114
-0.17800575 -0.052585535 0.70700002 4292924114
-0.17740904 -0.052808315 0.70999998 4292596689
-0.17630507 -0.052882329 0.71100003 4292728018
-0.17568947 -0.053105094 0.71399999 4292400339
-0.17433001 -0.05310471 0.71399999 4291807946
-0.30794671 -0.049152851 0.67900002 4292661195
-0.3034986 -0.048648112 0.67199999 4292595663
-0.30042598 -0.048360489 0.66799998 4292529870
-0.29915968 -0.048362404 0.66799998 4292529618
-0.29744717 -0.048291869 0.667 4292990169
-0.29573828 -0.04822129 0.66600001 4292727764
-0.29447511 -0.048223086 0.66600001 4292859607
-0.29233122 -0.048080023 0.66399997 4292727768
-0.29107144 -0.048081744 0.66399997 4292990941
-0.28937495 -0.048011001 0.66299999 4292925659
-0.28811663 -0.048012637 0.66299999 4292794330
-0.2864255 -0.04794183 0.662 4292662743
-0.28473794 -0.047870971 0.66100001 4292728537
-0.28348285 -0.047872506 0.66100001 4292991706
-0.28222758 -0.047873996 0.66100001 4293123292
-0.27969694 -0.047658175 0.65799999 4292794332
-0.27844706 -0.047659602 0.65799999 4293057247
-0.27677572 -0.047588557 0.65700001 4293057501
-0.27552739 -0.047589913 0.65700001 4293057501
-0.27344394 -0.047446363 0.65499997 4292925663
-0.27219906 -0.047447644 0.65499997 4293123042
-0.27095407 -0.047448911 0.65499997 4293254108
-0.26970899 -0.04745014 0.65499997 4293320157
-0.26846367 -0.047451328 0.65499997 4293056986
-0.26721826 -0.047452495 0.65499997 4293320157
-0.26556668 -0.047381192 0.65399998 4293056218
-0.26391873 -0.047309849 0.653 4293253597
-0.2622745 -0.047238473 0.65200001 4293320155
-0.26103428 -0.047239516 0.65200001 4293385949
-0.25979394 -0.047240525 0.65200001 4293188317
-0.25895002 -0.04731397 0.653 4293188317
-0.25731292 -0.047242481 0.65200001 4293254110
-0.25607225 -0.047243413 0.65200001 4293517539
-0.25522232 -0.047316782 0.653 4293386462
-0.25397956 -0.047317661 0.653 4293452255
-0.25273669 -0.047318514 0.653 4293254112
-0.25187886 -0.04739181 0.65399998 4293517285
-0.2506339 -0.047392607 0.65399998 4293518052
-0.24977016 -0.047465857 0.65499997 4293649638
-0.24852312 -0.04746661 0.65499997 4293452509
-0.24727599 -0.047467336 0.65499997 4293452509
-0.24602883 -0.047468044 0.65499997 4293386464
-0.24478155 -0.047468729 0.65499997 4293386464
-0.24353419 -0.047469381 0.65499997 4293451744
-0.24302663 -0.047614969 0.65700001 4293648866
-0.24177536 -0.047615573 0.65700001 4293517537
-0.2397918 -0.047471218 0.65499997 4293648866
-0.23818 -0.047399297 0.65399998 4293780454
-0.23693424 -0.047399849 0.65399998 4293978090
-0.23604883 -0.047472842 0.65499997 4293517537
-0.23551802 -0.047618292 0.65700001 4293385951
-0.23426637 -0.047618773 0.65700001 4293451746
-0.23301472 -0.047619227 0.65700001 4293714661
-0.23176302 -0.047619663 0.65700001 4293385951
-0.23051126 -0.04762008 0.65700001 4293320157
-0.22925946 -0.047620468 0.65700001 4293320157
-0.22800763 -0.047620848 0.65700001 4293451744
-0.22675577 -0.047621202 0.65700001 4293582812
-0.22550388 -0.047621533 0.65700001 4293648605
-0.22425197 -0.047621854 0.65700001 4293385184
-0.22300003 -0.047622152 0.65700001 4293516769
-0.22208557 -0.04769491 0.65799999 4293385437
-0.22183849 -0.047912624 0.66100001 4293253851
-0.22057888 -0.047912873 0.66100001 4293648605
-0.21965101 -0.04798558 0.662 4293780191
-0.21838945 -0.047985785 0.662 4293649118
-0.21712787 -0.047985978 0.662 4293649118
-0.21619235 -0.048058636 0.66299999 4293386210
-0.21492885 -0.048058793 0.66299999 4293583845
-0.21334304 -0.04798644 0.662 4293649120
-0.21208148 -0.047986571 0.662 4293649120
-0.21145675 -0.048131645 0.66399997 4293516769
-0.21019134 -0.048131734 0.66399997 4293582562
-0.20955521 -0.048276786 0.66600001 4293517791
-0.20859873 -0.048349332 0.667 4293780706
-0.20732762 -0.048349384 0.667 4293385437
-0.20636544 -0.048421901 0.66799998 4293516767
-0.20570645 -0.048566893 0.67000002 4293517019
-0.20442963 -0.048566893 0.67000002 4293517019
-0.20315282 -0.048566889 0.67000002 4293385435
-0.20217736 -0.048639346 0.671 4293385435
-0.20119809 -0.048711795 0.67199999 4293385689
-0.19991748 -0.048711736 0.67199999 4293517019
-0.19922815 -0.04885665 0.67400002 4293320155
-0.19794381 -0.048856568 0.67400002 4293254362
-0.19695129 -0.048928954 0.67500001 4293253851
-0.19653468 -0.049146313 0.67799997 4293253851
-0.19553082 -0.049218688 0.67900002 4293253851
-0.19452311 -0.049291041 0.68000001 4293253851
-0.19379579 -0.049435873 0.68199998 4293188567
-0.19277862 -0.049508203 0.68300003 4293188567
-0.19175769 -0.049580526 0.68400002 4293122009
-0.19101141 -0.049725316 0.68599999 4293253851
-0.18970448 -0.049725126 0.68599999 4293056214
-0.18894683 -0.049869902 0.68800002 4293188056
-0.18818162 -0.050014656 0.69 4293057238
-0.18713801 -0.050086927 0.69099998 4292925652
-0.18635952 -0.050231662 0.69300002 4292925398
-0.18530646 -0.050303899 0.69400001 4292925398
-0.18477987 -0.050521106 0.69700003 4292793300
-0.18371549 -0.05059332 0.69800001 4292793300
-0.18290859 -0.050738018 0.69999999 4292859091
-0.18183476 -0.050810214 0.70099998 4292990420
-0.18101466 -0.050954886 0.70300001 4292661458
-0.1799314 -0.051027067 0.704 4292859093
-0.18087386 -0.05167909 0.713 4292924114
-0.17951605 -0.051678762 0.713 4292858321
-0.17815833 -0.051678438 0.713 4292661712
-0.17704862 -0.051750574 0.71399999 4292727505
-0.1756891 -0.051750232 0.71399999 4292334542
-0.17481795 -0.05189484 0.71600002 4291479489
-0.30923522 -0.047861356 0.67900002 4291148219
-0.30749521 -0.047792908 0.67799997 4292332749
-0.30440384 -0.047512926 0.67400002 4292332495
-0.30177715 -0.047303382 0.671 4292266702
-0.29916158 -0.047093779 0.66799998 4292529104
-0.29744905 -0.047025125 0.667 4292660947
-0.2957401 -0.046956439 0.66600001 4292595665
-0.2944769 -0.046958208 0.66600001 4292793300
-0.29233292 -0.046818927 0.66399997 4292596948
-0.29107308 -0.046820622 0.66399997 4292794584
-0.28981307 -0.046822283 0.66399997 4292794330
-0.28811824 -0.046753399 0.66299999 4292728537
-0.28685975 -0.046754993 0.66299999 4292728537
-0.28517023 -0.046686023 0.662 4292794330
-0.28391325 -0.046687547 0.662 4292794584
-0.28222904 -0.046618506 0.66100001 4292991706
-0.28012347 -0.046478897 0.65899998 4292662743
-0.2784484 -0.046409782 0.65799999 4293057501
-0.27719834 -0.046411168 0.65799999 4293057501
-0.27552873 -0.046341989 0.65700001 4293057501
-0.27344522 -0.04620222 0.65499997 4293057501
-0.27220035 -0.046203505 0.65499997 4293057501
-0.27095532 -0.046204753 0.65499997 4292794330
-0.26971018 -0.046205979 0.65499997 4293057501
-0.26846486 -0.046207175 0.65499997 4292859607
-0.26721942 -0.046208333 0.65499997 4292991193
-0.26556778 -0.04613892 0.65399998 4292925400
-0.2639198 -0.046069469 0.653 4293188315
-0.26227555 -0.045999996 0.65200001 4293189085
-0.26103532 -0.046001039 0.65200001 4293189085
-0.25979495 -0.04600206 0.65200001 4293320157
-0.25895101 -0.046073597 0.653 4293254108
-0.25731388 -0.046004005 0.65200001 4293056986
-0.25607318 -0.04600494 0.65200001 4293385951
-0.25522321 -0.046076406 0.653 4293254362
-0.2539804 -0.046077292 0.653 4293320155
-0.25312456 -0.046148714 0.65399998 4292991195
-0.25187966 -0.046149544 0.65399998 4293254110
-0.25101793 -0.046220921 0.65499997 4293123292
-0.24977091 -0.046221703 0.65499997 4293255135
-0.24852385 -0.04622246 0.65499997 4293386464
-0.24803178 -0.046364337 0.65700001 4293386464
-0.24678077 -0.046365052 0.65700001 4293123292
-0.24552965 -0.046365742 0.65700001 4293255135
-0.24427848 -0.046366408 0.65700001 4293123294
-0.24228741 -0.046225902 0.65499997 4293254881
-0.24103992 -0.04622652 0.65499997 4293255135
-0.23979236 -0.046227109 0.65499997 4293386464
-0.23818053 -0.04615711 0.65399998 4293189088
-0.23693477 -0.046157662 0.65399998 4293254881
-0.23604931 -0.046228766 0.65499997 4293385951
-0.2355185 -0.046370439 0.65700001 4293320157
-0.23426685 -0.046370927 0.65700001 4293254110
-0.23336983 -0.046441976 0.65799999 4293254110
-0.23211621 -0.046442427 0.65799999 4293188315
-0.23051168 -0.046372268 0.65700001 4293188315
-0.22925986 -0.046372686 0.65700001 4293188315
-0.22800802 -0.046373062 0.65700001 4293320157
-0.22675613 -0.046373434 0.65700001 4293188054
-0.22584747 -0.046444364 0.65799999 4293253847
-0.22459361 -0.046444692 0.65799999 4293384667
-0.22367914 -0.046515584 0.65899998 4293450460
-0.22309838 -0.046657059 0.66100001 4293319644
-0.22183877 -0.046657335 0.66100001 4293253851
-0.22057909 -0.046657592 0.66100001 4293253847
-0.21965125 -0.046728421 0.662 4293319640
-0.21838966 -0.046728645 0.662 4293254360
-0.21712805 -0.046728846 0.662 4293517789
-0.21619253 -0.046799626 0.66299999 4293452255
-0.21492901 -0.046799805 0.66299999 4293386462
-0.2133432 -0.046729364 0.662 4293255135
-0.2120816 -0.046729513 0.662 4293518050
-0.2120938 -0.047011986 0.66600001 4293255135
-0.21082455 -0.047012106 0.66600001 4293386464
-0.20986994 -0.047082782 0.667 4293451742
-0.20859879 -0.047082867 0.667 4293320155
-0.20732766 -0.047082935 0.667 4293253851
-0.20636547 -0.047153566 0.66799998 4293319644
-0.2050924 -0.0471536 0.66799998 4293385689
-0.20442964 -0.047294814 0.67000002 4293319640
-0.20315284 -0.04729481 0.67000002 4292990420
-0.20217729 -0.047365393 0.671 4292990420
-0.201198 -0.047435962 0.67199999 4292859089
-0.19991745 -0.047435932 0.67199999 4293319640
-0.19922809 -0.047577068 0.67400002 4293320153
-0.19794375 -0.047577016 0.67400002 4293254360
-0.1969512 -0.047647528 0.67500001 4292859091
-0.19653457 -0.047859203 0.67799997 4293122263
-0.19553068 -0.047929704 0.67900002 4292990423
-0.19452298 -0.048000187 0.68000001 4293122009
-0.19379564 -0.048141237 0.68199998 4293122263
-0.19306073 -0.048282292 0.68400002 4293056214
-0.19175754 -0.048282154 0.68400002 4292990420
-0.19101122 -0.048423167 0.68599999 4293056214
-0.1897043 -0.048423 0.68599999 4292990674
-0.18894665 -0.048564002 0.68800002 4293056468
-0.18845415 -0.048775576 0.69099998 4292859602
-0.18767944 -0.048916552 0.69300002 4292859602
-0.18662824 -0.048986934 0.69400001 4292859604
-0.18584025 -0.049127884 0.69599998 4292793811
-0.18504472 -0.049268827 0.69800001 4292530640
-0.18424164 -0.049409758 0.69999999 4292596689
-0.18290831 -0.049409512 0.69999999 4292661712
-0.18183452 -0.049479846 0.70099998 4292661712
-0.18101437 -0.04962074 0.70300001 4292661710
-0.17993112 -0.049691051 0.704 4292793296
-0.18087351 -0.05032602 0.713 4292530640
-0.17951575 -0.050325722 0.713 4292464847
-0.17765826 -0.05018425 0.71100003 4292397768
-0.17630441 -0.050183948 0.71100003 4292529610
-0.30923727 -0.046571914 0.67900002 4289963956
-0.30749717 -0.046505332 0.67799997 4291806160
-0.30621237 -0.046507306 0.67799997 4292200909
-0.301779 -0.046029054 0.671 4292200909
-0.29916346 -0.045825135 0.66799998 4292266702
-0.29745087 -0.045758359 0.667 4292529618
-0.29618594 -0.045760158 0.667 4292529872
-0.29447863 -0.045693312 0.66600001 4292793300
-0.29321522 -0.045695037 0.66600001 4292596689
-0.29195151 -0.04569672 0.66600001 4292925398
-0.29068768 -0.045698378 0.66600001 4292859604
-0.28855443 -0.045562759 0.66399997 4292728018
-0.28729394 -0.045564339 0.66399997 4292662743
-0.28560254 -0.045497261 0.66299999 4292925659
-0.28391474 -0.04543015 0.662 4292794584
-0.2826575 -0.045431625 0.662 4293057499
-0.2801249 -0.045227185 0.65899998 4292662743
-0.278873 -0.045228589 0.65899998 4292794330
-0.27719969 -0.045161325 0.65799999 4293057240
-0.27553004 -0.045094043 0.65700001 4293057240
-0.2742815 -0.045095351 0.65700001 4292991706
-0.27303278 -0.045096632 0.65700001 4293057499
-0.27095658 -0.044960596 0.65499997 4293057499
-0.26971135 -0.04496181 0.65499997 4293123292
-0.26846603 -0.044963002 0.65499997 4293056216
-0.26722059 -0.044964157 0.65499997 4293122009
-0.26597497 -0.044965286 0.65499997 4293122011
-0.26432508 -0.044897743 0.65399998 4293319390
-0.26267886 -0.044830166 0.653 4293254362
-0.2614367 -0.044831209 0.653 4293254362
-0.26019442 -0.04483223 0.653 4293254108
-0.25895199 -0.044833213 0.653 4293385951
-0.2573148 -0.044765525 0.65200001 4293189339
-0.2560741 -0.044766456 0.65200001 4293255133
-0.25522411 -0.044836026 0.653 4293123292
-0.25398132 -0.044836916 0.653 4293189085
-0.2531254 -0.044906441 0.65399998 4293254108
-0.2518805 -0.044907272 0.65399998 4293320157
-0.2510187 -0.044976752 0.65499997 4293254108
-0.24977167 -0.044977549 0.65499997 4293320157
-0.24852462 -0.044978306 0.65499997 4293320155
-0.24803248 -0.045116391 0.65700001 4293385949
-0.24678148 -0.045117114 0.65700001 4293189088
-0.24553034 -0.045117814 0.65700001 4293452259
-0.24427915 -0.045118488 0.65700001 4293123294
-0.24228801 -0.044981778 0.65499997 4293189088
-0.24104051 -0.044982407 0.65499997 4293255135
-0.23979296 -0.044983018 0.65499997 4293452257
-0.2381811 -0.044914924 0.65399998 4293254110
-0.23693529 -0.044915479 0.65399998 4293188317
-0.23604986 -0.044984691 0.65499997 4293319904
-0.23551899 -0.045122582 0.65700001 4293319904
-0.23426734 -0.045123074 0.65700001 4293254110
-0.2330156 -0.045123555 0.65700001 4293188317
-0.23176391 -0.045124024 0.65700001 4293188317
-0.2305121 -0.045124456 0.65700001 4293056988
-0.22926027 -0.045124877 0.65700001 4293253849
-0.22800839 -0.04512528 0.65700001 4293319642
-0.22675645 -0.04512566 0.65700001 4293188054
-0.22550459 -0.045126021 0.65700001 4293188054
-0.2242526 -0.045126364 0.65700001 4293253851
-0.22367945 -0.045264065 0.65899998 4293253851
-0.22309868 -0.045401748 0.66100001 4293253851
-0.22183904 -0.045402039 0.66100001 4293056216
-0.22057936 -0.045402311 0.66100001 4293056468
-0.21965151 -0.045471258 0.662 4293188054
-0.21838987 -0.045471493 0.662 4293188315
-0.21712828 -0.04547172 0.662 4293517537
-0.21619271 -0.045540616 0.66299999 4293386716
-0.21492921 -0.04554081 0.66299999 4293123544
-0.21366565 -0.045540981 0.66299999 4293189085
-0.21240212 -0.045541145 0.66299999 4293649636
-0.21145698 -0.045609973 0.66399997 4293386462
-0.21114123 -0.045816176 0.667 4293255133
-0.20987004 -0.045816291 0.667 4293386203
-0.20859888 -0.045816392 0.667 4293188567
-0.20732774 -0.045816481 0.667 4293253851
-0.2063655 -0.045885239 0.66799998 4293253851
-0.20509245 -0.045885287 0.66799998 4293320153
-0.20381944 -0.045885339 0.66799998 4293320153
-0.20254642 -0.045885362 0.66799998 4293057240
-0.20217732 -0.046091452 0.671 4293188569
-0.20089862 -0.046091452 0.671 4293187802
-0.19991741 -0.046160132 0.67199999 4293319644
-0.19922806 -0.046297494 0.67400002 4293385687
-0.19794369 -0.046297461 0.67400002 4293385687
-0.19782646 -0.046572175 0.67799997 4293188054
-0.19682439 -0.046640795 0.67900002 4293517019
-0.19553061 -0.046640735 0.67900002 4293188056
-0.19452287 -0.046709333 0.68000001 4293188056
-0.19379555 -0.046846617 0.68199998 4292990423
-0.19277836 -0.046915203 0.68300003 4292793300
-0.19175741 -0.046983775 0.68400002 4292859091
-0.19101109 -0.047121018 0.68599999 4292990420
-0.18970414 -0.047120877 0.68599999 4292990672
-0.18894649 -0.047258113 0.68800002 4293056466
-0.18845397 -0.047464009 0.69099998 4292859856
-0.18767925 -0.047601219 0.69300002 4292794063
-0.18662803 -0.047669724 0.69400001 4292859089
-0.18584006 -0.047806904 0.69599998 4292793296
-0.18477942 -0.047875389 0.69700003 4292727503
-0.18424138 -0.048081242 0.69999999 4292793296
-0.18316936 -0.048149705 0.70099998 4292661710
-0.18235303 -0.048286851 0.70300001 4292661710
-0.1812716 -0.048355289 0.704 4292661708
-0.18069761 -0.048561104 0.70700002 4292727757
-0.18087325 -0.048972961 0.713 4292661710
-0.17951547 -0.048972689 0.713 4292595917
-0.17765798 -0.048835043 0.71100003 4292463565
-0.17630409 -0.048834763 0.71100003 4292529358
-0.30969471 -0.045349117 0.68000001 4289702058
-0.3074992 -0.045217723 0.67799997 4291610055
-0.30621427 -0.045219675 0.67799997 4291675081
-0.30357993 -0.045021497 0.67500001 4292004046
-0.30006102 -0.044689868 0.67000002 4292004298
-0.29789862 -0.044558279 0.66799998 4292333262
-0.29663178 -0.044560052 0.66799998 4292398540
-0.2949225 -0.044495091 0.667 4292398540
-0.29365715 -0.044496804 0.667 4292332747
-0.29239154 -0.044498477 0.667 4292727505
-0.29112571 -0.044500113 0.667 4292728018
-0.28985974 -0.044501726 0.667 4292728018
-0.28816089 -0.044436585 0.66600001 4292596950
-0.28689638 -0.04443812 0.66600001 4292794330
-0.28434512 -0.04423945 0.66299999 4292794580
-0.28265896 -0.044174191 0.662 4292926165
-0.28097644 -0.044108894 0.66100001 4292596948
-0.2788744 -0.043976832 0.65899998 4292662741
-0.27762237 -0.043978207 0.65899998 4292859091
-0.27595076 -0.043912809 0.65799999 4292990420
-0.27428278 -0.043847371 0.65700001 4292596950
-0.27303404 -0.043848645 0.65700001 4292925659
-0.27178514 -0.043849889 0.65700001 4292991708
-0.27053612 -0.043851107 0.65700001 4292991708
-0.26928699 -0.043852296 0.65700001 4293056218
-0.26803765 -0.043853458 0.65700001 4293056218
-0.2659761 -0.043721091 0.65499997 4293055705
-0.26432618 -0.043655436 0.65399998 4293055705
-0.26308218 -0.043656509 0.65399998 4293122009
-0.26143774 -0.043590803 0.653 4293187802
-0.2601954 -0.043591812 0.653 4292596950
-0.25895298 -0.043592803 0.653 4292991708
-0.25731578 -0.043527022 0.65200001 4293254108
-0.25607505 -0.043527957 0.65200001 4293188315
-0.25522503 -0.043595631 0.653 4293056986
-0.25437111 -0.043663278 0.65399998 4293254108
-0.25312626 -0.043664139 0.65399998 4293320157
-0.25226644 -0.043731749 0.65499997 4293188315
-0.25178602 -0.043866117 0.65700001 4293122009
-0.25053516 -0.043866903 0.65700001 4293187802
-0.24928425 -0.043867681 0.65700001 4293187802
-0.24841081 -0.043935206 0.65799999 4293187802
-0.24715778 -0.043935925 0.65799999 4292991195
-0.24553104 -0.043869853 0.65700001 4293188317
-0.24427983 -0.043870538 0.65700001 4293057499
-0.24302852 -0.043871202 0.65700001 4293189085
-0.24177715 -0.043871839 0.65700001 4293255131
-0.23979352 -0.043738894 0.65499997 4293255131
-0.23854589 -0.043739494 0.65499997 4293188315
-0.23729818 -0.043740064 0.65499997 4293188315
-0.23605038 -0.043740604 0.65499997 4293056988
-0.2355195 -0.0438747 0.65700001 4293056988
-0.23426785 -0.043875214 0.65700001 4293056988
-0.23301609 -0.043875705 0.65700001 4293056988
-0.23176438 -0.043876182 0.65700001 4293056986
-0.23051251 -0.043876629 0.65700001 4293056986
-0.22926068 -0.043877065 0.65700001 4293056216
-0.22800879 -0.043877475 0.65700001 4293056216
-0.22675687 -0.043877877 0.65700001 4293056214
-0.22550492 -0.04387825 0.65700001 4293056214
-0.22425292 -0.043878611 0.65700001 4292990423
-0.22435865 -0.044146102 0.66100001 4293187802
-0.22309899 -0.044146422 0.66100001 4292991193
-0.22183932 -0.044146728 0.66100001 4292859607
-0.22057967 -0.04414703 0.66100001 4292859602
-0.21965177 -0.044214092 0.662 4293057238
-0.21839009 -0.044214338 0.662 4292991191
-0.21712852 -0.044214591 0.662 4293254362
-0.21619293 -0.044281602 0.66299999 4293254362
-0.21492939 -0.044281807 0.66299999 4293188569
-0.2136658 -0.044281997 0.66299999 4293188315
-0.21272261 -0.044348974 0.66399997 4293254108
-0.21145715 -0.044349138 0.66399997 4293254360
-0.21114135 -0.044549651 0.667 4293254360
-0.20987016 -0.044549793 0.667 4293254360
-0.20859899 -0.044549908 0.667 4293254360
-0.2073278 -0.044550009 0.667 4293057240
-0.20636559 -0.044616897 0.66799998 4293188569
-0.20509252 -0.044616979 0.66799998 4293188567
-0.20381947 -0.044617038 0.66799998 4293188567
-0.20254643 -0.044617087 0.66799998 4292991704
-0.20217733 -0.0448175 0.671 4293123546
-0.20089865 -0.044817526 0.671 4292859607
-0.19991741 -0.044884328 0.67199999 4292859607
-0.19922802 -0.045017913 0.67400002 4292990674
-0.19823731 -0.045084689 0.67500001 4293056468
-0.1978264 -0.045285039 0.67799997 4292859091
-0.19682433 -0.045351796 0.67900002 4292859091
-0.19553055 -0.045351747 0.67900002 4292859093
-0.19509493 -0.04555206 0.68199998 4292859093
-0.19379544 -0.045551989 0.68199998 4292793811
-0.19277823 -0.045618698 0.68300003 4292793811
-0.19175728 -0.045685392 0.68400002 4292793296
-0.19101097 -0.045818869 0.68599999 4292727503
-0.18970402 -0.045818757 0.68599999 4292727244
-0.18894632 -0.045952208 0.68800002 4292727244
-0.18899927 -0.046286024 0.69300002 4292661708
-0.18767904 -0.046285879 0.69300002 4292595915
-0.18662786 -0.046352517 0.69400001 4292463817
-0.18530585 -0.046352342 0.69400001 4292529610
-0.18477921 -0.04655255 0.69700003 4292529610
-0.18424118 -0.046752717 0.69999999 4292529610
-0.18316919 -0.046819307 0.70099998 4292463817
-0.18261224 -0.047019482 0.704 4292463817
-0.18204384 -0.047219627 0.70700002 4292463817
-0.18146412 -0.047419768 0.70999998 4292529610
-0.18087301 -0.047619905 0.713 4292529870
-0.17951521 -0.047619656 0.713 4292529870
-0.17765774 -0.047485836 0.71100003 4292333008
-0.17630383 -0.047485583 0.71100003 4292464595
-0.30969676 -0.044057716 0.68000001 4292662741
-0.30750111 -0.043930091 0.67799997 4292596948
-0.30621624 -0.043932024 0.67799997 4292529618
-0.3035818 -0.043739524 0.67500001 4292266702
-0.30051067 -0.043482166 0.671 4292201161
-0.29879233 -0.043419167 0.67000002 4292529870
-0.29663354 -0.043291327 0.66799998 4292398540
-0.29536641 -0.043293048 0.66799998 4292332747
-0.29409912 -0.043294746 0.66799998 4292332495
-0.29283157 -0.043296408 0.66799998 4292793046
-0.29156384 -0.043298036 0.66799998 4292728018
-0.28986132 -0.043234821 0.667 4292596689
-0.28859508 -0.043236379 0.667 4292727764
-0.2868979 -0.043173086 0.66600001 4292925400
-0.28434655 -0.042980105 0.66299999 4292794580
-0.28266042 -0.042916737 0.662 4292794580
-0.28097787 -0.042853329 0.66100001 4292859604
-0.27887577 -0.042725064 0.65899998 4293057240
-0.27762368 -0.04272642 0.65899998 4292925398
-0.27637145 -0.04272775 0.65899998 4293254362
-0.27470151 -0.042664208 0.65799999 4292925913
-0.27303532 -0.042600647 0.65700001 4292925913
-0.27178636 -0.042601883 0.65700001 4292991708
-0.27053735 -0.042603094 0.65700001 4292925659
-0.26928812 -0.042604282 0.65700001 4292793559
-0.26803884 -0.042605445 0.65700001 4292859353
-0.26678935 -0.04260657 0.65700001 4292989657
-0.26473141 -0.042477965 0.65499997 4292989657
-0.26348549 -0.042479035 0.65499997 4293056218
-0.26183912 -0.042415235 0.65399998 4293516769
-0.26019642 -0.042351395 0.653 4292925146
-0.25895393 -0.042352378 0.653 4292991195
-0.25771135 -0.042353358 0.653 4293188567
-0.25646871 -0.042354289 0.653 4293188567
-0.25561678 -0.042420071 0.65399998 4293056986
-0.254372 -0.042420968 0.65399998 4293188315
-0.25351414 -0.042486694 0.65499997 4293188569
-0.2522673 -0.042487551 0.65499997 4293057240
-0.2517868 -0.042618107 0.65700001 4293122009
-0.25053594 -0.042618915 0.65700001 4293122009
-0.249285 -0.042619694 0.65700001 4293056986
-0.24841151 -0.042685319 0.65799999 4293254108
-0.2471585 -0.042686056 0.65799999 4293056988
-0.24590544 -0.042686772 0.65799999 4292991195
-0.24465229 -0.042687461 0.65799999 4293188315
-0.24302916 -0.042623252 0.65700001 4293254108
-0.24177782 -0.042623896 0.65700001 4293254360
-0.24052636 -0.042624529 0.65700001 4293254360
-0.23854646 -0.042495374 0.65499997 4293188569
-0.23729873 -0.042495955 0.65499997 4293188569
-0.23605093 -0.042496514 0.65499997 4293056986
-0.23587851 -0.0426917 0.65799999 4293056986
-0.23462491 -0.042692222 0.65799999 4293187802
-0.23337126 -0.042692728 0.65799999 4293187802
-0.23211756 -0.042693209 0.65799999 4293057240
-0.23086384 -0.042693686 0.65799999 4293057240
-0.22961001 -0.042694122 0.65799999 4293056214
-0.22870328 -0.042759437 0.65899998 4292859091
-0.22744754 -0.042759851 0.65899998 4292990420
-0.22619177 -0.042760242 0.65899998 4293056214
-0.22561863 -0.0428904 0.66100001 4293056216
-0.22435898 -0.042890757 0.66100001 4293253851
-0.22309932 -0.042891096 0.66100001 4293122009
-0.22183964 -0.04289142 0.66100001 4292990423
-0.22091362 -0.042956617 0.662 4293056216
-0.21965203 -0.042956907 0.662 4293253851
-0.21839041 -0.042957187 0.662 4293188056
-0.21712874 -0.042957444 0.662 4293253849
-0.21619312 -0.043022573 0.66299999 4293188315
-0.21492963 -0.043022804 0.66299999 4293188315
-0.21495509 -0.043282583 0.667 4293056986
-0.21368392 -0.043282781 0.667 4293056986
-0.21241271 -0.04328296 0.667 4293188567
-0.21145803 -0.043348026 0.66799998 4293254360
-0.21018496 -0.043348178 0.66799998 4293319640
-0.20891182 -0.043348312 0.66799998 4293253847
-0.20763876 -0.043348443 0.66799998 4293188054
-0.2063657 -0.043348551 0.66799998 4293253847
-0.20509256 -0.043348648 0.66799998 4293056214
-0.20442976 -0.043478526 0.67000002 4292859091
-0.20315291 -0.043478597 0.67000002 4292925398
-0.20217738 -0.043543547 0.671 4293254362
-0.20119804 -0.043608479 0.67199999 4292859607
-0.20051242 -0.043738306 0.67400002 4292727764
-0.19922802 -0.043738332 0.67400002 4292859093
-0.19823733 -0.043803234 0.67500001 4292990423
-0.19782639 -0.043997914 0.67799997 4292727251
-0.19682433 -0.04406279 0.67900002 4292793300
-0.19553049 -0.044062767 0.67900002 4292793046
-0.19509485 -0.04425741 0.68199998 4292990169
-0.19407955 -0.044322256 0.68300003 4292859091
-0.19306044 -0.044387095 0.68400002 4292990420
-0.19231787 -0.044516802 0.68599999 4292793296
-0.19128928 -0.044581607 0.68699998 4292727503
-0.18998042 -0.044581521 0.68699998 4292529870
-0.18949547 -0.044776104 0.69 4292529870
-0.18899915 -0.044970669 0.69300002 4292530121
-0.18767895 -0.044970546 0.69300002 4292530121
-0.18662769 -0.045035303 0.69400001 4292463817
-0.18530571 -0.045035169 0.69400001 4292463817
-0.18477903 -0.045229685 0.69700003 4292463565
-0.18424101 -0.045424201 0.69999999 4292397772
-0.18316899 -0.04548892 0.70099998 4292463563
-0.182612 -0.045683417 0.704 4292463563
-0.18230113 -0.045942798 0.708 4292200394
-0.1808728 -0.04626685 0.713 4292266441
-0.17951497 -0.046266627 0.713 4292463563
-0.1781572 -0.046266403 0.713 4291676111
-0.31060958 -0.042892065 0.68199998 4293649636
-0.30841017 -0.042768229 0.68000001 4292596948
-0.30531484 -0.042518556 0.676 4292266941
-0.30358362 -0.042457525 0.67500001 4292201148
-0.30051246 -0.042207748 0.671 4291937737
-0.29879412 -0.042146634 0.67000002 4292266702
-0.29752341 -0.042148385 0.67000002 4292136136
-0.29625246 -0.042150103 0.67000002 4292070343
-0.2949813 -0.04215179 0.67000002 4292069321
-0.29370996 -0.042153444 0.67000002 4292398542
-0.29243842 -0.042155065 0.67000002 4292529870
-0.29029745 -0.042030815 0.66799998 4292595663
-0.28902933 -0.042032372 0.66799998 4292596689
-0.287761 -0.042033885 0.66799998 4292793811
-0.28606355 -0.041972447 0.667 4292530894
-0.28436974 -0.04191098 0.66600001 4292859602
-0.28097931 -0.041597754 0.66100001 4292793811
-0.27887714 -0.041473273 0.65899998 4292728018
-0.27762499 -0.041474622 0.65899998 4292530642
-0.27637276 -0.041475952 0.65899998 4292991193
-0.27470279 -0.041414306 0.65799999 4292662743
-0.2734521 -0.041415568 0.65799999 4292794330
-0.27178761 -0.041353863 0.65700001 4292925659
-0.27053854 -0.041355077 0.65700001 4292794330
-0.26928934 -0.041356254 0.65700001 4292662741
-0.26803997 -0.041357405 0.65700001 4292728535
-0.26679045 -0.041358531 0.65700001 4292792794
-0.26473254 -0.041233733 0.65499997 4292858843
-0.26348656 -0.041234806 0.65499997 4292990169
-0.2622405 -0.041235853 0.65499997 4293056218
-0.26059589 -0.041173924 0.65399998 4292859093
-0.25935149 -0.041174911 0.65399998 4293056216
-0.25810698 -0.041175887 0.65399998 4293056214
-0.2568624 -0.041176833 0.65399998 4293056214
-0.25600851 -0.041240711 0.65499997 4292859607
-0.25476182 -0.041241612 0.65499997 4293056986
-0.25428909 -0.041368414 0.65700001 4293056986
-0.25303841 -0.041369271 0.65700001 4292991193
-0.25178763 -0.041370105 0.65700001 4292530644
-0.25053677 -0.041370917 0.65700001 4292991195
-0.24928576 -0.041371696 0.65700001 4293056986
-0.24841224 -0.041435428 0.65799999 4293056986
-0.24715924 -0.04143618 0.65799999 4292991706
-0.2459061 -0.041436899 0.65799999 4292925913
-0.24465302 -0.0414376 0.65799999 4292925400
-0.24339974 -0.041438278 0.65799999 4292991193
-0.2421464 -0.041438933 0.65799999 4292991445
-0.24089308 -0.041439578 0.65799999 4292991445
-0.23927544 -0.041377202 0.65700001 4292859604
-0.23802388 -0.041377798 0.65700001 4292991191
-0.23677228 -0.041378371 0.65700001 4293122009
-0.23587908 -0.04144191 0.65799999 4293056216
-0.23462546 -0.041442446 0.65799999 4292990420
-0.23337175 -0.041442961 0.65799999 4293056214
-0.23211807 -0.041443471 0.65799999 4292859091
-0.23086429 -0.04144394 0.65799999 4293056214
-0.2296105 -0.041444406 0.65799999 4293056468
-0.22870371 -0.041507833 0.65899998 4292859089
-0.22744794 -0.041508261 0.65899998 4292793298
-0.22687863 -0.041634638 0.66100001 4292859091
-0.22561899 -0.041635033 0.66100001 4293055703
-0.22435933 -0.041635402 0.66100001 4293055703
-0.22309965 -0.041635763 0.66100001 4292990420
-0.22183995 -0.041636106 0.66100001 4292990420
-0.22091393 -0.041699421 0.662 4293056214
-0.21965232 -0.041699734 0.662 4293056214
-0.21839066 -0.041700024 0.662 4292990420
-0.21712901 -0.0417003 0.662 4293122263
-0.21619338 -0.041763552 0.66299999 4292990420
-0.21492982 -0.041763797 0.66299999 4293188056
-0.21398848 -0.041827016 0.66399997 4293188315
-0.2136841 -0.042016216 0.667 4292991193
-0.21273135 -0.042079404 0.66799998 4292991191
-0.21145821 -0.042079594 0.66799998 4293057240
-0.21018508 -0.042079769 0.66799998 4293056468
-0.20891199 -0.042079933 0.66799998 4293056468
-0.20763889 -0.042080082 0.66799998 4293056468
-0.20698363 -0.042206198 0.67000002 4293122261
-0.20570676 -0.042206321 0.67000002 4292793811
-0.20442984 -0.042206433 0.67000002 4292793811
-0.20315301 -0.042206526 0.67000002 4292859602
-0.20217744 -0.042269595 0.671 4292925652
-0.20119812 -0.042332664 0.67199999 4292662995
-0.20051248 -0.042458709 0.67400002 4292531153
-0.19952364 -0.042521741 0.67500001 4292793298
-0.19853102 -0.042584773 0.676 4292793298
-0.1978264 -0.042710781 0.67799997 4292596689
-0.1968243 -0.042773791 0.67900002 4292596689
-0.19581842 -0.042836785 0.68000001 4292727764
-0.19509481 -0.042962756 0.68199998 4292530642
-0.1940795 -0.043025736 0.68300003 4292464847
-0.19306034 -0.043088689 0.68400002 4292596689
-0.19231783 -0.043214638 0.68599999 4292465101
-0.19156767 -0.043340567 0.68800002 4292399051
-0.19025689 -0.0433405 0.68800002 4292398540
-0.18977 -0.043529406 0.69099998 4292398540
-0.18899904 -0.043655306 0.69300002 4292201157
-0.18767884 -0.043655213 0.69300002 4292267206
-0.18635868 -0.043655109 0.69300002 4292529610
-0.18530555 -0.043717984 0.69400001 4292463817
-0.1847789 -0.043906849 0.69700003 4292266952
-0.18424086 -0.044095691 0.69999999 4292332745
-0.18316883 -0.044158541 0.70099998 4292201159
-0.18339004 -0.044536356 0.70700002 4292135366
-0.30878976 -0.041352838 0.67799997 4285556582
-0.30750501 -0.041354761 0.67799997 4285030238
-0.30531672 -0.041234657 0.676 4287262602
-0.30358553 -0.041175507 0.67500001 4292855007
-0.3023057 -0.041177314 0.67500001 4292528341
-0.29924184 -0.040935077 0.671 4292462548
-0.29796919 -0.040936813 0.671 4292135364
-0.29669631 -0.040938519 0.671 4292201157
-0.29498297 -0.040879179 0.67000002 4292200907
-0.2937116 -0.040880818 0.67000002 4292332749
-0.29244003 -0.040882431 0.67000002 4292398540
-0.290299 -0.040761959 0.66799998 4292529870
-0.28903082 -0.040763501 0.66799998 4292661708
-0.28776243 -0.04076501 0.66799998 4292793550
-0.28606507 -0.040705469 0.667 4292727503
-0.28437123 -0.04064589 0.66600001 4292859089
-0.28140578 -0.040403184 0.662 4292793298
-0.2797249 -0.040343527 0.66100001 4292661712
-0.27846891 -0.040344875 0.66100001 4292530390
-0.27637404 -0.04022412 0.65899998 4292990941
-0.27512157 -0.040225413 0.65899998 4292662741
-0.27386895 -0.040226676 0.65899998 4292662741
-0.27220252 -0.04016687 0.65799999 4292662743
-0.27095154 -0.04016808 0.65799999 4292662743
-0.26970038 -0.040169254 0.65799999 4292793557
-0.2684491 -0.040170413 0.65799999 4292991193
-0.26719764 -0.040171534 0.65799999 4292859105
-0.26554194 -0.04011159 0.65700001 4292727262
-0.26348761 -0.039990548 0.65499997 4292858839
-0.26224154 -0.039991599 0.65499997 4292990169
-0.26099533 -0.039992623 0.65499997 4292727764
-0.25974905 -0.039993625 0.65499997 4292859607
-0.25810793 -0.03993354 0.65399998 4292925398
-0.25686333 -0.039934482 0.65399998 4292925398
-0.25600943 -0.039996471 0.65499997 4292859607
-0.25476271 -0.039997377 0.65499997 4292991193
-0.25428998 -0.040120389 0.65700001 4292991193
-0.25303927 -0.040121246 0.65700001 4292925400
-0.25217173 -0.040183157 0.65799999 4292925400
-0.25091887 -0.040183965 0.65799999 4293056986
-0.24966596 -0.040184759 0.65799999 4293057238
-0.24841301 -0.040185533 0.65799999 4293057238
-0.24715999 -0.040186282 0.65799999 4293122261
-0.24590684 -0.040187009 0.65799999 4293056468
-0.24465364 -0.040187716 0.65799999 4293056216
-0.24340041 -0.040188406 0.65799999 4292990423
-0.24214707 -0.040189072 0.65799999 4293056214
-0.2412598 -0.040250801 0.65899998 4293056214
-0.24000449 -0.04025143 0.65899998 4292990423
-0.23874903 -0.04025203 0.65899998 4293056216
-0.2374936 -0.040252622 0.65899998 4293056214
-0.23623811 -0.040253192 0.65899998 4293056214
-0.23498254 -0.04025374 0.65899998 4293056468
-0.23372695 -0.040254273 0.65899998 4293056468
-0.23211856 -0.040193699 0.65799999 4292859091
-0.23086476 -0.040194191 0.65799999 4292990420
-0.22995992 -0.040255755 0.65899998 4292990672
-0.2293983 -0.040378384 0.66100001 4292793550
-0.22813867 -0.040378831 0.66100001 4292661712
-0.22687906 -0.040379252 0.66100001 4292661712
-0.22561936 -0.040379655 0.66100001 4292793298
-0.22435971 -0.040380046 0.66100001 4292793298
-0.22343752 -0.040441517 0.662 4292793298
-0.22217591 -0.040441874 0.662 4292990420
-0.22091427 -0.040442213 0.662 4293055954
-0.21965264 -0.040442541 0.662 4293121748
-0.21839094 -0.040442847 0.662 4292990420
-0.21712931 -0.040443145 0.662 4293253849
-0.21619366 -0.040504515 0.66299999 4293122261
-0.21493007 -0.040504783 0.66299999 4293253847
-0.21398872 -0.04056612 0.66399997 4293188056
-0.21368435 -0.040749647 0.667 4292859091
-0.21273153 -0.040810958 0.66799998 4293056216
-0.21145841 -0.040811162 0.66799998 4293187802
-0.21081461 -0.040933557 0.67000002 4293056214
-0.20891215 -0.040811542 0.66799998 4292859091
-0.20763901 -0.040811706 0.66799998 4293056468
-0.2069838 -0.040934056 0.67000002 4293188054
-0.20570688 -0.040934198 0.67000002 4292859091
-0.20442998 -0.040934328 0.67000002 4292859091
-0.20315312 -0.040934443 0.67000002 4292859089
-0.20247884 -0.041056734 0.67199999 4292990674
-0.20179699 -0.041179016 0.67400002 4292793809
-0.20081002 -0.041240193 0.67500001 4292596687
-0.1998193 -0.041301358 0.676 4292728018
-0.19853109 -0.041301418 0.676 4292728018
-0.19782645 -0.041423652 0.67799997 4292661458
-0.19682434 -0.041484784 0.67900002 4292661458
-0.19581845 -0.041545901 0.68000001 4292530640
-0.19509481 -0.041668098 0.68199998 4292464847
-0.19407947 -0.041729201 0.68300003 4292595917
-0.19306032 -0.041790288 0.68400002 4292727503
-0.1925981 -0.041973554 0.68699998 4292332745
-0.19156761 -0.042034622 0.68800002 4292135366
-0.19080989 -0.042156775 0.69 4292201161
-0.18976995 -0.042217817 0.69099998 4292332747
-0.1884535 -0.042217754 0.69099998 4292266693
-0.18767875 -0.04233988 0.69300002 4292398022
-0.18635856 -0.042339798 0.69300002 4292398022
-0.18530546 -0.042400807 0.69400001 4292398022
-0.18477876 -0.042583991 0.69700003 4292398022
-0.18424074 -0.042767178 0.69999999 4292463815
-0.18316868 -0.042828154 0.70099998 4292266693
-0.30750689 -0.040067058 0.67799997 4278321920
-0.30531859 -0.039950728 0.676 4285872896
-0.30358729 -0.039893456 0.67500001 4293636196
-0.30230749 -0.039895251 0.67500001 4293053385
-0.29968953 -0.039719693 0.67199999 4292724421
-0.29797095 -0.039662316 0.671 4291937471
-0.29669803 -0.039664008 0.671 4292134850
-0.29542491 -0.039665665 0.671 4292201159
-0.29415154 -0.03966729 0.671 4292398538
-0.29244161 -0.039609775 0.67000002 4292398538
-0.29116973 -0.039611336 0.67000002 4292398538
-0.28903237 -0.039494619 0.66799998 4292529610
-0.28776392 -0.03949612 0.66799998 4292595403
-0.28606647 -0.039438464 0.667 4292529610
-0.28479961 -0.039439905 0.667 4292726990
-0.28140715 -0.039145656 0.662 4292529870
-0.27972624 -0.039087895 0.66100001 4292595663
-0.27847028 -0.03908924 0.66100001 4292529872
-0.27721411 -0.039090555 0.66100001 4292727251
-0.27512279 -0.038973559 0.65899998 4292596689
-0.27387023 -0.038974822 0.65899998 4292728018
-0.27261743 -0.038976055 0.65899998 4292596948
-0.27095267 -0.038918111 0.65799999 4292596948
-0.26970151 -0.038919292 0.65799999 4292596435
-0.26845026 -0.038920447 0.65799999 4292727764
-0.26719877 -0.038921569 0.65799999 4292727768
-0.26554304 -0.038863525 0.65700001 4292727768
-0.26429325 -0.038864598 0.65700001 4292727764
-0.26224259 -0.038747329 0.65499997 4292793557
-0.26099634 -0.038748354 0.65499997 4292530642
-0.25975004 -0.03874936 0.65499997 4292793557
-0.25850356 -0.038750332 0.65499997 4292859607
-0.25725704 -0.038751293 0.65499997 4292859607
-0.25601035 -0.038752217 0.65499997 4292530642
-0.2547636 -0.038753122 0.65499997 4292925400
-0.25429085 -0.038872343 0.65700001 4292794582
-0.25304011 -0.038873211 0.65700001 4292925911
-0.2521725 -0.038933218 0.65799999 4292991706
-0.25091967 -0.038934037 0.65799999 4292728535
-0.24966678 -0.038934838 0.65799999 4292793298
-0.24841374 -0.03893562 0.65799999 4292859091
-0.24753633 -0.038995549 0.65899998 4292924112
-0.24590759 -0.038937118 0.65799999 4292924112
-0.24465436 -0.038937829 0.65799999 4292727505
-0.24340107 -0.038938526 0.65799999 4292793298
-0.24214774 -0.038939204 0.65799999 4292859091
-0.24126042 -0.03899904 0.65899998 4292859091
-0.24000511 -0.03899968 0.65899998 4292859091
-0.23874965 -0.039000295 0.65899998 4292793298
-0.2374942 -0.039000899 0.65899998 4292727503
-0.23623864 -0.039001476 0.65899998 4292727503
-0.23498309 -0.039002039 0.65899998 4292793296
-0.23372746 -0.039002582 0.65899998 4292793296
-0.23247182 -0.039003111 0.65899998 4292595663
-0.23191786 -0.039121993 0.66100001 4292859091
-0.23065832 -0.039122488 0.66100001 4292727757
-0.2293987 -0.039122958 0.66100001 4292727757
-0.22848426 -0.039182607 0.662 4292595917
-0.22722268 -0.039183043 0.662 4292727503
-0.2259611 -0.039183464 0.662 4292793298
-0.22469954 -0.039183877 0.662 4292661712
-0.22343791 -0.039184269 0.662 4292332747
-0.22217628 -0.039184641 0.662 4292727505
-0.2209146 -0.039184999 0.662 4292793296
-0.21965295 -0.039185338 0.662 4292793296
-0.21872115 -0.039244868 0.66299999 4292924114
-0.21745756 -0.039245181 0.66299999 4292989907
-0.21652004 -0.039304674 0.66399997 4292989907
-0.21525453 -0.039304953 0.66399997 4292989907
-0.21495582 -0.039482806 0.667 4292859091
-0.21400492 -0.039542258 0.66799998 4292793298
-0.21273176 -0.039542504 0.66799998 4292859091
-0.21209173 -0.039661124 0.67000002 4292859091
-0.21081476 -0.039661337 0.67000002 4292793298
-0.20891234 -0.039543148 0.66799998 4292793298
-0.20763919 -0.039543334 0.66799998 4292793298
-0.20729288 -0.039721102 0.671 4292793298
-0.20601405 -0.039721269 0.671 4292924112
-0.2044301 -0.03966222 0.67000002 4292858319
-0.20315319 -0.039662357 0.67000002 4292727244
-0.20247896 -0.039780881 0.67199999 4292858573
-0.2017971 -0.039899386 0.67400002 4292530894
-0.20110761 -0.040017884 0.676 4292530894
-0.19981937 -0.040017977 0.676 4292530894
-0.19853109 -0.040018048 0.676 4292596687
-0.19782649 -0.04013652 0.67799997 4292399054
-0.19682436 -0.040195774 0.67900002 4292399054
-0.1963944 -0.040373407 0.68199998 4292529872
-0.19509482 -0.040373448 0.68199998 4292332749
-0.19436364 -0.040491875 0.68400002 4292463817
-0.19362484 -0.040610284 0.68599999 4292463817
-0.19259809 -0.040669478 0.68699998 4292003264
-0.19156763 -0.040728681 0.68800002 4292134850
-0.19080989 -0.040847059 0.69 4292200644
-0.18976991 -0.040906228 0.69099998 4292266693
-0.18845345 -0.040906191 0.69099998 4292069057
-0.18767869 -0.041024551 0.69300002 4292069057
-0.1863585 -0.041024491 0.69300002 4292265153
-0.18583941 -0.041202027 0.69599998 4292396996
-0.18557398 -0.04143874 0.69999999 4292265920
-0.18450381 -0.041497856 0.70099998 4292265920
-0.18316858 -0.041497771 0.70099998 4291870911
-0.3087936 -0.038777445 0.67799997 4278190080
-0.3075088 -0.038779326 0.67799997 4278190080
-0.30622372 -0.038781177 0.67799997 4278190080
-0.30403891 -0.038668595 0.676 4286874502
-0.30230927 -0.038613167 0.67500001 4290951074
-0.30102921 -0.038614914 0.67500001 4292201398
-0.2997489 -0.038616631 0.67500001 4291872707
-0.29714185 -0.03844668 0.67199999 4291806914
-0.29542652 -0.03839111 0.671 4292135618
-0.29415315 -0.038392723 0.671 4292201411
-0.29287964 -0.03839431 0.671 4292397768
-0.29160586 -0.038395863 0.671 4292529610
-0.28989926 -0.038340166 0.67000002 4292529610
-0.28776544 -0.038227212 0.66799998 4292529610
-0.28606793 -0.03817144 0.667 4292595150
-0.28480104 -0.038172878 0.667 4292726992
-0.28183362 -0.037945349 0.66299999 4292727505
-0.28015077 -0.037889481 0.662 4292793298
-0.27889287 -0.037890818 0.662 4292530640
-0.27721542 -0.037834898 0.66100001 4292596689
-0.2759591 -0.037836183 0.66100001 4292531153
-0.27470264 -0.037837438 0.66100001 4292597202
-0.27261865 -0.037724182 0.65899998 4292531153
-0.27095389 -0.037668139 0.65799999 4292465360
-0.2697027 -0.037669312 0.65799999 4292530642
-0.26845139 -0.037670467 0.65799999 4292530642
-0.2671999 -0.037671588 0.65799999 4292727251
-0.26554412 -0.037615437 0.65700001 4292793300
-0.2642943 -0.03761651 0.65700001 4292793298
-0.2622436 -0.037503049 0.65499997 4292990420
-0.26099735 -0.037504077 0.65499997 4292728018
-0.25975099 -0.037505079 0.65499997 4292596689
-0.25850451 -0.037506059 0.65499997 4292990674
-0.25725797 -0.037507016 0.65499997 4292990674
-0.25679299 -0.037622478 0.65700001 4292727764
-0.25554243 -0.037623391 0.65700001 4292991193
-0.25467882 -0.037681554 0.65799999 4292925652
-0.2534261 -0.037682422 0.65799999 4292925652
-0.25217336 -0.037683275 0.65799999 4292859602
-0.25092047 -0.037684102 0.65799999 4292728016
-0.24966756 -0.03768491 0.65799999 4292793298
-0.24841453 -0.037685696 0.65799999 4292793298
-0.24753709 -0.037743736 0.65899998 4292793298
-0.24590831 -0.037687209 0.65799999 4292793298
-0.24465509 -0.037687931 0.65799999 4292793298
-0.24340178 -0.037688643 0.65799999 4292793298
-0.24214843 -0.037689328 0.65799999 4292924112
-0.24126108 -0.037747271 0.65899998 4292924112
-0.24000573 -0.037747927 0.65899998 4292793550
-0.23875026 -0.037748553 0.65899998 4292727757
-0.23749478 -0.037749168 0.65899998 4292727503
-0.23623924 -0.037749756 0.65899998 4292727503
-0.23569684 -0.037864909 0.66100001 4292727503
-0.23443736 -0.037865464 0.66100001 4292661710
-0.23317789 -0.037866004 0.66100001 4292661712
-0.23191835 -0.037866529 0.66100001 4293056214
-0.23065878 -0.037867036 0.66100001 4292924366
-0.22974625 -0.037924811 0.662 4292990159
-0.22848471 -0.037925284 0.662 4292727757
-0.22722314 -0.037925739 0.662 4292727757
-0.22596154 -0.037926182 0.662 4292727757
-0.22469991 -0.037926599 0.662 4292661708
-0.22343831 -0.037927013 0.662 4292595667
-0.22217664 -0.037927408 0.662 4292858839
-0.22124867 -0.037985072 0.66299999 4292793298
-0.21998508 -0.037985433 0.66299999 4292727505
-0.21872148 -0.037985783 0.66299999 4292858323
-0.21745788 -0.037986115 0.66299999 4292858323
-0.21717249 -0.038158316 0.66600001 4292793300
-0.21622735 -0.03821592 0.667 4292727251
-0.21495606 -0.038216203 0.667 4292858321
-0.2140052 -0.038273778 0.66799998 4292924114
-0.212732 -0.038274042 0.66799998 4292793298
-0.212092 -0.038388882 0.67000002 4292793298
-0.21144429 -0.038503718 0.67199999 4292793298
-0.2101635 -0.038503937 0.67199999 4292793298
-0.20888272 -0.038504146 0.67199999 4292793298
-0.20760198 -0.038504347 0.67199999 4292727505
-0.20632125 -0.038504533 0.67199999 4292726990
-0.20504047 -0.038504701 0.67199999 4292858319
-0.20375977 -0.038504869 0.67199999 4292858573
-0.20338301 -0.038676918 0.67500001 4292727244
-0.20239599 -0.03873435 0.676 4292661708
-0.2017027 -0.038849074 0.67799997 4292727757
-0.20041063 -0.038849186 0.67799997 4292727242
-0.1994123 -0.038906593 0.67900002 4292661449
-0.19841011 -0.038963985 0.68000001 4292530121
-0.19798394 -0.039135963 0.68300003 4292398792
-0.19697037 -0.039193332 0.68400002 4292266189
-0.19566703 -0.039193399 0.68400002 4292134603
-0.19550033 -0.039422646 0.68800002 4292266439
-0.19418937 -0.039422687 0.68800002 4292529610
-0.19287848 -0.039422713 0.68800002 4292200648
-0.1921245 -0.039537337 0.69 4292397770
-0.19080985 -0.03953734 0.69 4292398022
-0.18976986 -0.039594643 0.69099998 4292398022
-0.18927161 -0.039766535 0.69400001 4292068805
-0.18767865 -0.039709218 0.69300002 4291937219
-0.18635842 -0.039709184 0.69300002 4292199873
-0.18583933 -0.039881047 0.69599998 4292265666
-0.18557392 -0.040110208 0.69999999 4292265666
-0.30404067 -0.037384599 0.676 4285891188
-0.3027589 -0.037386362 0.676 4288389278
-0.3010309 -0.037332788 0.67500001 4291152584
-0.2997506 -0.037334487 0.67500001 4291675335
-0.29802787 -0.037280843 0.67400002 4291872457
-0.2958684 -0.037171848 0.67199999 4291872961
-0.29459313 -0.037173454 0.67199999 4291807168
-0.29288119 -0.037119713 0.671 4291937219
-0.29160741 -0.037121255 0.671 4292266441
-0.28990078 -0.037067443 0.67000002 4292331464
-0.28776693 -0.036958281 0.66799998 4292397257
-0.28606939 -0.036904398 0.667 4292397259
-0.28480244 -0.036905821 0.667 4292463052
-0.28183502 -0.036685888 0.66299999 4292397772
-0.28015211 -0.036631912 0.662 4292595152
-0.27889419 -0.036633246 0.662 4292333260
-0.27763611 -0.036634557 0.662 4292530640
-0.27596036 -0.036580496 0.66100001 4292464847
-0.27470386 -0.036581747 0.66100001 4292530640
-0.27344722 -0.03658298 0.66100001 4292596689
-0.27136686 -0.036473487 0.65899998 4292530640
-0.26970384 -0.036419313 0.65799999 4292399054
-0.2684525 -0.036420465 0.65799999 4292596689
-0.26720101 -0.03642159 0.65799999 4292793298
-0.26554522 -0.036367338 0.65700001 4292793298
-0.26429537 -0.036368418 0.65700001 4292529610
-0.26304543 -0.036369469 0.65700001 4292924112
-0.26099837 -0.036259778 0.65499997 4292793811
-0.25975201 -0.036260787 0.65499997 4292596689
-0.25929484 -0.036372494 0.65700001 4292596689
-0.25804445 -0.036373455 0.65700001 4292596689
-0.2571848 -0.036429759 0.65799999 4292727505
-0.2559323 -0.036430679 0.65799999 4292859091
-0.25506672 -0.036486946 0.65899998 4292596687
-0.25381213 -0.036487821 0.65899998 4292596687
-0.25332394 -0.036599424 0.66100001 4292661710
-0.25206533 -0.036600258 0.66100001 4292661710
-0.25080669 -0.036601081 0.66100001 4292530640
-0.2495479 -0.036601875 0.66100001 4292728018
-0.24828914 -0.036602661 0.66100001 4292596687
-0.24628274 -0.036492657 0.65899998 4292596687
-0.24502763 -0.036493402 0.65899998 4292529870
-0.24451222 -0.03660487 0.66100001 4292529870
-0.24325313 -0.036605574 0.66100001 4292529356
-0.24199401 -0.036606256 0.66100001 4292595150
-0.24073477 -0.036606919 0.66100001 4292397255
-0.23983775 -0.03666294 0.662 4292660426
-0.23821615 -0.036608186 0.66100001 4292595403
-0.23695679 -0.036608793 0.66100001 4292595403
-0.23605394 -0.036664769 0.662 4292595917
-0.23479261 -0.036665343 0.662 4292595917
-0.23388396 -0.036721289 0.66299999 4292529610
-0.2326206 -0.036721822 0.66299999 4292661197
-0.23135722 -0.036722351 0.66299999 4292463815
-0.23044084 -0.036778245 0.66399997 4292727244
-0.22917545 -0.036778737 0.66399997 4292858573
-0.22756681 -0.036723815 0.66299999 4292858573
-0.22630332 -0.036724273 0.66299999 4292595917
-0.2250398 -0.036724716 0.66299999 4292595917
-0.22377621 -0.036725141 0.66299999 4292661712
-0.22251263 -0.036725551 0.66299999 4292793298
-0.22124904 -0.036725942 0.66299999 4292793296
-0.21998546 -0.036726329 0.66299999 4292727503
-0.21872184 -0.036726691 0.66299999 4292726992
-0.21778618 -0.03678244 0.66399997 4292726992
-0.21717283 -0.036893569 0.66600001 4292858321
-0.21655183 -0.037004683 0.66799998 4292858321
-0.21592319 -0.037115786 0.67000002 4292661712
-0.21464622 -0.037116092 0.67000002 4292727505
-0.21336919 -0.037116371 0.67000002 4292793046
-0.21240878 -0.037172038 0.671 4292727253
-0.21144454 -0.037227694 0.67199999 4292727503
-0.21016374 -0.03722794 0.67199999 4292727503
-0.20888296 -0.037228175 0.67199999 4292727503
-0.2076022 -0.037228391 0.67199999 4292661710
-0.20632145 -0.037228599 0.67199999 4292529610
-0.20565093 -0.037339598 0.67400002 4292726990
-0.20436637 -0.037339784 0.67400002 4292793296
