# .PCD v0.7 - Point Cloud Data file format
VERSION 0.7
FIELDS x y z rgba
SIZE 4 4 4 4
TYPE F F F U
COUNT 1 1 1 1
WIDTH 1031
HEIGHT 1
VIEWPOINT 0 0 0 1 0 0 0
POINTS 1031
DATA ascii
-0.067807876 -0.02227938 0.52899998 4293057236
-0.066803709 -0.022279304 0.52899998 4292859856
-0.065799586 -0.022279223 0.52899998 4292925648
-0.065162979 -0.022405498 0.53200001 4293452248
-0.064153261 -0.022405421 0.53200001 4293189337
-0.063618354 -0.022573806 0.53600001 4292794580
-0.062601142 -0.02257373 0.53600001 4292794580
-0.061928652 -0.022699993 0.53899997 4292926165
-0.060905833 -0.022699915 0.53899997 4292597711
-0.059883051 -0.022699837 0.53899997 4292466382
-0.058969527 -0.022741873 0.54000002 4292926165
-0.057944942 -0.022741798 0.54000002 4293255131
-0.056920398 -0.022741718 0.54000002 4293122261
-0.055895887 -0.022741638 0.54000002 4293188054
-0.054871436 -0.022741562 0.54000002 4293188565
-0.050079025 -0.023372794 0.55500001 4292793550
-0.049026392 -0.023372715 0.55500001 4292727757
-0.048405997 -0.0235832 0.56 4292661699
-0.047343962 -0.023583125 0.56 4293056456
-0.046281967 -0.023583045 0.56 4292859593
-0.045300756 -0.02362508 0.56099999 4292728007
-0.17847723 -0.021749089 0.54100001 4291677384
-0.17711803 -0.021709297 0.54000002 4291677384
-0.17608874 -0.021709707 0.54000002 4292004296
-0.17538363 -0.021750299 0.54100001 4292070089
-0.16984053 -0.021187823 0.52700001 4292070089
-0.16883601 -0.021188192 0.52700001 4292333260
-0.16751304 -0.021148343 0.52600002 4291873993
-0.1665104 -0.021148689 0.52600002 4292202958
-0.16550781 -0.021149028 0.52600002 4292202958
-0.16450523 -0.02114936 0.52600002 4292202958
-0.16319178 -0.021109473 0.52499998 4291940299
-0.16219111 -0.021109788 0.52499998 4291874506
-0.16057637 -0.021029675 0.523 4291807687
-0.1589693 -0.020949552 0.52100003 4292597202
-0.15797628 -0.020949841 0.52100003 4292531407
-0.15668195 -0.020909905 0.51999998 4292334029
-0.15569089 -0.020910176 0.51999998 4292202444
-0.15440232 -0.020870227 0.51899999 4292268238
-0.15311758 -0.020830268 0.51800001 4292202442
-0.15213035 -0.020830518 0.51800001 4292136649
-0.15085138 -0.020790545 0.51700002 4292136136
-0.14986613 -0.02079078 0.51700002 4292136136
-0.1488809 -0.020791003 0.51700002 4292004298
-0.14789566 -0.020791223 0.51700002 4291938505
-0.14634214 -0.020711003 0.51499999 4292004548
-0.14536078 -0.020711208 0.51499999 4292530892
-0.14437947 -0.020711405 0.51499999 4292070854
-0.14311971 -0.020671377 0.514 4292005061
-0.14214036 -0.020671567 0.514 4292531405
-0.14116102 -0.020671748 0.514 4292070854
-0.13990895 -0.020631701 0.51300001 4291872961
-0.13893157 -0.020631867 0.51300001 4292070341
-0.13768533 -0.020591807 0.51200002 4292004550
-0.13670994 -0.020591961 0.51200002 4292070343
-0.13573456 -0.02059211 0.51200002 4291676098
-0.13449602 -0.020552032 0.51099998 4291939014
-0.13352263 -0.020552168 0.51099998 4292070854
-0.13254929 -0.0205523 0.51099998 4291939268
-0.13157596 -0.020552427 0.51099998 4292004548
-0.13085829 -0.02059277 0.51200002 4292333512
-0.12988313 -0.020592883 0.51200002 4292004548
-0.12890804 -0.020592995 0.51200002 4292070341
-0.12818283 -0.020633321 0.51300001 4292529608
-0.12720589 -0.020633418 0.51300001 4292595401
-0.126229 -0.020633515 0.51300001 4292398792
-0.12525217 -0.02063361 0.51300001 4292201157
-0.12403312 -0.020593474 0.51200002 4291742402
-0.12305827 -0.020593558 0.51200002 4291545280
-0.12208345 -0.020593634 0.51200002 4292201157
-0.1206356 -0.020513261 0.50999999 4292530121
-0.1196647 -0.02051333 0.50999999 4292463050
-0.11892656 -0.020553617 0.51099998 4292397257
-0.11795382 -0.020553675 0.51099998 4291872707
-0.11698114 -0.02055373 0.51099998 4291806914
-0.11600852 -0.020553784 0.51099998 4292135364
-0.11503592 -0.020553833 0.51099998 4292398792
-0.11406339 -0.020553879 0.51099998 4292463815
-0.1130909 -0.020553917 0.51099998 4292529608
-0.11211845 -0.020553954 0.51099998 4292268485
-0.11114608 -0.020553989 0.51099998 4292202692
-0.11017372 -0.020554017 0.51099998 4292268489
-0.10920142 -0.020554047 0.51099998 4292268489
-0.108441 -0.020594295 0.51200002 4292595915
-0.10746688 -0.020594314 0.51200002 4292595915
-0.10649284 -0.020594334 0.51200002 4292791753
-0.10551883 -0.020594347 0.51200002 4293054669
-0.10454489 -0.02059436 0.51200002 4292792517
-0.10357099 -0.020594364 0.51200002 4292792517
-0.10319829 -0.020715041 0.51499999 4292399305
-0.10202032 -0.020674819 0.514 4292267719
-0.10084618 -0.020634593 0.51300001 4292202444
-0.099675909 -0.020594368 0.51200002 4292136651
-0.098702282 -0.020594364 0.51200002 4291676611
-0.097728677 -0.020594355 0.51200002 4291940040
-0.096944109 -0.020634567 0.51300001 4292530121
-0.0961558 -0.020674778 0.514 4292661708
-0.095178552 -0.020674761 0.514 4292595915
-0.094201379 -0.020674746 0.514 4292595915
-0.093224235 -0.020674722 0.514 4292464847
-0.092247158 -0.020674704 0.514 4292728018
-0.091270119 -0.020674678 0.514 4292530640
-0.090293154 -0.020674653 0.514 4292464847
-0.089316212 -0.020674625 0.514 4292595655
-0.088339344 -0.020674596 0.514 4292924364
-0.087362513 -0.020674564 0.514 4292793296
-0.086889945 -0.020795198 0.51700002 4292793296
-0.085907526 -0.020795165 0.51700002 4292661708
-0.084925152 -0.020795126 0.51700002 4292859343
-0.083942831 -0.020795088 0.51700002 4292793809
-0.082960553 -0.020795049 0.51700002 4292793809
-0.082136907 -0.020835226 0.51800001 4292794061
-0.081152849 -0.020835189 0.51800001 4292794061
-0.080323592 -0.020875365 0.51899999 4292990670
-0.07964348 -0.020955764 0.52100003 4292990670
-0.07865385 -0.020955715 0.52100003 4292793800
-0.077664301 -0.020955669 0.52100003 4293056716
-0.076674782 -0.020955618 0.52100003 4292663243
-0.075830586 -0.02099579 0.52200001 4292795086
-0.074982651 -0.021035958 0.523 4292926161
-0.074130952 -0.021076126 0.52399999 4292794832
-0.073135957 -0.021076078 0.52399999 4292662991
-0.072278664 -0.02111624 0.52499998 4292729040
-0.071281843 -0.021116186 0.52499998 4292859854
-0.070418961 -0.021156354 0.52600002 4292859854
-0.069552325 -0.021196516 0.52700001 4292794063
-0.068812028 -0.021276899 0.52899998 4292794063
-0.067807809 -0.021276839 0.52899998 4292859856
-0.066929929 -0.021317 0.52999997 4292859856
-0.065923907 -0.02131694 0.52999997 4292990670
-0.065162912 -0.021397324 0.53200001 4293188306
-0.064394377 -0.021477701 0.53399998 4292794580
-0.063380904 -0.021477642 0.53399998 4292662993
-0.062484283 -0.021517802 0.53500003 4292729300
-0.061583895 -0.021557957 0.53600001 4292795093
-0.060905751 -0.02167855 0.53899997 4292203728
-0.059882984 -0.021678491 0.53899997 4292400850
-0.058969446 -0.021718645 0.54000002 4292926165
-0.057944853 -0.02171858 0.54000002 4293386716
-0.05692032 -0.021718521 0.54000002 4292991445
-0.055895817 -0.021718455 0.54000002 4293320153
-0.048492357 -0.022562467 0.56099999 4292661960
-0.047428429 -0.022562401 0.56099999 4292793546
-0.046364542 -0.022562336 0.56099999 4292728016
-0.31038812 -0.026478803 0.69300002 4294572285
-0.30951962 -0.026518645 0.69400001 4288651172
-0.30909115 -0.026596688 0.69599998 4288845425
-0.17950884 -0.020721182 0.54100001 4292006358
-0.17814775 -0.02068332 0.54000002 4291611337
-0.17711847 -0.020683752 0.54000002 4292006094
-0.17608912 -0.020684171 0.54000002 4291807946
-0.17538403 -0.020722888 0.54100001 4291807946
-0.17016317 -0.020225318 0.528 4292070091
-0.16883641 -0.020187402 0.52700001 4292333262
-0.16783187 -0.020187773 0.52700001 4292004557
-0.16682737 -0.020188142 0.52700001 4292465108
-0.16582282 -0.020188497 0.52700001 4292268499
-0.1648183 -0.020188848 0.52700001 4292268499
-0.16350296 -0.020150881 0.52600002 4292202442
-0.16219142 -0.020112902 0.52499998 4292202442
-0.1605767 -0.020036606 0.523 4292136134
-0.15896961 -0.019960299 0.52100003 4292530892
-0.15797658 -0.019960605 0.52100003 4292465099
-0.15668224 -0.019922588 0.51999998 4292399305
-0.15569116 -0.019922879 0.51999998 4292267467
-0.1544026 -0.019884845 0.51899999 4292267467
-0.15311785 -0.019846808 0.51800001 4292136649
-0.15213062 -0.019847076 0.51800001 4292136649
-0.15085165 -0.019809019 0.51700002 4291939014
-0.14986637 -0.019809272 0.51700002 4291807685
-0.14888112 -0.019809522 0.51700002 4292004548
-0.1478959 -0.019809758 0.51700002 4292333512
-0.14634235 -0.019733351 0.51499999 4292267715
-0.14536098 -0.019733578 0.51499999 4292465351
-0.14437966 -0.019733798 0.51499999 4292004798
-0.14311989 -0.019695688 0.514 4291939004
-0.14214055 -0.019695897 0.514 4292070341
-0.14116116 -0.019696094 0.514 4292070341
-0.14018187 -0.019696288 0.514 4292135364
-0.13920258 -0.019696472 0.514 4292267206
-0.13822332 -0.019696657 0.514 4292201157
-0.13724411 -0.019696832 0.514 4292267206
-0.13626492 -0.019696999 0.514 4291872711
-0.13528579 -0.019697163 0.514 4292070091
-0.13378409 -0.019620681 0.51200002 4292070595
-0.13280883 -0.019620834 0.51200002 4292070595
-0.13183358 -0.019620981 0.51200002 4292201157
-0.13085842 -0.019621123 0.51200002 4292398792
-0.13013694 -0.019659581 0.51300001 4292266952
-0.12915991 -0.019659711 0.51300001 4292332745
-0.12818295 -0.019659841 0.51300001 4292136136
-0.12720601 -0.019659963 0.51300001 4292267465
-0.12622912 -0.01966008 0.51300001 4292267467
-0.12525228 -0.019660192 0.51300001 4292070089
-0.12427548 -0.0196603 0.51300001 4291676350
-0.12305836 -0.01962208 0.51200002 4291676350
-0.12208354 -0.019622179 0.51200002 4292004548
-0.12110877 -0.019622272 0.51200002 4292399305
-0.12013406 -0.019622363 0.51200002 4292266439
-0.11892662 -0.019584121 0.51099998 4292200646
-0.11795389 -0.019584199 0.51099998 4291872707
-0.11698121 -0.01958428 0.51099998 4291806914
-0.11600858 -0.019584356 0.51099998 4291938241
-0.11503598 -0.019584425 0.51099998 4292201157
-0.11406346 -0.019584492 0.51099998 4292398022
-0.11309095 -0.019584551 0.51099998 4292529608
-0.1121185 -0.019584609 0.51099998 4292267456
-0.11114611 -0.019584663 0.51099998 4292267456
-0.11017376 -0.019584715 0.51099998 4292136647
-0.10920145 -0.019584764 0.51099998 4292202440
-0.10844102 -0.019623138 0.51200002 4292334283
-0.10746691 -0.019623179 0.51200002 4292531405
-0.10649286 -0.019623218 0.51200002 4292398790
-0.10572495 -0.019661579 0.51300001 4292398790
-0.10474908 -0.019661607 0.51300001 4292267969
-0.10417785 -0.01973829 0.51499999 4292728520
-0.10319831 -0.019738318 0.51499999 4292399557
-0.10202032 -0.019700015 0.514 4292070593
-0.1008462 -0.019661708 0.51300001 4291940040
-0.0998706 -0.019661725 0.51300001 4292466384
-0.098895058 -0.019661741 0.51300001 4292070089
-0.097919561 -0.019661753 0.51300001 4292136138
-0.096944109 -0.019661762 0.51300001 4292661195
-0.096155792 -0.019700095 0.514 4292727244
-0.095178552 -0.019700101 0.514 4292595401
-0.094201364 -0.019700103 0.514 4292595401
-0.093224227 -0.019700103 0.514 4292399054
-0.092247143 -0.019700103 0.514 4292793811
-0.091270112 -0.019700097 0.514 4292728018
-0.090293132 -0.019700089 0.514 4292399054
-0.089316189 -0.01970008 0.514 4292529870
-0.088339321 -0.019700075 0.514 4292793298
-0.087362491 -0.019700062 0.514 4292728016
-0.086889915 -0.019815026 0.51700002 4292859602
-0.085907497 -0.019815015 0.51700002 4292727757
-0.084925123 -0.019814994 0.51700002 4292793550
-0.083942801 -0.019814972 0.51700002 4292597198
-0.082960531 -0.019814953 0.51700002 4292597198
-0.081978321 -0.019814933 0.51700002 4292597452
-0.081152827 -0.019853234 0.51800001 4292663245
-0.080168791 -0.01985321 0.51800001 4292794063
-0.079643436 -0.019968159 0.52100003 4292794063
-0.07865382 -0.019968133 0.52100003 4292728270
-0.077664264 -0.0199681 0.52100003 4293188565
-0.076674752 -0.019968072 0.52100003 4292729036
-0.075830549 -0.020006364 0.52200001 4292992208
-0.074982613 -0.020044653 0.523 4292729036
-0.074130908 -0.020082947 0.52399999 4292465864
-0.073135905 -0.020082911 0.52399999 4292531405
-0.072278611 -0.020121198 0.52499998 4292597198
-0.071281791 -0.020121161 0.52499998 4292597450
-0.070418917 -0.020159449 0.52600002 4292663243
-0.06955228 -0.020197732 0.52700001 4292662993
-0.068811975 -0.020274345 0.52899998 4292531407
-0.067807764 -0.020274302 0.52899998 4292597198
-0.067056157 -0.020350913 0.53100002 4292662991
-0.06604825 -0.020350868 0.53100002 4292990924
-0.065285355 -0.020427473 0.53299999 4293188304
-0.06427373 -0.020427428 0.53299999 4292530894
-0.063380852 -0.020465711 0.53399998 4292333258
-0.062484216 -0.02050399 0.53500003 4292597202
-0.061468948 -0.02050394 0.53500003 4293123546
-0.060679708 -0.020580543 0.537 4292794584
-0.059994027 -0.02069547 0.54000002 4292794584
-0.058969397 -0.020695422 0.54000002 4292926165
-0.058052108 -0.020733699 0.54100001 4293386716
-0.057025671 -0.020733649 0.54100001 4293189337
-0.056309812 -0.020848574 0.54400003 4293255131
-0.3108044 -0.025088018 0.69099998 4294967295
-0.30952123 -0.025200209 0.69400001 4282930258
-0.30909279 -0.025274437 0.69599998 4283510016
-0.17917749 -0.019657291 0.54000002 4291941081
-0.17814818 -0.019657748 0.54000002 4291479748
-0.17711888 -0.019658195 0.54000002 4291743177
-0.1760896 -0.019658634 0.54000002 4291545030
-0.17506027 -0.019659065 0.54000002 4291873995
-0.17435321 -0.019695887 0.54100001 4292136651
-0.16915715 -0.019223006 0.528 4292004809
-0.16815069 -0.019223401 0.528 4291938764
-0.16714427 -0.019223783 0.528 4292267986
-0.16582318 -0.019187752 0.52700001 4292136910
-0.16481869 -0.019188121 0.52700001 4292202704
-0.1635033 -0.019152073 0.52600002 4292070089
-0.16219175 -0.019116009 0.52499998 4292136138
-0.16088404 -0.019079939 0.52399999 4292136136
-0.15896992 -0.018971039 0.52100003 4292333258
-0.1579769 -0.018971363 0.52100003 4292136138
-0.15668252 -0.018935263 0.51999998 4292333260
-0.15569146 -0.018935574 0.51999998 4291939786
-0.15440287 -0.018899459 0.51899999 4291939786
-0.15341373 -0.018899752 0.51899999 4292005583
-0.1521309 -0.018863626 0.51800001 4291873741
-0.15114367 -0.018863903 0.51800001 4291939268
-0.14986661 -0.018827759 0.51700002 4291939268
-0.14888138 -0.018828027 0.51700002 4291872961
-0.14789614 -0.018828288 0.51700002 4292070341
-0.14691092 -0.018828537 0.51700002 4291872959
-0.14564347 -0.018792365 0.51599997 4292136388
-0.14437988 -0.018756181 0.51499999 4291741891
-0.14339854 -0.018756412 0.51499999 4291807685
-0.1424173 -0.018756643 0.51499999 4292070341
-0.14143601 -0.018756861 0.51499999 4292136134
-0.14045478 -0.018757073 0.51499999 4292266693
-0.13947359 -0.018757282 0.51499999 4292200644
-0.13849244 -0.018757485 0.51499999 4291740093
-0.13751131 -0.018757679 0.51499999 4292134850
-0.13626511 -0.01872145 0.514 4292265669
-0.13528594 -0.018721633 0.514 4292529097
-0.13430685 -0.018721815 0.514 4292398274
-0.13280898 -0.018649142 0.51200002 4292266689
-0.13183375 -0.018649308 0.51200002 4292398022
-0.13111416 -0.018685898 0.51300001 4292595401
-0.13013709 -0.018686056 0.51300001 4292333512
-0.12916006 -0.018686205 0.51300001 4292136134
-0.12818308 -0.018686356 0.51300001 4292136134
-0.12720615 -0.018686499 0.51300001 4292136134
-0.12647529 -0.018723061 0.514 4292070856
-0.12525238 -0.018686771 0.51300001 4291939014
-0.12379108 -0.018614048 0.51099998 4291675583
-0.12281811 -0.018614171 0.51099998 4291872961
-0.12184521 -0.01861429 0.51099998 4291741891
-0.12087233 -0.018614409 0.51099998 4292005063
-0.1198995 -0.018614519 0.51099998 4292004550
-0.11892672 -0.018614624 0.51099998 4292004550
-0.11795398 -0.018614726 0.51099998 4291938754
-0.1169813 -0.018614825 0.51099998 4291938754
-0.11600867 -0.018614924 0.51099998 4291938241
-0.11503607 -0.018615015 0.51099998 4291938241
-0.11406352 -0.018615101 0.51099998 4292200644
-0.11309101 -0.018615182 0.51099998 4292200644
-0.11211857 -0.018615263 0.51099998 4291872957
-0.11114618 -0.018615339 0.51099998 4292136386
-0.11017383 -0.01861541 0.51099998 4292005061
-0.10941522 -0.01865191 0.51200002 4292202440
-0.10844108 -0.018651979 0.51200002 4292268487
-0.10746697 -0.018652039 0.51200002 4292334281
-0.1067009 -0.018688528 0.51300001 4291676609
-0.10593109 -0.018725015 0.514 4291676609
-0.10495332 -0.018725067 0.514 4291676350
-0.10397561 -0.018725116 0.514 4292202694
-0.10299795 -0.018725164 0.514 4292202953
-0.10202035 -0.018725209 0.514 4291940038
-0.10084622 -0.018688818 0.51300001 4292004548
-0.099870622 -0.018688859 0.51300001 4292333512
-0.098895088 -0.018688895 0.51300001 4291939268
-0.097919568 -0.018688923 0.51300001 4292070854
-0.096944131 -0.018688956 0.51300001 4292858573
-0.0961558 -0.018725412 0.514 4292727244
-0.095178567 -0.018725436 0.514 4292595655
-0.094384648 -0.018761894 0.51499999 4292529606
-0.093405612 -0.018761912 0.51499999 4292136138
-0.092426613 -0.018761927 0.51499999 4292464847
-0.091447689 -0.018761948 0.51499999 4292597202
-0.090468802 -0.018761961 0.51499999 4292334031
-0.089489959 -0.01876197 0.51499999 4292465101
-0.088511184 -0.018761981 0.51499999 4292596687
-0.088042356 -0.018871281 0.51800001 4292597202
-0.087057978 -0.018871287 0.51800001 4292531153
-0.086073644 -0.018871291 0.51800001 4292531659
-0.084925115 -0.018834859 0.51700002 4292531659
-0.083942786 -0.018834857 0.51700002 4292334544
-0.082960524 -0.018834859 0.51700002 4292268751
-0.081978306 -0.018834855 0.51700002 4292400589
-0.081152797 -0.018871279 0.51800001 4292597711
-0.080168776 -0.018871274 0.51800001 4292728788
-0.079337679 -0.018907696 0.51899999 4292597202
-0.078653805 -0.018980546 0.52100003 4292465612
-0.077664241 -0.018980535 0.52100003 4292597198
-0.076674722 -0.01898052 0.52100003 4292137160
-0.075830527 -0.019016938 0.52200001 4292466382
-0.074982591 -0.019053355 0.523 4292531659
-0.074130885 -0.019089766 0.52399999 4292531659
-0.07313589 -0.019089747 0.52399999 4292202953
-0.072278582 -0.019126158 0.52499998 4292466382
-0.071281761 -0.019126138 0.52499998 4292466893
-0.070418887 -0.019162547 0.52600002 4292466893
-0.069684222 -0.019235386 0.528 4292466643
-0.068811938 -0.019271789 0.52899998 4292400850
-0.067935899 -0.019308193 0.52999997 4292400589
-0.067056127 -0.019344602 0.53100002 4292466382
-0.066172592 -0.019381005 0.53200001 4292596939
-0.065285318 -0.019417405 0.53299999 4292596939
-0.064273685 -0.019417375 0.53299999 4292727244
-0.063380815 -0.019453777 0.53399998 4292661195
-0.062484182 -0.019490177 0.53500003 4292661708
-0.061468907 -0.019490147 0.53500003 4292990672
-0.060566675 -0.019526545 0.53600001 4292728016
-0.060105082 -0.019708659 0.54100001 4292793809
-0.059078556 -0.019708628 0.54100001 4292597198
-0.05815937 -0.019745024 0.542 4292794834
-0.05723644 -0.019781418 0.54299998 4292729300
-0.056206249 -0.019781383 0.54299998 4293058264
-0.055176102 -0.019781347 0.54299998 4292663506
-0.05424571 -0.019817743 0.54400003 4292466384
-0.053409383 -0.019890564 0.546 4292728535
-0.052373663 -0.019890528 0.546 4292728535
-0.30600852 -0.024025649 0.69800001 4283967744
-0.30468342 -0.024027159 0.69800001 4286141998
-0.30335811 -0.024028651 0.69800001 4290024041
-0.30289802 -0.024098974 0.69999999 4293055923
-0.30070692 -0.024031572 0.69800001 4294967282
-0.29938102 -0.024033003 0.69800001 4294967295
-0.17917795 -0.018631689 0.54000002 4292072151
-0.17814866 -0.018632164 0.54000002 4291414727
-0.17711933 -0.01863263 0.54000002 4291743436
-0.17609 -0.018633084 0.54000002 4291807948
-0.17506069 -0.01863353 0.54000002 4292136912
-0.17403136 -0.018633969 0.54000002 4292070343
-0.16979828 -0.018289315 0.52999997 4292070343
-0.16846958 -0.018255221 0.52899998 4291873741
-0.16746125 -0.018255627 0.52899998 4292334292
-0.16645288 -0.018256022 0.52899998 4292006092
-0.16544452 -0.018256407 0.52899998 4292072142
-0.16381451 -0.018187765 0.52700001 4291873741
-0.16281001 -0.018188134 0.52700001 4291939534
-0.16180548 -0.018188497 0.52700001 4292136138
-0.15897025 -0.017981768 0.52100003 4292267467
-0.15797722 -0.01798211 0.52100003 4292135886
-0.15668285 -0.017947929 0.51999998 4292530644
-0.15569176 -0.017948261 0.51999998 4292135884
-0.15470067 -0.017948581 0.51999998 4292135884
-0.15341401 -0.017914379 0.51899999 4292005331
-0.15242486 -0.017914684 0.51899999 4291807696
-0.15114397 -0.017880468 0.51800001 4291939266
-0.1501568 -0.017880762 0.51800001 4291807936
-0.14916961 -0.017881045 0.51800001 4291807685
-0.14789642 -0.017846808 0.51700002 4292136649
-0.14691122 -0.01784708 0.51700002 4292004548
-0.14564374 -0.017812824 0.51599997 4292333512
-0.14438014 -0.017778561 0.51499999 4292070093
-0.14339878 -0.01777881 0.51499999 4291938251
-0.14241752 -0.017779058 0.51499999 4292201157
-0.14143625 -0.0177793 0.51499999 4292332999
-0.14045502 -0.017779537 0.51499999 4292201157
-0.13947381 -0.017779764 0.51499999 4292069570
-0.13822371 -0.017745463 0.514 4292136134
-0.13724449 -0.017745679 0.514 4292399305
-0.13626528 -0.01774589 0.514 4292202444
-0.13528614 -0.017746096 0.514 4292268238
-0.13430703 -0.0177463 0.514 4292135614
-0.13332795 -0.017746493 0.514 4292135614
-0.1320914 -0.017712159 0.51300001 4292201157
-0.13111432 -0.017712343 0.51300001 4292332999
-0.13013723 -0.017712522 0.51300001 4292267465
-0.12916023 -0.017712696 0.51300001 4292267465
-0.12818325 -0.017712867 0.51300001 4292136134
-0.1272063 -0.017713029 0.51300001 4292070341
-0.12622938 -0.017713191 0.51300001 4291939268
-0.12525253 -0.017713346 0.51300001 4291939268
-0.12379122 -0.017644439 0.51099998 4291872707
-0.12281825 -0.017644582 0.51099998 4292267465
-0.12184532 -0.017644726 0.51099998 4292070341
-0.12087244 -0.017644862 0.51099998 4292399305
-0.11989963 -0.017644994 0.51099998 4292399305
-0.11892684 -0.017645124 0.51099998 4292530892
-0.11795408 -0.017645245 0.51099998 4292004548
-0.11698142 -0.017645372 0.51099998 4292070341
-0.11600877 -0.017645486 0.51099998 4292135112
-0.11503616 -0.017645597 0.51099998 4292069319
-0.11406362 -0.017645704 0.51099998 4292200644
-0.11309111 -0.01764581 0.51099998 4292266693
-0.11211868 -0.017645912 0.51099998 4292070341
-0.11114626 -0.017646009 0.51099998 4292136134
-0.11017391 -0.017646102 0.51099998 4292070854
-0.1094153 -0.017680725 0.51200002 4292136647
-0.10844114 -0.017680814 0.51200002 4292202944
-0.10746704 -0.017680898 0.51200002 4292531909
-0.10670097 -0.017715512 0.51300001 4292202694
-0.10593115 -0.01775012 0.514 4292202694
-0.10495339 -0.017750196 0.514 4291741893
-0.10397567 -0.017750263 0.514 4292136651
-0.102998 -0.017750332 0.514 4292202440
-0.10202042 -0.017750399 0.514 4292268489
-0.10084628 -0.017715929 0.51300001 4292136901
-0.099870667 -0.017715983 0.51300001 4292202694
-0.098895125 -0.017716039 0.51300001 4292201409
-0.097919621 -0.017716093 0.51300001 4292267202
-0.096944176 -0.017716147 0.51300001 4292398022
-0.096155845 -0.017750727 0.514 4292398022
-0.095178604 -0.017750774 0.514 4292267202
-0.09438467 -0.01778535 0.51499999 4292596167
-0.093405627 -0.017785389 0.51499999 4292267465
-0.092426643 -0.017785428 0.51499999 4292136136
-0.091625281 -0.017820001 0.51599997 4292399051
-0.090995826 -0.017889105 0.51800001 4292465101
-0.090011276 -0.017889135 0.51800001 4292530892
-0.089026794 -0.017889164 0.51800001 4292596685
-0.088042364 -0.01788919 0.51800001 4292466130
-0.087057985 -0.017889217 0.51800001 4292268751
-0.086073667 -0.017889237 0.51800001 4292531655
-0.085089386 -0.017889258 0.51800001 4292926413
-0.083942801 -0.017854743 0.51700002 4292596948
-0.082960524 -0.017854759 0.51700002 4292465362
-0.082136877 -0.017889312 0.51800001 4292597200
-0.081152812 -0.017889325 0.51800001 4292597200
-0.080168769 -0.017889334 0.51800001 4292596948
-0.079337671 -0.017923877 0.51899999 4292531155
-0.078653805 -0.01799296 0.52100003 4292465614
-0.077664234 -0.017992966 0.52100003 4292662993
-0.076674715 -0.017992971 0.52100003 4292663756
-0.075830512 -0.018027509 0.52200001 4292729550
-0.074982584 -0.018062046 0.523 4292465610
-0.074130885 -0.018096581 0.52399999 4292531659
-0.073275439 -0.018131116 0.52499998 4292531407
-0.072416253 -0.01816565 0.52600002 4292794580
-0.07141754 -0.018165646 0.52600002 4292729038
-0.070552737 -0.018200176 0.52700001 4292794832
-0.069816172 -0.018269239 0.52899998 4292925911
-0.068811931 -0.018269233 0.52899998 4292728788
-0.068064064 -0.018338295 0.53100002 4292531405
-0.067182377 -0.018372819 0.53200001 4292531405
-0.066172577 -0.018372811 0.53200001 4292531405
-0.065285295 -0.018407334 0.53299999 4292465612
-0.064273678 -0.018407322 0.53299999 4292465610
-0.063380793 -0.018441845 0.53399998 4292465610
-0.062484171 -0.018476367 0.53500003 4292596685
-0.061468881 -0.018476348 0.53500003 4292794063
-0.060566641 -0.018510869 0.53600001 4292728270
-0.060216166 -0.018718064 0.542 4292925650
-0.059187736 -0.018718043 0.542 4292795086
-0.058266651 -0.018752558 0.54299998 4292795086
-0.057341821 -0.018787075 0.54400003 4292794832
-0.056206223 -0.018752517 0.54299998 4293518554
-0.055176068 -0.018752497 0.54299998 4292794580
-0.054245688 -0.018787013 0.54400003 4292794580
-0.053409353 -0.018856058 0.546 4292925913
-0.05237364 -0.018856036 0.546 4292728535
-0.30424842 -0.022668499 0.69700003 4284377205
-0.30335957 -0.0227025 0.69800001 4283850860
-0.30203405 -0.022703962 0.69800001 4286474828
-0.30070832 -0.022705404 0.69800001 4292264612
-0.29938245 -0.022706829 0.69800001 4294962420
-0.2980563 -0.022708233 0.69800001 4294967295
-0.29673007 -0.022709621 0.69800001 4294967295
-0.17917845 -0.017606085 0.54000002 4292400602
-0.1781491 -0.017606573 0.54000002 4292268238
-0.17711982 -0.017607054 0.54000002 4292268238
-0.17609048 -0.017607529 0.54000002 4292004809
-0.17473696 -0.017575385 0.53899997 4292004809
-0.17370951 -0.01757584 0.53899997 4291543745
-0.16979876 -0.017282806 0.52999997 4292136138
-0.16878845 -0.017283233 0.52999997 4292136651
-0.16777819 -0.017283659 0.52999997 4292070602
-0.16645323 -0.01725146 0.52899998 4291677643
-0.16544491 -0.017251868 0.52899998 4291546057
-0.16443658 -0.017252266 0.52899998 4291676107
-0.16342825 -0.017252656 0.52899998 4292005329
-0.16241993 -0.017253038 0.52899998 4292333258
-0.15927576 -0.017025109 0.52200001 4292267465
-0.15797758 -0.016992856 0.52100003 4292135112
-0.15698452 -0.016993213 0.52100003 4292332747
-0.15569209 -0.016960939 0.51999998 4292004550
-0.15470099 -0.016961282 0.51999998 4292070343
-0.15370995 -0.016961619 0.51999998 4292004557
-0.15242518 -0.016929327 0.51899999 4292070606
-0.15143608 -0.016929645 0.51899999 4292136134
-0.15015709 -0.016897338 0.51800001 4292070341
-0.14916991 -0.016897645 0.51800001 4291741891
-0.14818275 -0.016897945 0.51800001 4292005063
-0.14691146 -0.016865617 0.51700002 4292004548
-0.14564398 -0.016833277 0.51599997 4292267719
-0.14438041 -0.016800936 0.51499999 4292004298
-0.14339906 -0.016801208 0.51499999 4292004298
-0.14241777 -0.016801475 0.51499999 4292069057
-0.14143649 -0.016801737 0.51499999 4292398022
-0.14045525 -0.016801992 0.51499999 4292069570
-0.13947403 -0.016802242 0.51499999 4292135364
-0.13822395 -0.01676986 0.514 4292202442
-0.13724473 -0.0167701 0.514 4292202442
-0.13626552 -0.016770331 0.514 4291743177
-0.13528635 -0.016770558 0.514 4291677384
-0.13430722 -0.016770778 0.514 4292004546
-0.13358755 -0.016803626 0.51499999 4292070595
-0.13260658 -0.016803838 0.51499999 4291938752
-0.13137008 -0.016771413 0.514 4292004546
-0.13039109 -0.016771613 0.514 4291938754
-0.12941219 -0.016771812 0.514 4292004548
-0.12818341 -0.016739374 0.51300001 4292004548
-0.12720646 -0.016739558 0.51300001 4292004548
-0.12622955 -0.016739741 0.51300001 4291740606
-0.12525269 -0.016739916 0.51300001 4291938241
-0.12403362 -0.016707459 0.51200002 4291806914
-0.12281838 -0.016674992 0.51099998 4292004550
-0.12184548 -0.016675156 0.51099998 4291872961
-0.1208726 -0.016675314 0.51099998 4292267719
-0.11989976 -0.016675469 0.51099998 4292070341
-0.11892697 -0.016675618 0.51099998 4292267719
-0.11795424 -0.016675767 0.51099998 4292070341
-0.11698154 -0.016675906 0.51099998 4292136134
-0.11600889 -0.016676044 0.51099998 4292267465
-0.11503629 -0.01667618 0.51099998 4292070343
-0.11406373 -0.016676309 0.51099998 4292266693
-0.11309123 -0.016676435 0.51099998 4292529608
-0.11211877 -0.016676556 0.51099998 4292267719
-0.11114636 -0.016676674 0.51099998 4292136134
-0.11017401 -0.016676789 0.51099998 4291872961
-0.10941541 -0.01670954 0.51200002 4292070341
-0.10844124 -0.016709648 0.51200002 4292070341
-0.10767702 -0.016742388 0.51300001 4292333512
-0.10690904 -0.016775126 0.514 4292268487
-0.10593124 -0.016775224 0.514 4292334281
-0.10495348 -0.016775321 0.514 4291938754
-0.10397577 -0.016775412 0.514 4292004548
-0.10299809 -0.016775502 0.514 4291938754
-0.10202048 -0.016775586 0.514 4292136134
-0.10084635 -0.016743034 0.51300001 4292070854
-0.099870749 -0.016743114 0.51300001 4292070854
-0.098895177 -0.016743191 0.51300001 4292267719
-0.097919688 -0.016743263 0.51300001 4292136134
-0.096944228 -0.016743336 0.51300001 4292201157
-0.096155904 -0.01677604 0.514 4292332999
-0.095178664 -0.016776109 0.514 4292267204
-0.09438473 -0.016808806 0.51499999 4292332997
-0.093587056 -0.016841508 0.51599997 4292267465
-0.09260615 -0.016841564 0.51599997 4292267465
-0.091802903 -0.016874261 0.51700002 4292267719
-0.090995863 -0.016906954 0.51800001 4292399305
-0.090011321 -0.016907005 0.51800001 4292597198
-0.089026839 -0.016907053 0.51800001 4292531405
-0.088212378 -0.016939739 0.51899999 4292137681
-0.087226093 -0.016939785 0.51899999 4292071888
-0.086239874 -0.016939826 0.51899999 4292400589
-0.085253678 -0.016939867 0.51899999 4292466382
-0.084105179 -0.016907265 0.51800001 4292530640
-0.083121017 -0.016907303 0.51800001 4292596689
-0.082136892 -0.016907334 0.51800001 4292531407
-0.081152812 -0.016907366 0.51800001 4292465614
-0.080168799 -0.016907396 0.51800001 4292531153
-0.079796299 -0.017037984 0.52200001 4292531153
-0.078804784 -0.017038014 0.52200001 4292334542
-0.077813305 -0.017038034 0.52200001 4292597713
-0.076821901 -0.01703806 0.52200001 4292729552
-0.076266341 -0.017136 0.52499998 4292729552
-0.075842798 -0.017266581 0.52899998 4292334533
-0.074838251 -0.017266599 0.52899998 4292531655
-0.07369417 -0.017233977 0.528 4292728786
-0.072691604 -0.017233992 0.528 4292531407
-0.071689092 -0.017234005 0.528 4292596685
-0.070686638 -0.01723402 0.528 4292728270
-0.069816194 -0.017266672 0.52899998 4292596685
-0.068811916 -0.01726668 0.52899998 4292530892
-0.068064071 -0.017331969 0.53100002 4292465612
-0.067182392 -0.017364616 0.53200001 4292465612
-0.06617257 -0.017364621 0.53200001 4292334029
-0.065285288 -0.017397268 0.53299999 4292334029
-0.064273663 -0.017397268 0.53299999 4292400589
-0.063380778 -0.017429911 0.53399998 4292400589
-0.062484153 -0.017462553 0.53500003 4292597200
-0.061468877 -0.017462553 0.53500003 4292531407
-0.061244622 -0.017691033 0.542 4292465612
-0.060216151 -0.017691035 0.542 4292729040
-0.059187721 -0.017691031 0.542 4292795084
-0.058373947 -0.017756306 0.54400003 4292531655
-0.057341818 -0.017756304 0.54400003 4292530892
-0.056413233 -0.017788935 0.54500002 4292859856
-0.055379294 -0.017788934 0.54500002 4292794834
-0.054445095 -0.017821562 0.546 4292926163
-0.053507153 -0.017854193 0.54699999 4292991704
-0.052565463 -0.017886823 0.54799998 4292925911
-0.30070975 -0.021379221 0.69800001 4287467647
-0.29938385 -0.021380637 0.69800001 4288118706
-0.29805768 -0.021382032 0.69800001 4287789741
-0.29673144 -0.021383414 0.69800001 4290816426
-0.29540497 -0.021384776 0.69800001 4294965497
-0.29407835 -0.02138612 0.69800001 4294967295
-0.17814963 -0.016580978 0.54000002 4292203737
-0.1771203 -0.016581476 0.54000002 4292006358
-0.17576486 -0.016551256 0.53899997 4291873993
-0.17441322 -0.016521029 0.53799999 4291873993
-0.17338772 -0.016521502 0.53799999 4291609036
-0.17011954 -0.016306994 0.53100002 4292332758
-0.16910738 -0.016307445 0.53100002 4292136649
-0.16777861 -0.016277172 0.52999997 4292070856
-0.16676833 -0.016277606 0.52999997 4291940301
-0.16575812 -0.016278034 0.52999997 4291940301
-0.16443697 -0.016247734 0.52899998 4292005842
-0.16342866 -0.016248146 0.52899998 4292005842
-0.1614992 -0.016156401 0.52600002 4292267717
-0.15958124 -0.016064646 0.523 4292267717
-0.15797794 -0.016003594 0.52100003 4292201161
-0.1569849 -0.016003968 0.52100003 4292529870
-0.1559919 -0.016004339 0.52100003 4292398792
-0.15470135 -0.015973978 0.51999998 4292398792
-0.15371029 -0.015974332 0.51999998 4292070089
-0.1527192 -0.015974678 0.51999998 4292070089
-0.15143639 -0.015944296 0.51899999 4292136136
-0.15015741 -0.015913911 0.51800001 4292136136
-0.14917022 -0.015914237 0.51800001 4292070856
-0.14818305 -0.015914556 0.51800001 4292070856
-0.14691177 -0.015884148 0.51700002 4292070343
-0.14564429 -0.015853727 0.51599997 4292465101
-0.14438067 -0.015823305 0.51499999 4292201157
-0.14339933 -0.015823597 0.51499999 4292069570
-0.14241807 -0.015823888 0.51499999 4292069573
-0.14143677 -0.015824169 0.51499999 4292595917
-0.14045553 -0.015824445 0.51499999 4292135364
-0.1394743 -0.015824715 0.51499999 4291938241
-0.13822421 -0.015794251 0.514 4292136134
-0.13724497 -0.015794512 0.514 4292596685
-0.13626577 -0.015794765 0.514 4291873991
-0.13528661 -0.015795015 0.514 4291808198
-0.13430746 -0.015795257 0.514 4292005061
-0.13358775 -0.015826225 0.51499999 4292005061
-0.1323493 -0.015795726 0.514 4292070341
-0.13137032 -0.015795955 0.514 4291938754
-0.1303913 -0.015796179 0.514 4291872959
-0.12941238 -0.015796397 0.514 4292070595
-0.12843348 -0.015796609 0.514 4292070341
-0.12745462 -0.015796818 0.514 4292070341
-0.12647581 -0.015797021 0.514 4292267204
-0.12549703 -0.01579722 0.514 4292398790
-0.12451831 -0.015797414 0.514 4292070341
-0.12281858 -0.015705401 0.51099998 4292333512
-0.12184564 -0.015705584 0.51099998 4291938503
-0.12087276 -0.015705764 0.51099998 4292267467
-0.11989993 -0.015705941 0.51099998 4292135616
-0.11892714 -0.015706114 0.51099998 4292201409
-0.11795438 -0.015706278 0.51099998 4292070595
-0.11698168 -0.015706442 0.51099998 4292070595
-0.11600904 -0.015706602 0.51099998 4292070341
-0.11503644 -0.015706757 0.51099998 4292070341
-0.11406388 -0.015706908 0.51099998 4292004548
-0.11309136 -0.015707057 0.51099998 4292070341
-0.1121189 -0.0157072 0.51099998 4292136134
-0.11136402 -0.015738081 0.51200002 4292333512
-0.11038975 -0.015738219 0.51200002 4292004550
-0.10962922 -0.015769087 0.51300001 4292004550
-0.10865316 -0.015769219 0.51300001 4292070091
-0.10767713 -0.015769346 0.51300001 4292333262
-0.10690916 -0.015800208 0.514 4292268489
-0.10593134 -0.015800327 0.514 4292729040
-0.10495358 -0.015800444 0.514 4292334281
-0.10397586 -0.015800556 0.514 4292268487
-0.1029982 -0.015800668 0.514 4292070604
-0.10202058 -0.015800774 0.514 4292202190
-0.10104302 -0.015800877 0.514 4292136134
-0.10006549 -0.015800977 0.514 4292136134
-0.09908805 -0.015801076 0.514 4292201161
-0.098110639 -0.015801171 0.514 4292135112
-0.097322263 -0.015832005 0.51499999 4292332997
-0.096343048 -0.015832093 0.51499999 4292530119
-0.095363893 -0.015832178 0.51499999 4292332999
-0.094568081 -0.015863007 0.51599997 4292332999
-0.093587115 -0.015863085 0.51599997 4292333258
-0.092785701 -0.015893908 0.51700002 4292333258
-0.091802955 -0.015893986 0.51700002 4292136134
-0.090995945 -0.015924804 0.51800001 4292136134
-0.090011388 -0.015924873 0.51800001 4292465099
-0.089198761 -0.015955685 0.51899999 4292596685
-0.088212423 -0.01595575 0.51899999 4292202704
-0.087394208 -0.015986558 0.51999998 4292005581
-0.086406067 -0.015986621 0.51999998 4292334031
-0.085253723 -0.015955936 0.51899999 4292465360
-0.084267609 -0.015955996 0.51899999 4292531407
-0.083281532 -0.01595605 0.51899999 4292465614
-0.0822955 -0.015956102 0.51899999 4292531405
-0.081309535 -0.015956154 0.51899999 4292465612
-0.080787905 -0.016048437 0.52200001 4292530894
-0.079796329 -0.016048482 0.52200001 4292728016
-0.078804806 -0.016048528 0.52200001 4292531407
-0.077813342 -0.016048571 0.52200001 4292794580
-0.07726343 -0.016140845 0.52499998 4292795347
-0.076266363 -0.016140884 0.52499998 4292729554
-0.075269349 -0.016140923 0.52499998 4292794048
-0.074838266 -0.016263938 0.52899998 4292794048
-0.073833764 -0.016263975 0.52899998 4292531153
-0.072829291 -0.016264006 0.52899998 4292334031
-0.071824871 -0.016264038 0.52899998 4292661708
-0.070820518 -0.016264066 0.52899998 4292793550
-0.069816202 -0.016264096 0.52899998 4292596685
-0.068942025 -0.016294869 0.52999997 4292596685
-0.068064086 -0.016325638 0.53100002 4292399305
-0.067182399 -0.016356407 0.53200001 4292267719
-0.066172585 -0.016356431 0.53200001 4292202192
-0.065285303 -0.016387196 0.53299999 4292333779
-0.064273678 -0.016387215 0.53299999 4292334029
-0.063380793 -0.01641798 0.53399998 4292268235
-0.062484168 -0.016448744 0.53500003 4292268235
-0.061468881 -0.016448757 0.53500003 4292268235
-0.061244622 -0.016663989 0.542 4292268489
-0.060216162 -0.016664004 0.542 4292597198
-0.059296925 -0.01669476 0.54299998 4292466116
-0.05837395 -0.016725518 0.54400003 4292466116
-0.057341818 -0.016725529 0.54400003 4292596948
-0.056413237 -0.016756283 0.54500002 4292728535
-0.055480894 -0.016787035 0.546 4292729040
-0.054445095 -0.016787043 0.546 4292926163
-0.05350716 -0.016817793 0.54699999 4292926165
-0.052565467 -0.016848546 0.54799998 4292728786
-0.29938522 -0.020054428 0.69800001 4284710574
-0.29805911 -0.020055817 0.69800001 4283920801
-0.29673284 -0.020057196 0.69800001 4285948539
-0.29540634 -0.020058552 0.69800001 4290619842
-0.29407972 -0.020059893 0.69800001 4294958296
-0.29275289 -0.020061217 0.69800001 4294967295
-0.1781501 -0.01555537 0.54000002 4292664542
-0.1771208 -0.015555886 0.54000002 4292072149
-0.17576534 -0.015527585 0.53899997 4291808200
-0.17441371 -0.015499273 0.53799999 4291742407
-0.17338818 -0.015499762 0.53799999 4291477954
-0.17172191 -0.015442625 0.53600001 4292399056
-0.16910781 -0.015299036 0.53100002 4292333512
-0.16809563 -0.015299496 0.53100002 4292136134
-0.16676877 -0.015271133 0.52999997 4291940299
-0.16575851 -0.015271578 0.52999997 4291874506
-0.1644374 -0.0152432 0.52899998 4291940047
-0.16342907 -0.015243628 0.52899998 4291940047
-0.16149963 -0.015157599 0.52600002 4292005831
-0.15988675 -0.015100376 0.52399999 4292137160
-0.15828155 -0.015043143 0.52200001 4292135884
-0.1572866 -0.015043537 0.52200001 4292464849
-0.15599227 -0.015015108 0.52100003 4292530123
-0.15499924 -0.015015488 0.52100003 4292398538
-0.15371065 -0.014987039 0.51999998 4292267467
-0.15271956 -0.014987406 0.51999998 4292004296
-0.15143675 -0.014958945 0.51899999 4291872194
-0.15015772 -0.014930474 0.51800001 4292266952
-0.14917055 -0.01493082 0.51800001 4292267465
-0.14818338 -0.014931161 0.51800001 4292070343
-0.14691207 -0.014902669 0.51700002 4291872961
-0.14592688 -0.014902998 0.51700002 4292333512
-0.14466135 -0.014874493 0.51599997 4292201157
-0.14339964 -0.01484598 0.51499999 4292135364
-0.14241835 -0.014846289 0.51499999 4292069059
-0.14143702 -0.01484659 0.51499999 4292397768
-0.14045581 -0.01484689 0.51499999 4292201157
-0.13947457 -0.01484718 0.51499999 4292069570
-0.13849342 -0.014847469 0.51499999 4291938501
-0.13751224 -0.014847748 0.51499999 4292136136
-0.13653113 -0.014848023 0.51499999 4292004811
-0.13555008 -0.014848296 0.51499999 4291939018
-0.134569 -0.014848559 0.51499999 4291939268
-0.13358802 -0.014848819 0.51499999 4292005061
-0.13234954 -0.014820241 0.514 4292070341
-0.13137053 -0.014820491 0.514 4292004548
-0.13064522 -0.014849568 0.51499999 4291872961
-0.12941259 -0.014820973 0.514 4292070341
-0.12843369 -0.014821209 0.514 4292267206
-0.12745485 -0.014821441 0.514 4292398792
-0.126476 -0.014821664 0.514 4292332999
-0.12549724 -0.014821885 0.514 4292201157
-0.12451851 -0.014822102 0.514 4291675846
-0.12329949 -0.014793477 0.51300001 4291939018
-0.12232275 -0.014793684 0.51300001 4291674561
-0.12087295 -0.014736208 0.51099998 4291937989
-0.11990011 -0.014736407 0.51099998 4291872448
-0.11892731 -0.014736598 0.51099998 4292201157
-0.11795457 -0.01473679 0.51099998 4292005061
-0.11698184 -0.014736973 0.51099998 4291939268
-0.1160092 -0.014737154 0.51099998 4291808200
-0.11503659 -0.01473733 0.51099998 4291808200
-0.11406402 -0.014737504 0.51099998 4291742402
-0.11331284 -0.014766515 0.51200002 4291676609
-0.11233848 -0.014766682 0.51200002 4291742402
-0.11158165 -0.014795682 0.51300001 4292005831
-0.11060551 -0.014795845 0.51300001 4292070341
-0.10962938 -0.014795998 0.51300001 4292267719
-0.10865329 -0.01479615 0.51300001 4292135112
-0.10767727 -0.014796297 0.51300001 4292135112
-0.1069093 -0.014825284 0.514 4292005061
-0.10593147 -0.014825426 0.514 4292070854
-0.10495369 -0.014825562 0.514 4291873991
-0.10397598 -0.014825697 0.514 4291873991
-0.10299832 -0.014825829 0.514 4291741639
-0.1020207 -0.014825958 0.514 4292070604
-0.10104313 -0.014826082 0.514 4292267206
-0.10006561 -0.014826203 0.514 4292267206
-0.099088147 -0.014826322 0.514 4292265671
-0.098301619 -0.014855282 0.51499999 4292331464
-0.097322367 -0.014855396 0.51499999 4292398538
-0.09634316 -0.014855506 0.51499999 4292266952
-0.095363997 -0.014855611 0.51499999 4291807685
-0.094568163 -0.014884562 0.51599997 4292070856
-0.09358722 -0.014884664 0.51599997 4292202444
-0.092785798 -0.014913611 0.51700002 4292202444
-0.091803052 -0.014913709 0.51700002 4292202694
-0.09099602 -0.014942647 0.51800001 4292071108
-0.090011463 -0.014942737 0.51800001 4292070341
-0.089198835 -0.014971672 0.51899999 4292333512
-0.088212498 -0.01497176 0.51899999 4292136138
-0.087226212 -0.014971845 0.51899999 4292136138
-0.086239986 -0.014971927 0.51899999 4292465101
-0.08525379 -0.014972004 0.51899999 4292530894
-0.084267668 -0.014972081 0.51899999 4292465614
-0.083121121 -0.014943308 0.51800001 4292531407
-0.082137004 -0.014943382 0.51800001 4292597198
-0.081622913 -0.015029994 0.52100003 4292465612
-0.080787957 -0.015058911 0.52200001 4292661710
-0.079796389 -0.015058978 0.52200001 4292793296
-0.078804865 -0.015059042 0.52200001 4292399051
-0.077962473 -0.015087952 0.523 4292399051
-0.077263474 -0.015145709 0.52499998 4292465612
-0.076266415 -0.015145767 0.52499998 4292531405
-0.075269394 -0.015145824 0.52499998 4292860104
-0.07483831 -0.015261275 0.52899998 4292531396
-0.073833801 -0.015261327 0.52899998 4292465101
-0.072829343 -0.01526138 0.52899998 4292465101
-0.071824916 -0.015261428 0.52899998 4292332999
-0.070820555 -0.015261476 0.52899998 4292398792
-0.069816239 -0.01526152 0.52899998 4292332999
-0.069072142 -0.015319265 0.53100002 4292332999
-0.068192296 -0.015348157 0.53200001 4292398792
-0.067182444 -0.015348197 0.53200001 4292398792
-0.066172622 -0.015348238 0.53200001 4292398540
-0.065162845 -0.015348274 0.53200001 4292595663
-0.0642737 -0.015377159 0.53299999 4292465101
-0.063380823 -0.015406045 0.53399998 4292399051
-0.062484182 -0.015434928 0.53500003 4292595917
-0.061468903 -0.015434959 0.53500003 4292595917
-0.061244644 -0.015636943 0.542 4292399305
-0.060216174 -0.015636971 0.542 4292728270
-0.059296951 -0.015665852 0.54299998 4292465610
-0.058266655 -0.015665876 0.54299998 4292663245
-0.057341833 -0.015694754 0.54400003 4292925913
-0.056309737 -0.015694777 0.54400003 4292728535
-0.055379298 -0.015723649 0.54500002 4292794063
-0.054544825 -0.015781373 0.54699999 4293057236
-0.05360499 -0.015810244 0.54799998 4292729300
-0.052661397 -0.015839115 0.54900002 4292334542
-0.2994383 -0.018318692 0.68300003 4294967295
-0.2981416 -0.018320134 0.68300003 4294967295
-0.29630908 -0.01870412 0.69700003 4293714120
-0.29498443 -0.018705469 0.69700003 4286476891
-0.29408097 -0.018733643 0.69800001 4287651616
-0.29233477 -0.018708125 0.69700003 4289230648
-0.2905921 -0.018682582 0.69599998 4291538323
-0.28926876 -0.018683868 0.69599998 4294963928
-0.17712131 -0.014530286 0.54000002 4291875028
-0.17576584 -0.014503901 0.53899997 4291940299
-0.17473839 -0.014504417 0.53899997 4292335057
-0.17338865 -0.014478012 0.53799999 4291873995
-0.17204274 -0.014451602 0.537 4292136910
-0.16942674 -0.01431753 0.53200001 4292136388
-0.16809611 -0.014291096 0.53100002 4291938752
-0.16676924 -0.014264651 0.52999997 4291873993
-0.16575894 -0.014265113 0.52999997 4291873993
-0.16443785 -0.014238655 0.52899998 4291873741
-0.16342948 -0.014239099 0.52899998 4292136912
-0.1621141 -0.014212623 0.528 4292005833
-0.16049743 -0.014159221 0.52600002 4292137162
-0.15919161 -0.014132723 0.52499998 4292070352
-0.15788962 -0.014106221 0.52399999 4292202194
-0.15659145 -0.014079708 0.523 4292136649
-0.15499963 -0.014026269 0.52100003 4292070856
-0.15400662 -0.014026661 0.52100003 4292135884
-0.15301365 -0.01402705 0.52100003 4292004298
-0.1517289 -0.014000506 0.51999998 4291872457
-0.15073785 -0.014000881 0.51999998 4292267215
-0.14974684 -0.014001248 0.51999998 4292136649
-0.14846978 -0.013974684 0.51899999 4292005063
-0.14719659 -0.013948113 0.51800001 4292004296
-0.14592719 -0.013921534 0.51700002 4292136138
-0.14494203 -0.013921878 0.51700002 4292135616
-0.14395688 -0.013922215 0.51700002 4292135616
-0.14297174 -0.013922544 0.51700002 4292070343
-0.141712 -0.013895938 0.51599997 4292070343
-0.14072883 -0.013896259 0.51599997 4292070341
-0.13974571 -0.013896571 0.51599997 4292136134
-0.1384937 -0.01386995 0.51499999 4292004298
-0.13751253 -0.01387025 0.51499999 4292135884
-0.13653143 -0.013870548 0.51499999 4292004557
-0.13555035 -0.01387084 0.51499999 4292004557
-0.13456929 -0.013871125 0.51499999 4292004809
-0.13384768 -0.013898341 0.51599997 4291807687
-0.13260731 -0.013871683 0.51499999 4292070854
-0.13162638 -0.013871957 0.51499999 4292268489
-0.13064548 -0.01387222 0.51499999 4291741891
-0.12941287 -0.013845546 0.514 4291807685
-0.12843394 -0.013845803 0.514 4292004548
-0.12745507 -0.013846054 0.514 4292136134
-0.12647626 -0.013846301 0.514 4292070341
-0.12549748 -0.013846545 0.514 4292004548
-0.12427647 -0.013819842 0.51300001 4291938253
-0.1232997 -0.013820075 0.51300001 4292333010
-0.12208451 -0.013793366 0.51200002 4292134601
-0.12087316 -0.013766647 0.51099998 4292200394
-0.11990032 -0.013766866 0.51099998 4292134853
-0.11892751 -0.013767079 0.51099998 4292529610
-0.11795475 -0.013767293 0.51099998 4292201157
-0.11721098 -0.013794441 0.51200002 4292201157
-0.11623643 -0.013794645 0.51200002 4292135886
-0.1152619 -0.013794843 0.51200002 4292464595
-0.11428744 -0.01379504 0.51200002 4292202694
-0.11331302 -0.01379523 0.51200002 4292202694
-0.11233865 -0.013795418 0.51200002 4292268489
-0.11158184 -0.013822544 0.51300001 4292531405
-0.11060567 -0.013822727 0.51300001 4292728005
-0.10962953 -0.013822901 0.51300001 4292991176
-0.10865346 -0.013823075 0.51300001 4292004296
-0.10788734 -0.013850191 0.514 4291872709
-0.10690946 -0.013850357 0.514 4291808200
-0.10593163 -0.013850519 0.514 4291939786
-0.10495384 -0.013850676 0.514 4292004550
-0.10417841 -0.01387778 0.51499999 4292004550
-0.10319885 -0.013877935 0.51499999 4291872711
-0.10202083 -0.013851135 0.514 4292267213
-0.10104326 -0.013851281 0.514 4292070341
-0.10006575 -0.013851425 0.514 4292004548
-0.099088281 -0.013851562 0.514 4291937989
-0.09811087 -0.013851698 0.514 4291937989
-0.097133502 -0.013851833 0.514 4291872711
-0.096343271 -0.013878912 0.51499999 4291938505
-0.095364109 -0.013879038 0.51499999 4292004296
-0.094568267 -0.013906113 0.51599997 4292136138
-0.093587324 -0.013906236 0.51599997 4292070089
-0.092785902 -0.013933307 0.51700002 4292333260
-0.091803156 -0.013933425 0.51700002 4292268489
-0.090996124 -0.013960488 0.51800001 4292268489
-0.090011567 -0.013960599 0.51800001 4292268489
-0.08919894 -0.013987658 0.51899999 4292334283
-0.088212594 -0.013987765 0.51899999 4292202444
-0.087226301 -0.013987869 0.51899999 4291939016
-0.086240068 -0.013987971 0.51899999 4292530123
-0.085253879 -0.013988066 0.51899999 4292661710
-0.08426775 -0.013988164 0.51899999 4292661708
-0.083121203 -0.013961306 0.51800001 4292661708
-0.082137078 -0.013961397 0.51800001 4292268235
-0.081622995 -0.014042343 0.52100003 4292070856
-0.080788039 -0.014069382 0.52200001 4292399051
-0.079796471 -0.014069471 0.52200001 4292991445
-0.078804933 -0.014069551 0.52200001 4292399051
-0.077962533 -0.014096585 0.523 4292267465
-0.077116378 -0.014123615 0.52399999 4292334283
-0.076266482 -0.014150646 0.52499998 4292334283
-0.075269461 -0.014150719 0.52499998 4292597448
-0.07441397 -0.014177747 0.52600002 4292334533
-0.07383386 -0.014258679 0.52899998 4292334283
-0.072829403 -0.014258748 0.52899998 4292465612
-0.071824983 -0.014258815 0.52899998 4292334283
-0.070820607 -0.014258879 0.52899998 4292268489
-0.069816291 -0.014258942 0.52899998 4292202440
