# .PCD v0.7 - Point Cloud Data file format
VERSION 0.7
FIELDS x y z rgba
SIZE 4 4 4 4
TYPE F F F U
COUNT 1 1 1 1
WIDTH 1037
HEIGHT 1
VIEWPOINT 0 0 0 1 0 0 0
POINTS 1037
DATA ascii
0.015229911 -0.15898198 0.55800003 4289702308
0.016318051 -0.15926698 0.55900002 4289636515
0.017441081 -0.15983684 0.56099999 4289636511
0.018538715 -0.16012186 0.56199998 4289373595
0.019640155 -0.16040687 0.56300002 4289373606
0.020745387 -0.16069192 0.56400001 4289242277
-0.10338091 -0.1563037 0.55199999 4291675846
-0.10233158 -0.15630271 0.55199999 4291675846
-0.10091534 -0.1557354 0.55000001 4291675846
-0.099506676 -0.15516803 0.54799998 4291676107
-0.098105669 -0.15460072 0.546 4291544778
-0.097067825 -0.1545997 0.546 4291675848
-0.095502377 -0.15374924 0.54299998 4291610055
-0.094296291 -0.15346505 0.542 4291741641
-0.093094043 -0.15318087 0.54100001 4291938764
-0.092065781 -0.15317984 0.54100001 4291807435
-0.090869278 -0.15289564 0.54000002 4291675848
-0.089676581 -0.15261146 0.53899997 4291283139
-0.088323258 -0.15204415 0.537 4291151553
-0.087302692 -0.15204309 0.537 4290690237
-0.086282142 -0.15204202 0.537 4291150788
-0.085261635 -0.152041 0.537 4291413440
-0.08408425 -0.15175679 0.53600001 4291545282
-0.083065666 -0.15175577 0.53600001 4291216833
-0.08189404 -0.1514716 0.53500003 4291282626
-0.080877408 -0.15147053 0.53500003 4291413444
-0.079711527 -0.15118636 0.53399998 4291413444
-0.078549467 -0.15090221 0.53299999 4291544258
-0.077536702 -0.15090115 0.53299999 4291610051
-0.076523967 -0.1509001 0.53299999 4291346111
-0.075511239 -0.15089907 0.53299999 4291675333
-0.074358791 -0.15061493 0.53200001 4291609792
-0.073348008 -0.15061389 0.53200001 4291609792
-0.072065316 -0.15004665 0.52999997 4291413444
-0.070924312 -0.1497625 0.52899998 4291347395
-0.069919303 -0.1497615 0.52899998 4291151299
-0.068914339 -0.14976051 0.52899998 4291085506
-0.067909375 -0.14975947 0.52899998 4291282374
-0.066904433 -0.14975849 0.52899998 4291479496
-0.065774955 -0.1494744 0.528 4291347138
-0.064771965 -0.1494734 0.528 4291544260
-0.063648231 -0.14918934 0.52700001 4291413957
-0.062647186 -0.14918835 0.52700001 4291216579
-0.06164616 -0.1491874 0.52700001 4291347649
-0.060530089 -0.14890333 0.52600002 4291281856
-0.059531007 -0.14890239 0.52600002 4291018166
-0.058531951 -0.14890145 0.52600002 4291281594
-0.057532914 -0.14890046 0.52600002 4291610051
-0.056533907 -0.14889956 0.52600002 4291544258
-0.055534907 -0.14889863 0.52600002 4291019199
-0.054639623 -0.14918077 0.52700001 4291019199
-0.053536993 -0.1488968 0.52600002 4291084994
-0.052538067 -0.1488959 0.52600002 4291150788
-0.051539168 -0.148895 0.52600002 4291019449
-0.050540283 -0.14889413 0.52600002 4291151036
-0.049541414 -0.14889325 0.52600002 4291084731
-0.04854257 -0.14889237 0.52600002 4291281854
-0.047543753 -0.14889154 0.52600002 4291215545
-0.046810411 -0.14973988 0.52899998 4291215545
-0.045805927 -0.14973903 0.52899998 4291084477
-0.044716779 -0.14945517 0.528 4291084477
-0.043714236 -0.14945436 0.528 4291149500
-0.042711712 -0.14945354 0.528 4291149500
-0.041709207 -0.14945275 0.528 4291018938
-0.040783826 -0.14973503 0.52899998 4290952889
-0.039704259 -0.14945118 0.528 4290886583
-0.038701817 -0.14945045 0.528 4291083961
-0.037699386 -0.14944971 0.528 4291017914
-0.03669697 -0.14944898 0.528 4290886585
-0.035694569 -0.14944826 0.528 4291017655
-0.034692198 -0.14944756 0.528 4291017655
-0.033689834 -0.14944686 0.528 4290886583
-0.032687485 -0.14944619 0.528 4290820789
-0.031685159 -0.14944553 0.528 4290887098
-0.030740956 -0.14972791 0.52899998 4290952891
-0.029736761 -0.14972728 0.52899998 4290953143
-0.028732581 -0.14972667 0.52899998 4290953143
-0.02772841 -0.14972603 0.52899998 4290821555
-0.026724258 -0.14972545 0.52899998 4290887348
-0.025720119 -0.14972487 0.52899998 4290689455
-0.024715994 -0.1497243 0.52899998 4290623406
-0.023711883 -0.14972375 0.52899998 4290623408
-0.022707783 -0.1497232 0.52899998 4290623408
-0.0217037 -0.1497227 0.52899998 4290426034
-0.020699626 -0.14972219 0.52899998 4290426034
-0.019732794 -0.15000471 0.52999997 4290294958
-0.01886818 -0.15113634 0.53399998 4290360752
-0.01785465 -0.15113586 0.53399998 4290294958
-0.016841132 -0.15113541 0.53399998 4290426545
-0.01582762 -0.15113497 0.53399998 4290623408
-0.014814123 -0.15113454 0.53399998 4290294443
-0.013774793 -0.15085113 0.53299999 4290228652
-0.012763208 -0.15085073 0.53299999 4290228652
-0.011751637 -0.15085036 0.53299999 4290162855
-0.010760224 -0.15113305 0.53399998 4290426284
-0.0088314479 -0.15283048 0.54000002 4289966757
-0.007806622 -0.15283017 0.54000002 4290031787
-0.0067818025 -0.15282989 0.54000002 4290097836
-0.0057676486 -0.15311259 0.54100001 4290162859
-0.0047321813 -0.15282932 0.54000002 4290228652
-0.0037073791 -0.15282908 0.54000002 4290162607
-0.0026875504 -0.15311183 0.54100001 4290162607
-0.0016608606 -0.15311162 0.54100001 4290096553
-0.00063300307 -0.15282843 0.54000002 4290030503
0.00039178052 -0.15282825 0.54000002 4289703078
0.0014165606 -0.15282807 0.54000002 4289571492
0.0024594218 -0.15395999 0.54400003 4289571749
0.0035110435 -0.15480889 0.54699999 4289571749
0.0045657326 -0.15537481 0.54900002 4289898919
0.0056075822 -0.15537471 0.54900002 4289964712
0.0066494304 -0.15537463 0.54900002 4289964197
0.0077052875 -0.15565754 0.55000001 4289898404
0.0087649394 -0.1559405 0.551 4289767840
0.009828385 -0.15622348 0.55199999 4289899169
0.010915332 -0.15678948 0.55400002 4289767838
0.011966671 -0.1567895 0.55400002 4289767838
0.013088498 -0.15763852 0.55699998 4289899689
0.014170929 -0.15792158 0.55800003 4289833896
0.015229861 -0.15792163 0.55800003 4289439652
0.016317986 -0.15820469 0.55900002 4289505445
0.01740991 -0.15848775 0.56 4289636511
0.018472644 -0.15848789 0.56 4289505182
0.019640038 -0.15933706 0.56300002 4289242779
0.020745255 -0.15962015 0.56400001 4289242779
-0.10356717 -0.15553655 0.55299997 4291544258
-0.10233057 -0.15525424 0.55199999 4291610053
-0.1009143 -0.15469073 0.55000001 4291675846
-0.099505641 -0.15412717 0.54799998 4291610055
-0.098104626 -0.1535636 0.546 4291610055
-0.096889019 -0.15328135 0.54500002 4291478983
-0.095501326 -0.15271777 0.54299998 4291413190
-0.094295233 -0.15243548 0.542 4291545032
-0.093265079 -0.15243447 0.542 4291742155
-0.092064723 -0.15215214 0.54100001 4291676361
-0.090868227 -0.15186983 0.54000002 4291676361
-0.089509152 -0.15130629 0.53799999 4291414207
-0.0883222 -0.15102403 0.537 4291151036
-0.087301634 -0.15102297 0.537 4291281342
-0.086281084 -0.1510219 0.537 4291281342
-0.085260563 -0.15102085 0.537 4291347383
-0.0840832 -0.15073855 0.53600001 4291676348
-0.083064631 -0.15073751 0.53600001 4291216831
-0.081892997 -0.15045522 0.53500003 4291216831
-0.080876358 -0.15045416 0.53500003 4291347397
-0.079710476 -0.15017186 0.53399998 4291281604
-0.078548424 -0.1498896 0.53299999 4291347395
-0.077535667 -0.14988855 0.53299999 4291676359
-0.076522924 -0.14988749 0.53299999 4291478465
-0.075510204 -0.14988644 0.53299999 4291676100
-0.074357748 -0.14960419 0.53200001 4291543745
-0.073346972 -0.14960316 0.53200001 4291543745
-0.072064281 -0.14903969 0.52999997 4291347397
-0.070923291 -0.14875746 0.52899998 4291347397
-0.069918305 -0.14875644 0.52899998 4291084994
-0.068913311 -0.14875542 0.52899998 4291018945
-0.067908362 -0.14875439 0.52899998 4291281604
-0.066903435 -0.14875337 0.52899998 4291545032
-0.065773956 -0.14847119 0.528 4291347138
-0.064770974 -0.14847018 0.528 4291347138
-0.06364724 -0.14818799 0.52700001 4291216581
-0.062646203 -0.14818701 0.52700001 4291150788
-0.061762165 -0.14846724 0.528 4291281856
-0.060989413 -0.14902863 0.52999997 4291479235
-0.059643231 -0.14818412 0.52700001 4291281340
-0.058642276 -0.14818315 0.52700001 4291281340
-0.057641353 -0.1481822 0.52700001 4291478717
-0.056640442 -0.14818126 0.52700001 4291347388
-0.055639561 -0.14818032 0.52700001 4291084990
-0.054638702 -0.14817938 0.52700001 4291151040
-0.053536087 -0.14789732 0.52600002 4291150788
-0.052537173 -0.14789642 0.52600002 4291084994
-0.051538274 -0.1478955 0.52600002 4291019447
-0.050539404 -0.14789464 0.52600002 4291085496
-0.049540546 -0.14789373 0.52600002 4291085242
-0.048541717 -0.14789288 0.52600002 4291282878
-0.047723673 -0.14845435 0.528 4291347385
-0.046809562 -0.14873464 0.52899998 4291215799
-0.045805089 -0.14873379 0.52899998 4291215549
-0.04471596 -0.14845183 0.528 4291281342
-0.043713428 -0.148451 0.528 4291215547
-0.042710919 -0.1484502 0.528 4291017912
-0.041708421 -0.14844939 0.528 4290952889
-0.040705957 -0.14844863 0.528 4291216060
-0.039628305 -0.14816669 0.52700001 4290887350
-0.038627774 -0.14816596 0.52700001 4291018936
-0.037627246 -0.14816521 0.52700001 4290951605
-0.036626745 -0.14816448 0.52700001 4290951605
-0.035626259 -0.14816374 0.52700001 4290951607
-0.034625795 -0.14816305 0.52700001 4291083194
-0.033625346 -0.14816236 0.52700001 4291018166
-0.032686815 -0.14844282 0.528 4290821043
-0.031684503 -0.14844215 0.528 4290886583
-0.030740311 -0.14872265 0.52899998 4291017912
-0.029736126 -0.14872199 0.52899998 4291083957
-0.028731961 -0.14872138 0.52899998 4291083957
-0.027727803 -0.14872074 0.52899998 4291018416
-0.026723668 -0.14872016 0.52899998 4291018416
-0.025719542 -0.14871956 0.52899998 4290623408
-0.024715437 -0.14871904 0.52899998 4290557615
-0.023711339 -0.14871843 0.52899998 4290688688
-0.022707254 -0.14871791 0.52899998 4290688688
-0.021703182 -0.14871739 0.52899998 4290492592
-0.020738253 -0.14899802 0.52999997 4290426799
-0.019732306 -0.14899752 0.52999997 4290426799
-0.018867699 -0.15012151 0.53399998 4290558385
-0.01785419 -0.15012106 0.53399998 4290426032
-0.016840687 -0.15012063 0.53399998 4290557361
-0.01582719 -0.15012015 0.53399998 4290426545
-0.014813709 -0.15011975 0.53399998 4290097836
-0.013774393 -0.14983822 0.53299999 4290163629
-0.012762829 -0.14983785 0.53299999 4290163629
-0.011751272 -0.14983746 0.53299999 4290294958
-0.010759872 -0.15011823 0.53399998 4290492338
-0.0097464332 -0.15011789 0.53399998 4290295460
-0.0088311266 -0.1518043 0.54000002 4290032289
-0.0078063165 -0.15180399 0.54000002 4290097832
-0.0067815129 -0.15180369 0.54000002 4290097832
-0.0057567153 -0.15180339 0.54000002 4290228650
-0.0047319233 -0.15180312 0.54000002 4290162857
-0.0037071384 -0.15180288 0.54000002 4290163377
-0.0026873259 -0.15208374 0.54100001 4290163377
-0.0016606526 -0.15208356 0.54100001 4290096553
-0.00063398358 -0.15208334 0.54100001 4290030503
0.0003926814 -0.15208317 0.54100001 4289703330
0.0014245897 -0.15264522 0.54299998 4289374108
0.0024595649 -0.15292618 0.54400003 4289439398
0.0035111706 -0.15376939 0.54699999 4289637033
0.00454921 -0.15376927 0.54699999 4289898919
0.0056076772 -0.1543314 0.54900002 4289767334
0.0066495081 -0.15433133 0.54900002 4289767334
0.0077053495 -0.15461236 0.55000001 4289701541
0.0087808901 -0.15517454 0.55199999 4289767588
0.0098284148 -0.15517449 0.55199999 4290228139
0.010895642 -0.15545559 0.55299997 4289899167
0.011966665 -0.15573673 0.55400002 4289767838
0.013088478 -0.15658005 0.55699998 4289833644
0.014170891 -0.15686122 0.55800003 4289767851
0.015229807 -0.15686126 0.55800003 4289439652
0.016317915 -0.15714243 0.55900002 4289373858
0.017378733 -0.15714251 0.55900002 4289767838
0.018472541 -0.15742369 0.56 4289767838
-0.10214415 -0.15392643 0.551 4291610051
-0.1005463 -0.15308732 0.54799998 4291741893
-0.099323034 -0.15280694 0.54699999 4291675585
-0.098283261 -0.15280585 0.54699999 4291806914
-0.096887954 -0.15224612 0.54500002 4291545030
-0.095500275 -0.15168634 0.54299998 4291479237
-0.094294205 -0.15140595 0.542 4291216581
-0.093264006 -0.15140487 0.542 4291479496
-0.092063688 -0.15112449 0.54100001 4291282374
-0.09069889 -0.1505647 0.53899997 4291216581
-0.089508101 -0.15028431 0.53799999 4291281856
-0.088321142 -0.1500039 0.537 4291347649
-0.087300569 -0.15000284 0.537 4291544260
-0.086280011 -0.15000175 0.537 4291478467
-0.085100725 -0.14972135 0.53600001 4291281594
-0.084082127 -0.1497203 0.53600001 4291478717
-0.08306355 -0.14971925 0.53600001 4290756795
-0.081891932 -0.14943884 0.53500003 4291085504
-0.0808753 -0.14943776 0.53500003 4291216581
-0.079709411 -0.14915735 0.53399998 4291150788
-0.078694731 -0.1491563 0.53399998 4291019199
-0.077534609 -0.14887592 0.53299999 4291413957
-0.076521873 -0.14887486 0.53299999 4291216831
-0.075367488 -0.1485945 0.53200001 4291282624
-0.074356705 -0.14859344 0.53200001 4291281342
-0.073345929 -0.1485924 0.53200001 4291281342
-0.071927279 -0.14775343 0.52899998 4291215295
-0.070922263 -0.14775239 0.52899998 4291347138
-0.069917269 -0.14775138 0.52899998 4291215547
-0.068912297 -0.14775032 0.52899998 4291215547
-0.067907348 -0.14774929 0.52899998 4291215295
-0.066902421 -0.14774828 0.52899998 4291544260
-0.065772943 -0.14746796 0.528 4291347649
-0.064769983 -0.14746699 0.528 4291347649
-0.063646257 -0.1471867 0.52700001 4291150788
-0.062645219 -0.14718567 0.52700001 4291018945
-0.0621121 -0.14830185 0.53100002 4290887611
-0.061103519 -0.14830087 0.53100002 4291282626
-0.060094956 -0.14829989 0.53100002 4291478717
-0.058863863 -0.14774035 0.52899998 4291478717
-0.057859145 -0.14773935 0.52899998 4291478717
-0.0566395 -0.14717987 0.52700001 4291478717
-0.055638637 -0.14717895 0.52700001 4291084731
-0.054637775 -0.14717801 0.52700001 4291216060
-0.053535178 -0.14689784 0.52600002 4291085506
-0.052536268 -0.14689693 0.52600002 4290954176
-0.05153738 -0.146896 0.52600002 4290823353
-0.050538518 -0.14689511 0.52600002 4290691768
-0.049539674 -0.14689425 0.52600002 4290691770
-0.048540849 -0.14689337 0.52600002 4290888892
-0.047722813 -0.14745104 0.528 4291019451
-0.046808716 -0.14772944 0.52899998 4290887609
-0.045804258 -0.14772859 0.52899998 4290754998
-0.044715129 -0.14744848 0.528 4291149500
-0.043712612 -0.14744768 0.528 4291215034
-0.042710118 -0.14744687 0.528 4291149241
-0.041707635 -0.14744608 0.528 4290755509
-0.040705178 -0.14744529 0.528 4290821303
-0.039627545 -0.14716527 0.52700001 4290492592
-0.038627017 -0.14716449 0.52700001 4290953143
-0.037626509 -0.14716376 0.52700001 4290951859
-0.036626019 -0.14716303 0.52700001 4291017653
-0.035625551 -0.14716232 0.52700001 4291017655
-0.034559395 -0.14688236 0.52600002 4291083448
-0.033560857 -0.14688167 0.52600002 4290887350
-0.032562334 -0.14688098 0.52600002 4290821557
-0.031563826 -0.14688031 0.52600002 4290426034
-0.030739665 -0.14771737 0.52899998 4290754998
-0.029735491 -0.14771672 0.52899998 4290886066
-0.028731341 -0.14771612 0.52899998 4290754481
-0.027727202 -0.14771549 0.52899998 4290886064
-0.026723079 -0.14771488 0.52899998 4290886064
-0.025718968 -0.1477143 0.52899998 4290294182
-0.02471487 -0.14771374 0.52899998 4290623147
-0.023710787 -0.14771317 0.52899998 4290688942
-0.022706719 -0.14771265 0.52899998 4290688942
-0.021702662 -0.1477121 0.52899998 4290557361
-0.020737747 -0.14799084 0.52999997 4290360238
-0.019731818 -0.14799035 0.52999997 4290295729
-0.018761231 -0.14826907 0.53100002 4290295729
-0.017820295 -0.14882708 0.53299999 4290360752
-0.016840242 -0.14910583 0.53399998 4290426545
-0.015826764 -0.14910537 0.53399998 4290360754
-0.014813297 -0.14910498 0.53399998 4290426547
-0.013799837 -0.14910457 0.53399998 4290492338
-0.01278639 -0.14910416 0.53399998 4290294958
-0.011772951 -0.14910381 0.53399998 4290229936
-0.010759522 -0.14910345 0.53399998 4290229936
-0.009746098 -0.14910311 0.53399998 4289966757
-0.008732684 -0.14910276 0.53399998 4289966757
-0.0078060101 -0.15077779 0.54000002 4290097832
-0.0067812232 -0.15077749 0.54000002 4290097832
-0.0057564424 -0.15077722 0.54000002 4289965994
-0.0047316672 -0.15077694 0.54000002 4289900201
-0.0037068988 -0.15077668 0.54000002 4289835180
-0.0026821352 -0.15077646 0.54000002 4289835180
-0.0016604452 -0.15105546 0.54100001 4289833894
-0.00063379289 -0.15105528 0.54100001 4289899687
0.00039285547 -0.15105508 0.54100001 4289964962
0.0014247479 -0.15161331 0.54299998 4289701791
0.0024597067 -0.15189241 0.54400003 4289701795
0.0035112968 -0.15272993 0.54699999 4289767588
0.0045493194 -0.15272979 0.54699999 4289702054
0.0056077698 -0.15328814 0.54900002 4289767847
0.0066495854 -0.15328807 0.54900002 4289702054
0.0077194185 -0.1538464 0.551 4289504932
0.0087809348 -0.15412556 0.55199999 4289505443
0.0098284427 -0.15412553 0.55199999 4289637285
0.010895651 -0.1544047 0.55299997 4289768353
0.011988258 -0.15496315 0.55500001 4289702304
0.013088455 -0.15552159 0.55699998 4289767847
0.014145454 -0.1555216 0.55699998 4289767847
0.01522975 -0.15580088 0.55800003 4289702308
0.016317843 -0.15608017 0.55900002 4289702308
0.017378643 -0.15608025 0.55900002 4289767840
-0.10214309 -0.15287986 0.551 4291742145
-0.10054524 -0.15204641 0.54799998 4291939268
-0.099321969 -0.15176791 0.54699999 4291543995
-0.098282196 -0.15176685 0.54699999 4291610044
-0.097064674 -0.15148835 0.546 4291479489
-0.09549921 -0.15065491 0.54299998 4291742405
-0.094293125 -0.15037638 0.542 4291611589
-0.093262933 -0.15037528 0.542 4291743175
-0.0920626 -0.15009677 0.54100001 4291413190
-0.090697818 -0.14954081 0.53899997 4291347397
-0.089507036 -0.14926231 0.53799999 4291347136
-0.088320062 -0.14898376 0.537 4291676100
-0.087299488 -0.1489827 0.537 4291478213
-0.086278945 -0.14898163 0.537 4291478213
-0.08509966 -0.14870313 0.53600001 4291281856
-0.084081054 -0.14870203 0.53600001 4291742407
-0.083062477 -0.14870095 0.53600001 4291151553
-0.081890851 -0.14842245 0.53500003 4291151553
-0.080874227 -0.14842136 0.53500003 4291282374
-0.079857625 -0.14842029 0.53500003 4291611339
-0.078693666 -0.14814179 0.53399998 4291676096
-0.077533543 -0.1478633 0.53299999 4291807938
-0.076520808 -0.14786226 0.53299999 4291347134
-0.07536643 -0.14758377 0.53200001 4291347134
-0.074355647 -0.14758269 0.53200001 4291413694
-0.073069148 -0.14702681 0.52999997 4291413694
-0.071926229 -0.14674836 0.52899998 4291281856
-0.07092122 -0.14674731 0.52899998 4291479235
-0.069916226 -0.14674626 0.52899998 4291149752
-0.068911277 -0.14674525 0.52899998 4291149752
-0.067906328 -0.14674421 0.52899998 4291346365
-0.066901401 -0.14674318 0.52899998 4291609538
-0.065896511 -0.14674217 0.52899998 4291610303
-0.064768963 -0.14646377 0.528 4291807938
-0.063766018 -0.14646275 0.528 4291281856
-0.062763102 -0.14646177 0.528 4291216062
-0.062111106 -0.14729291 0.53100002 4291084479
-0.061102532 -0.14729191 0.53100002 4291347395
-0.059980802 -0.14701355 0.52999997 4291347385
-0.058862902 -0.14673519 0.52899998 4291478715
-0.057858195 -0.14673424 0.52899998 4291347901
-0.056638557 -0.14617851 0.52700001 4291347901
-0.05553212 -0.1459002 0.52600002 4291216829
-0.054533187 -0.1458993 0.52600002 4291414207
-0.053534262 -0.14589837 0.52600002 4291085244
-0.052535359 -0.14589745 0.52600002 4291019451
-0.051536482 -0.14589655 0.52600002 4290888633
-0.050441545 -0.14561825 0.52499998 4290822840
-0.049444608 -0.14561737 0.52499998 4291018938
-0.048447702 -0.14561649 0.52499998 4291084731
-0.047721956 -0.14644773 0.528 4290952891
-0.046807867 -0.14672424 0.52899998 4290755511
-0.045803417 -0.14672339 0.52899998 4290886587
-0.044714309 -0.14644518 0.528 4291149502
-0.043711804 -0.14644438 0.528 4291215034
-0.04270931 -0.14644356 0.528 4291083448
-0.041706845 -0.14644276 0.528 4290886583
-0.040704399 -0.14644194 0.528 4291017912
-0.039626777 -0.14616384 0.52700001 4291149489
-0.038626265 -0.14616309 0.52700001 4291676089
-0.037625775 -0.14616233 0.52700001 4291609523
-0.036555793 -0.14588425 0.52600002 4291741110
-0.035557237 -0.14588353 0.52600002 4290886583
-0.034558695 -0.14588283 0.52600002 4290820789
-0.033560161 -0.14588211 0.52600002 4291018418
-0.03256166 -0.14588144 0.52600002 4291018418
-0.031563167 -0.14588076 0.52600002 4290557363
-0.030739009 -0.14671212 0.52899998 4290754998
-0.029734859 -0.14671148 0.52899998 4290689203
-0.028730718 -0.14671083 0.52899998 4290689203
-0.027726589 -0.14671022 0.52899998 4290689455
-0.026722483 -0.14670962 0.52899998 4290689455
-0.025718389 -0.14670904 0.52899998 4290558635
-0.024714302 -0.14670846 0.52899998 4290756013
-0.02371024 -0.14670792 0.52899998 4290426538
-0.022706185 -0.14670739 0.52899998 4290557867
-0.021702146 -0.14670685 0.52899998 4290294958
-0.020737242 -0.14698367 0.52999997 4290294958
-0.019731326 -0.14698316 0.52999997 4290426799
-0.018760759 -0.14726003 0.53100002 4290361006
-0.017819833 -0.14781418 0.53299999 4290426286
-0.016839795 -0.14809105 0.53399998 4290623408
-0.015826331 -0.1480906 0.53399998 4290426549
-0.014812881 -0.1480902 0.53399998 4290492342
-0.013799438 -0.14808978 0.53399998 4290557867
-0.012786007 -0.14808941 0.53399998 4290163109
-0.011772585 -0.14808904 0.53399998 4290294447
-0.010759171 -0.14808868 0.53399998 4290557363
-0.0078057065 -0.1497516 0.54000002 4290097832
-0.0067809345 -0.14975129 0.54000002 4290097832
-0.0057561705 -0.14975104 0.54000002 4290228902
-0.004731412 -0.14975078 0.54000002 4289834144
-0.0037066601 -0.14975052 0.54000002 4290030505
-0.0026819126 -0.14975029 0.54000002 4290096299
-0.0016602391 -0.15002739 0.54100001 4290096039
-0.00063360337 -0.1500272 0.54100001 4290029990
0.00039302831 -0.15002702 0.54100001 4289964962
0.0014249049 -0.15058148 0.54299998 4289899169
0.0024598471 -0.15085866 0.54400003 4289702304
0.0035114205 -0.15169044 0.54699999 4290097062
0.0045494274 -0.15169033 0.54699999 4289702308
0.0056078611 -0.15224484 0.54900002 4289702308
0.0066496585 -0.15224478 0.54900002 4289571492
0.0077194758 -0.15279932 0.551 4289505443
0.0087809768 -0.15307662 0.55199999 4289636515
0.0098284651 -0.15307657 0.55199999 4289702308
0.010915361 -0.15363118 0.55400002 4289702308
0.011988249 -0.15390851 0.55500001 4289636515
0.013088428 -0.15446311 0.55699998 4289768353
0.01414541 -0.15446316 0.55699998 4290162855
0.015229691 -0.15474054 0.55800003 4289768353
0.016317766 -0.15501793 0.55900002 4289702304
0.017409641 -0.15529534 0.56 4289439902
-0.10195667 -0.15155771 0.55000001 4291215808
-0.10054418 -0.15100551 0.54799998 4291413444
-0.099320911 -0.15072888 0.54699999 4291215547
-0.098281123 -0.15072781 0.54699999 4291478463
-0.097063586 -0.15045117 0.546 4291150786
-0.09549813 -0.14962344 0.54299998 4291216579
-0.094466016 -0.14962235 0.54299998 4291217092
-0.09326186 -0.14934573 0.542 4291282885
-0.092061527 -0.14906909 0.54100001 4291610051
-0.091033258 -0.149068 0.54100001 4291544258
-0.089672305 -0.14851581 0.53899997 4291215036
-0.088483445 -0.14823918 0.53799999 4291477952
-0.087298408 -0.14796257 0.537 4291477952
-0.086277865 -0.14796147 0.537 4291543745
-0.085098572 -0.14768486 0.53600001 4291151040
-0.084079958 -0.14768375 0.53600001 4291413955
-0.083061382 -0.14768267 0.53600001 4290955201
-0.081889771 -0.14740606 0.53500003 4290758078
-0.080873147 -0.14740495 0.53500003 4290691266
-0.079856545 -0.14740388 0.53500003 4291151817
-0.078839958 -0.14740279 0.53500003 4291675585
-0.077823408 -0.14740172 0.53500003 4291806914
-0.076950423 -0.14767615 0.53600001 4291346615
-0.07550703 -0.14684853 0.53299999 4291610044
-0.074494347 -0.14684747 0.53299999 4291217344
-0.073068097 -0.14601986 0.52999997 4291151551
-0.071925186 -0.14574331 0.52899998 4290954176
-0.070920177 -0.14574225 0.52899998 4291151299
-0.06991519 -0.14574119 0.52899998 4291215547
-0.068910226 -0.14574015 0.52899998 4291215547
-0.067905292 -0.14573912 0.52899998 4291346363
-0.06690038 -0.1457381 0.52899998 4291609792
-0.065895483 -0.14573705 0.52899998 4291543997
-0.064890631 -0.14573604 0.52899998 4291543997
-0.063885786 -0.14573504 0.52899998 4291478204
-0.06299983 -0.14600949 0.52999997 4291478204
-0.061993137 -0.14600851 0.52999997 4291216058
-0.06098647 -0.14600751 0.52999997 4291282108
-0.059979819 -0.14600652 0.52999997 4290887348
-0.058861934 -0.14573005 0.52899998 4291018934
-0.05774786 -0.1454536 0.528 4290887350
-0.056637608 -0.14517716 0.52700001 4291282108
-0.055531185 -0.14490075 0.52600002 4291085758
-0.054532241 -0.1448998 0.52600002 4290888379
-0.053533338 -0.14489889 0.52600002 4290953406
-0.052434567 -0.14462249 0.52499998 4291019199
-0.051437601 -0.14462158 0.52499998 4291216058
-0.050440658 -0.14462069 0.52499998 4291084729
-0.049443729 -0.14461978 0.52499998 4291346617
-0.04844683 -0.14461893 0.52499998 4291412410
-0.047630712 -0.14516897 0.52700001 4291083707
-0.046807013 -0.14571904 0.52899998 4290820791
-0.045802578 -0.1457182 0.52899998 4291017916
-0.044713479 -0.14544186 0.528 4291215295
-0.043710981 -0.14544104 0.528 4291148471
-0.042708505 -0.14544022 0.528 4291148471
-0.041706055 -0.14543943 0.528 4291017141
-0.040626522 -0.14516318 0.52700001 4290951092
-0.03962601 -0.14516243 0.52700001 4291016887
-0.038625501 -0.14516164 0.52700001 4291411645
-0.037553631 -0.14488545 0.52600002 4290951346
-0.036555067 -0.14488469 0.52600002 4291017139
-0.035556518 -0.14488399 0.52600002 4290886585
-0.034557991 -0.14488328 0.52600002 4290820791
-0.033559475 -0.14488257 0.52600002 4290361004
-0.032560982 -0.1448819 0.52600002 4290624432
-0.031682514 -0.1454321 0.528 4290361004
-0.030738359 -0.14570688 0.52899998 4290624432
-0.029734217 -0.14570624 0.52899998 4290624432
-0.028730093 -0.14570558 0.52899998 4290624432
-0.027725985 -0.14570498 0.52899998 4290755248
-0.026721893 -0.14570439 0.52899998 4290689455
-0.025717812 -0.14570381 0.52899998 4290493355
-0.024713742 -0.14570323 0.52899998 4290427562
-0.023709688 -0.14570265 0.52899998 4290361006
-0.02270565 -0.14570211 0.52899998 4290426799
-0.021701625 -0.1457016 0.52899998 4290360238
-0.020736735 -0.1459765 0.52999997 4290426032
-0.019768067 -0.14625145 0.53100002 4290557615
-0.018830942 -0.14680181 0.53299999 4290426286
-0.017852802 -0.14707674 0.53399998 4290424748
-0.016839348 -0.14707629 0.53399998 4290424748
-0.015825901 -0.14707586 0.53399998 4290162859
-0.014812468 -0.14707546 0.53399998 4290360238
-0.013799041 -0.14707504 0.53399998 4290689455
-0.012785625 -0.14707462 0.53399998 4290294697
-0.011772218 -0.14707428 0.53399998 4290425261
-0.010758822 -0.14707392 0.53399998 4290425261
-0.0067806477 -0.14872515 0.54000002 4290032039
-0.005755899 -0.14872488 0.54000002 4290228391
-0.0047311569 -0.1487246 0.54000002 4290096549
-0.0037064219 -0.14872438 0.54000002 4290292901
-0.0026816917 -0.14872415 0.54000002 4290292901
-0.0016600341 -0.14899935 0.54100001 4290292651
-0.00063341518 -0.14899917 0.54100001 4290095015
0.00039319991 -0.14899898 0.54100001 4289832863
0.0014250601 -0.14954962 0.54299998 4289964449
0.0024599861 -0.14982492 0.54400003 4289702304
0.003505124 -0.15037559 0.546 4289702304
0.004541215 -0.15037547 0.546 4289636515
0.005587521 -0.15065081 0.54699999 4289702308
0.0066497317 -0.15120155 0.54900002 4289702308
0.0077055222 -0.15147689 0.55000001 4289702308
0.0087651061 -0.15175223 0.551 4289767588
0.0098284883 -0.15202764 0.55199999 4289767588
0.012031438 -0.15340467 0.55699998 4289636515
0.013088402 -0.15340471 0.55699998 4289964960
0.014170763 -0.15368016 0.55800003 4289964960
0.01525692 -0.15395561 0.55900002 4289702558
0.016317686 -0.1539557 0.55900002 4289636765
0.017409544 -0.15423121 0.56 4289439900
-0.1019556 -0.15051302 0.55000001 4291478215
-0.10054311 -0.14996462 0.54799998 4291675594
-0.099319831 -0.14968987 0.54699999 4291544258
-0.098280035 -0.14968877 0.54699999 4291807687
-0.097062498 -0.14941402 0.546 4291347395
-0.096024655 -0.14941293 0.546 4291281602
-0.09446492 -0.14859088 0.54299998 4291347397
-0.093260758 -0.14831613 0.542 4291478983
-0.092060409 -0.1480414 0.54100001 4291676098
-0.09103217 -0.14804029 0.54100001 4291939014
-0.089837588 -0.14776555 0.54000002 4291477952
-0.088811286 -0.14776444 0.54000002 4291412158
-0.08778502 -0.14776336 0.54000002 4291478204
-0.086276762 -0.14694132 0.537 4291872961
-0.085097469 -0.14666659 0.53600001 4291413694
-0.084078878 -0.1466655 0.53600001 4291479487
-0.083060302 -0.14666438 0.53600001 4291216831
-0.08204174 -0.14666329 0.53600001 4291151038
-0.081023216 -0.14666219 0.53600001 4291084740
-0.079855449 -0.14638747 0.53500003 4291413705
-0.078838877 -0.1463864 0.53500003 4291478463
-0.07796777 -0.14665891 0.53600001 4291347134
-0.076805778 -0.14638421 0.53500003 4291346615
-0.0756476 -0.14610948 0.53399998 4291675837
-0.074493274 -0.1458348 0.53299999 4291282878
-0.073204897 -0.14528652 0.53100002 4291282878
-0.072060086 -0.14501184 0.52999997 4291084992
-0.071053177 -0.14501078 0.52999997 4291413957
-0.070046313 -0.14500976 0.52999997 4291347136
-0.068909191 -0.14473508 0.52899998 4291281342
-0.067904256 -0.14473404 0.52899998 4291347134
-0.067025803 -0.14500658 0.52999997 4291741891
-0.066019028 -0.14500555 0.52999997 4291543997
-0.065012261 -0.14500451 0.52999997 4291412410
-0.064005531 -0.1450035 0.52999997 4291412408
-0.062998824 -0.14500248 0.52999997 4291872959
-0.061992142 -0.14500147 0.52999997 4291479739
-0.060985472 -0.14500047 0.52999997 4291479739
-0.059978835 -0.14499949 0.52999997 4291544510
-0.058860958 -0.14472492 0.52899998 4291544510
-0.057746895 -0.14445037 0.528 4291216062
-0.056529187 -0.14390224 0.52600002 4291479235
-0.055530235 -0.14390129 0.52600002 4291085244
-0.05453131 -0.14390035 0.52600002 4290887609
-0.05353241 -0.14389943 0.52600002 4290953152
-0.052433658 -0.14362492 0.52499998 4290953152
-0.051436692 -0.14362401 0.52499998 4291149754
-0.050439764 -0.1436231 0.52499998 4291215547
-0.049442839 -0.14362219 0.52499998 4290951605
-0.048445947 -0.14362133 0.52499998 4290951605
-0.047629848 -0.1441676 0.52700001 4291083194
-0.046806153 -0.14471385 0.52899998 4291215036
-0.045801725 -0.14471297 0.52899998 4291083707
-0.044797327 -0.14471215 0.52899998 4291281342
-0.043710157 -0.14443776 0.528 4291215032
-0.042707693 -0.14443693 0.528 4291149239
-0.041705251 -0.14443612 0.528 4290951607
-0.040625736 -0.14416179 0.52700001 4290885814
-0.039625231 -0.144161 0.52700001 4290951355
-0.038551454 -0.14388669 0.52600002 4291346113
-0.037552889 -0.14388596 0.52600002 4290754485
-0.036554333 -0.14388521 0.52600002 4290754485
-0.035555802 -0.14388448 0.52600002 4290820537
-0.034557287 -0.14388378 0.52600002 4290754744
-0.033558786 -0.14388308 0.52600002 4290755248
-0.032622207 -0.14415592 0.52700001 4291018164
-0.031681847 -0.14442879 0.528 4290885801
-0.030737709 -0.14470166 0.52899998 4291148972
-0.029733578 -0.14470099 0.52899998 4290952107
-0.028729469 -0.14470038 0.52899998 4291017900
-0.027725371 -0.14469975 0.52899998 4290951857
-0.026721293 -0.14469914 0.52899998 4290754735
-0.025717229 -0.14469856 0.52899998 4290623406
-0.024713175 -0.14469798 0.52899998 4290426284
-0.023709139 -0.14469741 0.52899998 4290557615
-0.022705115 -0.14469688 0.52899998 4290623408
-0.021701105 -0.14469635 0.52899998 4290360238
-0.020736234 -0.14496936 0.52999997 4290360238
-0.019767573 -0.14524241 0.53100002 4290294443
-0.018795133 -0.14551544 0.53200001 4290360492
-0.017818911 -0.14578851 0.53299999 4290294445
-0.016838899 -0.14606157 0.53399998 4290162859
-0.015825469 -0.14606112 0.53399998 4290227619
-0.014812053 -0.14606072 0.53399998 4290293412
-0.013798644 -0.1460603 0.53399998 4290555818
-0.012785242 -0.14605987 0.53399998 4290555818
-0.011793899 -0.14633305 0.53500003 4290424748
-0.0067803594 -0.14769901 0.54000002 4290163109
-0.005755628 -0.14769872 0.54000002 4290162596
-0.0047309031 -0.14769846 0.54000002 4290096803
-0.0037061847 -0.14769821 0.54000002 4290031009
-0.0026814709 -0.147698 0.54000002 4290096803
-0.001656762 -0.14769779 0.54000002 4290096299
-0.00063205743 -0.1476976 0.54000002 4289898919
0.00039264312 -0.14769742 0.54000002 4289898917
0.0014225895 -0.14824428 0.542 4289898917
0.002460123 -0.14879115 0.54400003 4289636765
0.0035052453 -0.14933807 0.546 4289636765
0.0045413203 -0.14933795 0.546 4289439650
0.0055876076 -0.14961135 0.54699999 4289439650
0.0066619148 -0.15043183 0.55000001 4289701795
0.0077055767 -0.15043177 0.55000001 4289767588
0.0087651433 -0.15070523 0.551 4289832863
0.012053024 -0.15261979 0.55800003 4289767840
0.013111871 -0.15261981 0.55800003 4289768090
0.014170716 -0.15261985 0.55800003 4289899419
0.015284149 -0.15316692 0.56 4289702558
0.016346794 -0.15316699 0.56 4289242007
0.017409446 -0.15316711 0.56 4289440154
-0.10195449 -0.14946832 0.55000001 4291214782
-0.10054201 -0.1489237 0.54799998 4291477954
-0.099318728 -0.14865084 0.54699999 4291281088
-0.098278932 -0.14864972 0.54699999 4291478467
-0.097061396 -0.14837687 0.546 4291347138
-0.09602356 -0.14837576 0.546 4291347138
-0.094637789 -0.14783116 0.54400003 4291544260
-0.093431726 -0.1475583 0.54299998 4291610053
-0.092059314 -0.14701369 0.54100001 4291216062
-0.090862803 -0.14674085 0.54000002 4291413442
-0.089836478 -0.14673974 0.54000002 4291347136
-0.088810176 -0.1467386 0.54000002 4291347136
-0.087458774 -0.14619403 0.53799999 4291478463
-0.086436309 -0.14619289 0.53799999 4291478463
-0.085413903 -0.14619182 0.53799999 4291281342
-0.084077768 -0.14564723 0.53600001 4291347136
-0.083059192 -0.14564613 0.53600001 4291214782
-0.082040645 -0.14564501 0.53600001 4291477954
-0.081022121 -0.14564392 0.53600001 4291411906
-0.079854354 -0.14537108 0.53500003 4291543493
-0.078837775 -0.14536996 0.53500003 4291281602
-0.077821217 -0.14536887 0.53500003 4291215808
-0.076517567 -0.14482436 0.53299999 4291216060
-0.075504862 -0.14482325 0.53299999 4291281854
-0.074352443 -0.14455047 0.53200001 4291347649
-0.073203824 -0.14427769 0.53100002 4291281856
-0.072059005 -0.14400487 0.52999997 4291215295
-0.071052119 -0.14400379 0.52999997 4291215295
-0.070045248 -0.14400274 0.52999997 4291347136
-0.068908133 -0.14372998 0.52899998 4291281342
-0.067903213 -0.14372896 0.52899998 4291281340
-0.066898301 -0.14372788 0.52899998 4291347134
-0.065893434 -0.14372687 0.52899998 4291478204
-0.064888574 -0.14372581 0.52899998 4291478204
-0.064004518 -0.14399651 0.52999997 4291281592
-0.063116677 -0.14426716 0.53100002 4291281592
-0.062108099 -0.14426614 0.53100002 4291084729
-0.061099548 -0.14426517 0.53100002 4291216058
-0.059977848 -0.14399247 0.52999997 4291347134
-0.058859974 -0.14371981 0.52899998 4291215547
-0.057745919 -0.14344713 0.528 4291083709
-0.056528229 -0.14290282 0.52600002 4291149502
-0.055423714 -0.14263016 0.52499998 4290953402
-0.054426696 -0.14262921 0.52499998 4290756280
-0.0534297 -0.14262828 0.52499998 4290427062
-0.052432735 -0.14262737 0.52499998 4290887357
-0.051435787 -0.14262643 0.52499998 4291018938
-0.050438862 -0.14262556 0.52499998 4291018938
-0.049441956 -0.14262463 0.52499998 4291017401
-0.048537351 -0.14289543 0.52600002 4291017401
-0.047628976 -0.14316621 0.52700001 4291017401
-0.046805289 -0.14370866 0.52899998 4291017401
-0.045800872 -0.14370778 0.52899998 4290885047
-0.044796485 -0.14370695 0.52899998 4291214012
-0.043792114 -0.14370611 0.52899998 4291149239
-0.042787764 -0.14370531 0.52899998 4291149239
-0.041704446 -0.14343283 0.528 4290821303
-0.040624961 -0.1431604 0.52700001 4290755509
-0.03962446 -0.14315961 0.52700001 4290755257
-0.038550697 -0.1428872 0.52600002 4290755257
-0.037552144 -0.14288646 0.52600002 4290820789
-0.036553595 -0.1428857 0.52600002 4290886583
-0.035555076 -0.14288498 0.52600002 4290821303
-0.034556575 -0.14288427 0.52600002 4290755509
-0.033558093 -0.14288355 0.52600002 4290689201
-0.032621522 -0.14315449 0.52700001 4290557615
-0.031621177 -0.14315383 0.52700001 4290753447
-0.030737052 -0.14369644 0.52899998 4290950826
-0.029732937 -0.14369579 0.52899998 4290819245
-0.028728843 -0.14369516 0.52899998 4291082160
-0.027724762 -0.14369453 0.52899998 4291017139
-0.026720697 -0.14369392 0.52899998 4290951346
-0.025716646 -0.14369333 0.52899998 4290820008
-0.024712609 -0.14369276 0.52899998 4290754215
-0.023708582 -0.14369221 0.52899998 4290623410
-0.022704579 -0.14369166 0.52899998 4290623410
-0.021700583 -0.14369112 0.52899998 4290360238
-0.020735726 -0.14396225 0.52999997 4290360238
-0.019729855 -0.14396174 0.52999997 4290228900
-0.018759329 -0.14423288 0.53100002 4290294949
-0.017818447 -0.14477567 0.53299999 4290426286
-0.016806923 -0.14477521 0.53299999 4290360492
-0.015825039 -0.1450464 0.53399998 4290359207
-0.014811638 -0.14504597 0.53399998 4290359207
-0.013798242 -0.14504556 0.53399998 4290621096
-0.012808803 -0.14531681 0.53500003 4290555303
-0.011815575 -0.14558804 0.53600001 4290358955
-0.0057553584 -0.14667262 0.54000002 4290162596
-0.0047306502 -0.14667235 0.54000002 4290096803
-0.0037059486 -0.1466721 0.54000002 4289834144
-0.0026812514 -0.14667185 0.54000002 4289965987
-0.0016565594 -0.14667165 0.54000002 4290096812
-0.00063187187 -0.14667147 0.54000002 4289767847
0.00039281193 -0.1466713 0.54000002 4289768353
0.001422742 -0.14721435 0.542 4289768353
0.0024602595 -0.14775743 0.54400003 4289768603
0.0035053645 -0.14830056 0.546 4289636761
0.0045414218 -0.14830044 0.546 4289505445
0.0055876938 -0.14857194 0.54699999 4289373858
0.015284082 -0.15210284 0.56 4290097062
0.01634671 -0.1521029 0.56 4289439388
0.017409343 -0.15210299 0.56 4289505443
0.01847198 -0.15210313 0.56 4289505443
0.019569505 -0.15237488 0.56099999 4289439650
-0.10195339 -0.14842361 0.55000001 4291347136
-0.10054091 -0.14788277 0.54799998 4291610051
-0.099317625 -0.14761184 0.54699999 4291347138
-0.098277822 -0.14761068 0.54699999 4291347138
-0.097060286 -0.14733972 0.546 4291477954
-0.096022427 -0.14733858 0.546 4291477954
-0.094636671 -0.14679779 0.54400003 4291347395
-0.093430601 -0.14652681 0.54299998 4291742153
-0.092058204 -0.14598601 0.54100001 4291347395
-0.090861686 -0.14571503 0.54000002 4291413444
-0.089835353 -0.1457139 0.54000002 4291478465
-0.088809058 -0.14571279 0.54000002 4291544258
-0.087457657 -0.145172 0.53799999 4291477952
-0.086435199 -0.14517085 0.53799999 4291477952
-0.085571535 -0.14543957 0.53899997 4291281090
-0.084076658 -0.14462896 0.53600001 4291346884
-0.083058089 -0.14462785 0.53600001 4291215297
-0.082039535 -0.14462674 0.53600001 4291281090
-0.081021003 -0.1446256 0.53600001 4291281092
-0.079853252 -0.1443547 0.53500003 4291478215
-0.078836679 -0.14435358 0.53500003 4291347138
-0.077820122 -0.14435247 0.53500003 4291347138
-0.076516472 -0.14381173 0.53299999 4291347138
-0.075503774 -0.14381061 0.53299999 4291347138
-0.074351355 -0.14353973 0.53200001 4291281604
-0.073202752 -0.14326882 0.53100002 4291084481
-0.071921997 -0.14272812 0.52899998 4291215297
-0.070916988 -0.14272705 0.52899998 4291215297
-0.069912024 -0.14272597 0.52899998 4291215295
-0.068907075 -0.14272493 0.52899998 4291281088
-0.067902163 -0.1427239 0.52899998 4291215547
-0.066897251 -0.14272282 0.52899998 4291215547
-0.065892391 -0.14272179 0.52899998 4291281340
-0.064887539 -0.14272073 0.52899998 4291544512
-0.064003482 -0.1429895 0.52999997 4291281592
-0.06299679 -0.14298849 0.52999997 4291281592
-0.06199012 -0.14298746 0.52999997 4291215547
-0.060983472 -0.14298645 0.52999997 4291281340
-0.05997685 -0.14298543 0.52999997 4291412156
-0.058858987 -0.14271466 0.52899998 4291215034
-0.057854313 -0.14271368 0.52899998 4291083709
-0.056527264 -0.1419034 0.52600002 4291083709
-0.055422764 -0.14163262 0.52499998 4290952889
-0.054425754 -0.14163168 0.52499998 4290887096
-0.053428765 -0.14163072 0.52499998 4290624439
-0.052431811 -0.14162982 0.52499998 4291216833
-0.051434867 -0.14162889 0.52499998 4291149752
-0.050437961 -0.14162797 0.52499998 4291149752
-0.049441066 -0.14162709 0.52499998 4291017664
-0.048536479 -0.14189599 0.52600002 4291017664
-0.047628105 -0.14216489 0.52700001 4291017916
-0.046804424 -0.1427035 0.52899998 4291017916
-0.04580003 -0.14270265 0.52899998 4291148991
-0.044795644 -0.14270177 0.52899998 4291148991
-0.043791283 -0.14270094 0.52899998 4291083957
-0.042786945 -0.14270012 0.52899998 4291150006
-0.041703641 -0.14242956 0.528 4290755507
-0.040624168 -0.14215901 0.52700001 4290755507
-0.039623681 -0.14215823 0.52700001 4290821043
-0.038623221 -0.14215747 0.52700001 4290623408
-0.03762278 -0.14215669 0.52700001 4290688949
-0.036552861 -0.14188622 0.52600002 4291017914
-0.035554361 -0.14188549 0.52600002 4291017651
-0.034555871 -0.14188476 0.52600002 4291083444
-0.033621196 -0.14215381 0.52700001 4290755248
-0.032620843 -0.14215311 0.52700001 4290426284
-0.03162051 -0.14215244 0.52700001 4290557104
-0.030736394 -0.14269124 0.52899998 4290622897
-0.029732296 -0.14269057 0.52899998 4290687920
-0.028728217 -0.14268997 0.52899998 4290885299
-0.027724152 -0.14268935 0.52899998 4290951094
-0.026720097 -0.14268872 0.52899998 4290885301
-0.025716066 -0.14268813 0.52899998 4290819747
-0.024712041 -0.14268756 0.52899998 4290753953
-0.023708034 -0.14268699 0.52899998 4290557361
-0.022704042 -0.14268646 0.52899998 4290623410
-0.021700064 -0.14268592 0.52899998 4290688170
-0.020735217 -0.14295512 0.52999997 4290491047
-0.019729361 -0.14295463 0.52999997 4290163361
-0.018758852 -0.14322388 0.53100002 4290229154
-0.017784558 -0.14349315 0.53200001 4290097832
-0.016774945 -0.14349268 0.53200001 4290163881
-0.015794978 -0.14376198 0.53299999 4290162859
-0.014811222 -0.14403129 0.53399998 4290097066
-0.013797845 -0.14403087 0.53399998 4290293162
-0.0047303974 -0.14564624 0.54000002 4290295208
-0.0037057127 -0.14564598 0.54000002 4289835428
-0.0026810335 -0.14564577 0.54000002 4289966757
-0.0016563579 -0.14564554 0.54000002 4289899687
0.015284012 -0.15103877 0.56 4289964960
0.016346622 -0.15103883 0.56 4289636252
0.017409239 -0.15103894 0.56 4289636009
0.018471858 -0.15103902 0.56 4289636009
0.019569363 -0.15130886 0.56099999 4289504932
0.020670669 -0.15157874 0.56199998 4289504932
0.021737099 -0.15157889 0.56199998 4289373352
0.022803534 -0.15157908 0.56199998 4289242023
-0.1005398 -0.14684184 0.54799998 4291347138
-0.099316508 -0.14657277 0.54699999 4291477950
-0.098276719 -0.14657167 0.54699999 4291609792
-0.097059153 -0.14630254 0.546 4291543745
-0.096021309 -0.14630145 0.546 4291543745
-0.094809502 -0.14603236 0.54500002 4291281856
-0.093429469 -0.14549531 0.54299998 4291347649
-0.092227235 -0.14522624 0.542 4291347649
-0.091028817 -0.14495717 0.54100001 4291347649
-0.089834243 -0.14468811 0.54000002 4291544512
-0.08880794 -0.14468697 0.54000002 4291544512
-0.087456524 -0.14414993 0.53799999 4291477952
-0.086434081 -0.14414883 0.53799999 4291543745
-0.085570395 -0.1444156 0.53899997 4291281090
-0.08407554 -0.14361069 0.53600001 4291346884
-0.083056949 -0.14360955 0.53600001 4291347395
-0.08188536 -0.14334053 0.53500003 4291281602
-0.080868736 -0.14333941 0.53500003 4291018432
-0.079852134 -0.14333828 0.53500003 4291281604
-0.078835554 -0.14333718 0.53500003 4291478465
-0.077819012 -0.14333607 0.53500003 4291478465
-0.076515369 -0.14279908 0.53299999 4291281342
-0.075502686 -0.14279801 0.53299999 4291347136
-0.074350253 -0.142529 0.53200001 4291084992
-0.073201664 -0.14226 0.53100002 4291084992
-0.071920916 -0.14172308 0.52899998 4291149504
-0.07091593 -0.14172202 0.52899998 4291281090
-0.069910966 -0.14172094 0.52899998 4291412156
-0.068906017 -0.14171986 0.52899998 4291412156
-0.06790109 -0.14171879 0.52899998 4291215545
-0.066896208 -0.14171776 0.52899998 4291215545
-0.065891355 -0.1417167 0.52899998 4291346617
-0.06488651 -0.14171568 0.52899998 4291412410
-0.064002447 -0.14198251 0.52999997 4291215799
-0.062995762 -0.14198145 0.52999997 4291215799
-0.061989103 -0.14198047 0.52999997 4290820791
-0.060867403 -0.14171155 0.52899998 4290886585
-0.059862684 -0.14171055 0.52899998 4291148217
-0.058858 -0.14170957 0.52899998 4291411645
-0.057525244 -0.14090493 0.52600002 4291215036
-0.056418829 -0.14063609 0.52499998 4291215036
-0.055421807 -0.14063513 0.52499998 4291149752
-0.054424807 -0.14063416 0.52499998 4291083959
-0.053427834 -0.14063323 0.52499998 4291017914
-0.052430887 -0.1406323 0.52499998 4291149500
-0.051433954 -0.14063136 0.52499998 4291215032
-0.050437052 -0.14063045 0.52499998 4291215032
-0.049440168 -0.14062956 0.52499998 4290623158
-0.048535589 -0.14089654 0.52600002 4290820537
-0.047627229 -0.14116351 0.52700001 4290821305
-0.046803556 -0.14169835 0.52899998 4290887098
-0.045799166 -0.1416975 0.52899998 4291083709
-0.044794802 -0.14169665 0.52899998 4291017916
-0.043790456 -0.14169578 0.52899998 4290887348
-0.042786125 -0.14169498 0.52899998 4290887348
-0.041702844 -0.14142631 0.528 4290426034
-0.040623374 -0.14115766 0.52700001 4290688949
-0.039622903 -0.14115687 0.52700001 4290624180
-0.038622454 -0.14115611 0.52700001 4290492338
-0.037622027 -0.14115533 0.52700001 4290426547
-0.036621615 -0.14115459 0.52700001 4290492340
-0.035553634 -0.14088602 0.52600002 4290688688
-0.034555156 -0.14088529 0.52600002 4290754481
-0.033620499 -0.14115243 0.52700001 4290951859
-0.032620162 -0.14115173 0.52700001 4290688688
-0.031679839 -0.1414189 0.528 4290623410
-0.030735735 -0.14168607 0.52899998 4290623410
-0.029731654 -0.1416854 0.52899998 4290687920
-0.028727585 -0.14168477 0.52899998 4290687920
-0.027723532 -0.14168414 0.52899998 4290687666
-0.026719499 -0.14168353 0.52899998 4290687666
-0.02571548 -0.14168294 0.52899998 4290688167
-0.024711473 -0.14168237 0.52899998 4290688167
-0.023707483 -0.14168182 0.52899998 4290424748
-0.022703504 -0.14168125 0.52899998 4290819506
-0.02169954 -0.14168075 0.52899998 4290753452
-0.020734711 -0.14194806 0.52999997 4290621609
-0.019728871 -0.14194754 0.52999997 4290098084
-0.01872305 -0.14194708 0.52999997 4290032291
-0.017750666 -0.14221443 0.53100002 4290097834
-0.0167745 -0.14248182 0.53200001 4290097834
-0.015794545 -0.14274918 0.53299999 4290097582
-0.014810808 -0.14301656 0.53399998 4289965996
-0.013797446 -0.14301616 0.53399998 4289965994
0.015283939 -0.14997467 0.56 4289898656
0.016346533 -0.14997478 0.56 4289832863
0.017409131 -0.14997487 0.56 4289701541
0.01850472 -0.15024281 0.56099999 4289701541
0.019569222 -0.15024292 0.56099999 4289701791
0.020670513 -0.15051088 0.56199998 4289635998
0.021736927 -0.15051107 0.56199998 4289504932
0.02280334 -0.15051123 0.56199998 4289504932
-0.10195117 -0.14633417 0.55000001 4291346113
-0.10053867 -0.14580092 0.54799998 4291346113
-0.099315368 -0.14553371 0.54699999 4291477950
-0.098095909 -0.14526655 0.546 4291872707
-0.097058021 -0.14526539 0.546 4291544510
-0.095844314 -0.14499822 0.54500002 4291478717
-0.094634406 -0.14473103 0.54400003 4291281856
-0.093428344 -0.14446382 0.54299998 4291216062
-0.092226095 -0.14419663 0.542 4291151040
-0.091027685 -0.14392947 0.54100001 4291479748
-0.089833103 -0.14366226 0.54000002 4291413440
-0.088806786 -0.14366113 0.54000002 4291413440
-0.087943077 -0.14392602 0.54100001 4291412158
-0.086914919 -0.14392486 0.54100001 4291477952
-0.085251763 -0.14285961 0.537 4291347138
-0.084231265 -0.14285846 0.537 4291347138
-0.082900889 -0.14232527 0.53500003 4291478465
-0.081884228 -0.14232415 0.53500003 4291544258
-0.080867596 -0.14232302 0.53500003 4291347136
-0.079851009 -0.14232188 0.53500003 4291544258
-0.078687087 -0.14205474 0.53399998 4291347136
-0.077672444 -0.14205362 0.53399998 4291347136
-0.076514274 -0.1417865 0.53299999 4291347136
-0.075359926 -0.14151938 0.53200001 4291478465
-0.074349158 -0.14151827 0.53200001 4291151038
-0.073200569 -0.14125115 0.53100002 4291019451
-0.071919836 -0.14071804 0.52899998 4291018432
-0.070914842 -0.14071694 0.52899998 4291084481
-0.069909886 -0.14071588 0.52899998 4291149500
-0.068904959 -0.14071482 0.52899998 4291281342
-0.067900032 -0.14071375 0.52899998 4291084981
-0.066895157 -0.14071269 0.52899998 4291019188
-0.065890305 -0.14071164 0.52899998 4291215032
-0.065008119 -0.14097655 0.52999997 4291346617
-0.064001419 -0.14097555 0.52999997 4291215797
-0.062994733 -0.14097449 0.52999997 4291610555
-0.061871126 -0.14070751 0.52899998 4291018938
-0.060866389 -0.14070646 0.52899998 4291018938
-0.059861686 -0.14070545 0.52899998 4291018686
-0.058857005 -0.14070447 0.52899998 4291018686
-0.057524264 -0.13990554 0.52600002 4291149500
-0.056417864 -0.13963857 0.52499998 4291149500
-0.055420846 -0.1396376 0.52499998 4291149752
-0.054423861 -0.13963664 0.52499998 4291347388
-0.053426899 -0.13963571 0.52499998 4291017916
-0.052429959 -0.13963479 0.52499998 4291017916
-0.051433038 -0.13963383 0.52499998 4291083448
-0.05043615 -0.13963293 0.52499998 4291083448
-0.049439274 -0.13963202 0.52499998 4290886583
-0.048534691 -0.13989709 0.52600002 4290886583
-0.047626346 -0.14016217 0.52700001 4290886583
-0.046802685 -0.1406932 0.52899998 4290820789
-0.045798305 -0.14069234 0.52899998 4291083444
-0.044793952 -0.1406915 0.52899998 4291083444
-0.043872394 -0.14095658 0.52999997 4290887086
