# .PCD v0.7 - Point Cloud Data file format
VERSION 0.7
FIELDS x y z rgba
SIZE 4 4 4 4
TYPE F F F U
COUNT 1 1 1 1
WIDTH 1052
HEIGHT 1
VIEWPOINT 0 0 0 1 0 0 0
POINTS 1052
DATA ascii
0.041325055 0.035101112 0.583 4294967295
0.042430472 0.035101581 0.583 4294967295
0.05655757 0.035650209 0.59200001 4294967295
0.057680462 0.035650857 0.59200001 4294967295
-0.020877415 0.036760423 0.59200001 4294966519
-0.019755155 0.036760122 0.59200001 4294967291
-0.01866439 0.036821928 0.59299999 4294967291
-0.017540269 0.036821652 0.59299999 4294967291
-0.016388481 0.036759302 0.59200001 4294967034
-0.015266291 0.036759056 0.59200001 4294967034
-0.014120223 0.036696732 0.59100002 4294967034
-0.012955965 0.03657233 0.58899999 4294967293
-0.011819405 0.036510039 0.588 4294967293
-0.010686649 0.03644776 0.58700001 4294967291
-0.0095740035 0.036447588 0.58700001 4294967295
-0.008446957 0.036385335 0.58600003 4294967295
-0.0073362305 0.036385197 0.58600003 4294967294
-0.0062255119 0.036385063 0.58600003 4294967295
-0.0051148031 0.036384951 0.58600003 4294967295
-0.0039972696 0.036322754 0.58499998 4294967295
-0.0028884716 0.036322668 0.58499998 4294967295
-0.0017766375 0.036260508 0.58399999 4294967035
-0.00066859939 0.036198359 0.583 4294967295
0.0004356438 0.036136225 0.58200002 4294967295
0.0015360924 0.036074102 0.58099997 4294967295
0.0026372871 0.036074087 0.58099997 4294967295
0.0037384792 0.036074083 0.58099997 4294967295
0.0048313411 0.036012005 0.57999998 4294967295
0.005930637 0.036012031 0.57999998 4294967295
0.0070541748 0.036136255 0.58200002 4294967295
0.0081572635 0.036136303 0.58200002 4294967295
0.009196708 0.035888012 0.57800001 4294967295
0.010292221 0.035888091 0.57800001 4294967295
0.011368036 0.035826098 0.57700002 4294967295
0.012461661 0.035826206 0.57700002 4294967295
0.0135318 0.03576424 0.57599998 4294967295
0.014623541 0.035764378 0.57599998 4294967295
0.015742576 0.03582662 0.57700002 4294967295
0.01683623 0.035826787 0.57700002 4294967295
0.017929889 0.035826959 0.57700002 4294967295
0.019056531 0.035889246 0.57800001 4294967295
0.020152107 0.03588945 0.57800001 4294967295
0.021284457 0.03595176 0.579 4294967295
0.022381952 0.035951994 0.579 4294967295
0.023438908 0.035890147 0.57800001 4294967295
0.024534535 0.035890412 0.57800001 4294967295
0.02563018 0.035890687 0.57800001 4294967295
0.026772073 0.035953067 0.579 4294967295
0.02786964 0.035953369 0.579 4294967295
0.029017257 0.036015786 0.57999998 4294967295
0.03011675 0.036016107 0.57999998 4294967295
0.031216267 0.036016453 0.57999998 4294967295
0.032371521 0.036078908 0.58099997 4294967295
0.033530589 0.036141381 0.58200002 4294967295
0.034693461 0.036203865 0.583 4294967295
0.035798747 0.036204267 0.583 4294967295
0.036904056 0.036204681 0.583 4294967295
0.038074575 0.036267202 0.58399999 4294967295
0.03911474 0.036205541 0.583 4294967295
0.040220115 0.036205996 0.583 4294967295
0.041325517 0.036206458 0.583 4294967295
0.042358171 0.036144841 0.58200002 4294967295
0.043461733 0.036145329 0.58200002 4294967295
0.054129034 0.036647249 0.58999997 4294967295
0.055248063 0.036647882 0.58999997 4294967295
0.056462683 0.036710642 0.59100002 4294967295
0.057583682 0.036711298 0.59100002 4294967295
0.058704723 0.036711968 0.59100002 4294967295
0.0598258 0.036712646 0.59100002 4294967295
0.062488142 0.036962532 0.59500003 4294967295
0.063616917 0.036963254 0.59500003 4294967295
0.064745732 0.036963992 0.59500003 4294967295
-0.022000022 0.037883133 0.59200001 4294834932
-0.020877726 0.037882812 0.59200001 4294769139
-0.019755453 0.037882499 0.59200001 4294967290
-0.018633196 0.037882213 0.59200001 4294967291
-0.017510958 0.037881933 0.59200001 4294967033
-0.016361052 0.037817679 0.59100002 4294967291
-0.015214955 0.037753433 0.58999997 4294967035
-0.014072662 0.037689213 0.58899999 4294967035
-0.012934178 0.037625004 0.588 4294967291
-0.0118196 0.037624799 0.588 4294967291
-0.010686829 0.037560619 0.58700001 4294967291
-0.0095578609 0.037496459 0.58600003 4294967295
-0.0084471097 0.037496299 0.58600003 4294967295
-0.0073238481 0.037432164 0.58499998 4294967292
-0.0062150117 0.037432022 0.58499998 4294967294
-0.0051061846 0.037431911 0.58499998 4294967295
-0.0039905324 0.037367824 0.58399999 4294967295
-0.0028836154 0.037367739 0.58399999 4294967295
-0.0017736622 0.037303675 0.583 4294967295
-0.00066750485 0.03723963 0.58200002 4294967295
0.00043485712 0.037175599 0.58099997 4294967295
0.0015360685 0.037175566 0.58099997 4294967295
0.0026327381 0.037111562 0.57999998 4294967295
0.0037320494 0.037111558 0.57999998 4294967295
0.0048230295 0.037047584 0.579 4294967295
0.0059204441 0.037047606 0.579 4294967295
0.0070178593 0.037047651 0.579 4294967295
0.008087243 0.036919732 0.57700002 4294967295
0.0091649611 0.036855813 0.57599998 4294967295
0.010256696 0.036855899 0.57599998 4294967295
0.011348435 0.036855988 0.57599998 4294967295
0.01244018 0.0368561 0.57599998 4294967295
0.01353193 0.036856227 0.57599998 4294967295
0.014623685 0.036856364 0.57599998 4294967295
0.01571545 0.036856517 0.57599998 4294967295
0.016807219 0.036856685 0.57599998 4294967295
0.017930076 0.036920853 0.57700002 4294967295
0.019023759 0.036921047 0.57700002 4294967295
0.020117456 0.036921255 0.57700002 4294967295
0.02121116 0.036921483 0.57700002 4294967295
0.022304883 0.036921717 0.57700002 4294967295
0.023398614 0.036921971 0.57700002 4294967295
0.024492357 0.036922231 0.57700002 4294967295
0.025586119 0.036922511 0.57700002 4294967295
0.026726129 0.036986791 0.57800001 4294967295
0.02782182 0.036987107 0.57800001 4294967295
0.028967552 0.037051413 0.579 4294967295
0.030117095 0.037115742 0.57999998 4294967295
0.031216618 0.037116092 0.57999998 4294967295
0.032371882 0.037180442 0.58099997 4294967295
0.033530973 0.037244823 0.58200002 4294967295
0.03469386 0.037309211 0.583 4294967295
0.035799153 0.037309609 0.583 4294967295
0.036904477 0.037310034 0.583 4294967295
0.038075015 0.037374467 0.58399999 4294967295
0.039115194 0.037310913 0.583 4294967295
0.040220581 0.037311375 0.583 4294967295
0.041325998 0.037311848 0.583 4294967295
0.042358659 0.03724834 0.58200002 4294967295
0.043462232 0.037248839 0.58200002 4294967295
0.05412966 0.037766017 0.58999997 4294967295
0.055248715 0.037766665 0.58999997 4294967295
0.056463327 0.037831325 0.59100002 4294967295
0.057584345 0.037831992 0.59100002 4294967295
0.058705401 0.037832674 0.59100002 4294967295
0.059826493 0.03783337 0.59100002 4294967295
0.060947612 0.037834078 0.59100002 4294967295
0.062488876 0.038090866 0.59500003 4294967295
0.063617662 0.038091604 0.59500003 4294967295
0.064746484 0.038092352 0.59500003 4294967295
-0.023122687 0.03900592 0.59200001 4294769139
-0.022000356 0.039005578 0.59200001 4294769652
-0.020842779 0.038939357 0.59100002 4294637810
-0.019722385 0.038939044 0.59100002 4294966005
-0.018633485 0.039004631 0.59200001 4294966776
-0.017481653 0.038938474 0.59100002 4294899955
-0.016361315 0.038938198 0.59100002 4294966005
-0.015215199 0.038872056 0.58999997 4294966778
-0.014072891 0.038805924 0.58899999 4294967035
-0.012934394 0.038739815 0.588 4294967290
-0.0117997 0.038673729 0.58700001 4294967291
-0.010668808 0.038607646 0.58600003 4294967292
-0.0095417192 0.038541585 0.58499998 4294967294
-0.0084328484 0.038541418 0.58499998 4294967295
-0.0073239896 0.038541272 0.58499998 4294967295
-0.0062045148 0.038475256 0.58399999 4294967291
-0.0050975671 0.03847513 0.58399999 4294967293
-0.0039837966 0.038409151 0.583 4294967295
-0.0028787605 0.038409054 0.583 4294967295
-0.0017676454 0.038277213 0.58099997 4294967295
-0.00066641165 0.038277153 0.58099997 4294967295
0.00043406949 0.03821123 0.57999998 4294967295
0.0015333997 0.038211189 0.57999998 4294967295
0.0026281886 0.038145296 0.579 4294967295
0.0037256188 0.038145289 0.579 4294967295
0.0048147184 0.038079422 0.57800001 4294967295
0.0059102513 0.038079441 0.57800001 4294967295
0.0069936649 0.038013604 0.57700002 4294967295
0.0080873063 0.038013659 0.57700002 4294967295
0.0091650346 0.037947841 0.57599998 4294967295
0.010256787 0.03794793 0.57599998 4294967295
0.01134854 0.03794802 0.57599998 4294967295
0.012440299 0.037948135 0.57599998 4294967295
0.013532064 0.037948266 0.57599998 4294967295
0.014623832 0.037948407 0.57599998 4294967295
0.01571561 0.037948556 0.57599998 4294967295
0.016807396 0.037948728 0.57599998 4294967295
0.017930266 0.038014796 0.57700002 4294967295
0.019023966 0.038014993 0.57700002 4294967295
0.020117672 0.038015205 0.57700002 4294967295
0.021211395 0.038015429 0.57700002 4294967295
0.022305127 0.038015671 0.57700002 4294967295
0.023358319 0.037950039 0.57599998 4294967295
0.024450181 0.037950307 0.57599998 4294967295
0.025586406 0.038016479 0.57700002 4294967295
0.026680192 0.038016777 0.57700002 4294967295
0.027773999 0.038017087 0.57700002 4294967295
0.02886782 0.038017415 0.57700002 4294967295
0.03006551 0.038149528 0.579 4294967295
0.031216979 0.038215771 0.57999998 4294967295
0.032372255 0.038282033 0.58099997 4294967295
0.033473738 0.038282413 0.58099997 4294967295
0.03463475 0.038348705 0.58200002 4294967295
0.035738166 0.038349122 0.58200002 4294967295
0.036841612 0.03834955 0.58200002 4294967295
0.038010273 0.038415883 0.583 4294967295
0.039115649 0.038416337 0.583 4294967295
0.040152065 0.038350914 0.58200002 4294967295
0.041255593 0.038351383 0.58200002 4294967295
0.04228637 0.038285989 0.58099997 4294967295
0.043388069 0.0382865 0.58099997 4294967295
0.044489786 0.038287021 0.58099997 4294967295
0.045513056 0.038221657 0.57999998 4294967295
0.046612933 0.038222201 0.57999998 4294967295
0.047795102 0.038288664 0.58099997 4294967295
0.054130297 0.038884833 0.58999997 4294967295
0.055249359 0.038885485 0.58999997 4294967295
0.056368455 0.038886148 0.58999997 4294967295
0.057585027 0.038952738 0.59100002 4294967295
0.058606759 0.038887519 0.58999997 4294967295
0.059725959 0.038888223 0.58999997 4294967295
0.0608452 0.038888939 0.58999997 4294967295
0.062489599 0.039219242 0.59500003 4294967295
0.063618399 0.039219998 0.59500003 4294967295
0.064747237 0.039220754 0.59500003 4294967295
-0.027799211 0.040401109 0.59600002 4294374381
-0.026669195 0.040400691 0.59600002 4294834158
-0.023123039 0.040128414 0.59200001 4294966263
-0.021963529 0.040060282 0.59100002 4294769139
-0.020843102 0.040059943 0.59100002 4294242795
-0.019722695 0.040059626 0.59100002 4294768885
-0.018602304 0.040059321 0.59100002 4294834678
-0.01745235 0.039991245 0.58999997 4294899701
-0.016333891 0.039990973 0.58999997 4294966007
-0.015189658 0.039922934 0.58899999 4294966521
-0.014049235 0.03985491 0.588 4294966521
-0.012912617 0.039786898 0.58700001 4294966263
-0.011779802 0.039718915 0.58600003 4294967290
-0.010668997 0.039718714 0.58600003 4294967292
-0.0095255822 0.039582964 0.58399999 4294967292
-0.0084185926 0.0395828 0.58399999 4294967294
-0.0073116138 0.039582647 0.58399999 4294967294
-0.0061940197 0.039514724 0.583 4294967292
-0.0050889538 0.039514605 0.583 4294967291
-0.0039770626 0.039446723 0.58200002 4294967295
-0.0028689695 0.039378848 0.58099997 4294967295
-0.0017646728 0.039310992 0.57999998 4294967295
-0.00066531973 0.039310936 0.57999998 4294967295
0.000434029 0.03931088 0.57999998 4294967295
0.0015307303 0.039243072 0.579 4294967295
0.0026236381 0.039175276 0.57800001 4294967295
0.0037191883 0.039175276 0.57800001 4294967295
0.0048147361 0.039175276 0.57800001 4294967295
0.0059000594 0.039107528 0.57700002 4294967295
0.0069937129 0.039107576 0.57700002 4294967295
0.0080873668 0.039107624 0.57700002 4294967295
0.009165111 0.039039914 0.57599998 4294967295
0.010256875 0.039039992 0.57599998 4294967295
0.011348644 0.039040096 0.57599998 4294967295
0.012440418 0.039040212 0.57599998 4294967295
0.013508703 0.038972557 0.57499999 4294967295
0.014598593 0.038972706 0.57499999 4294967295
0.015715772 0.039040636 0.57599998 4294967295
0.016807571 0.039040804 0.57599998 4294967295
0.017899381 0.039040994 0.57599998 4294967295
0.0189912 0.039041195 0.57599998 4294967295
0.020083029 0.039041407 0.57599998 4294967295
0.021174865 0.039041635 0.57599998 4294967295
0.022266718 0.039041884 0.57599998 4294967295
0.023358583 0.039042141 0.57599998 4294967295
0.024450459 0.039042417 0.57599998 4294967295
0.02554235 0.039042704 0.57599998 4294967295
0.026634259 0.039043006 0.57599998 4294967295
0.027726181 0.039043318 0.57599998 4294967295
0.028868154 0.039111435 0.57700002 4294967295
0.030065859 0.039247353 0.579 4294967295
0.031217348 0.039315503 0.57999998 4294967295
0.032372639 0.039383661 0.58099997 4294967295
0.033474132 0.039384048 0.58099997 4294967295
0.03463516 0.039452244 0.58200002 4294967295
0.035738591 0.039452665 0.58200002 4294967295
0.036842048 0.0394531 0.58200002 4294967295
0.03794552 0.039453544 0.58200002 4294967295
0.039049014 0.039454002 0.58200002 4294967295
0.040083546 0.03938669 0.58099997 4294967295
0.041114312 0.039319385 0.57999998 4294967295
0.042214099 0.039319888 0.57999998 4294967295
0.043388575 0.039388191 0.58099997 4294967295
0.044413734 0.039320935 0.57999998 4294967295
0.045513604 0.039321478 0.57999998 4294967295
0.046613492 0.039322034 0.57999998 4294967295
0.047795676 0.0393904 0.58099997 4294967295
0.048897523 0.039390989 0.58099997 4294967295
0.053947452 0.039868087 0.588 4294967295
0.055062737 0.03986875 0.588 4294967295
0.05636913 0.040005028 0.58999997 4294967295
0.057390839 0.039937917 0.58899999 4294967295
0.058508128 0.039938614 0.58899999 4294967295
0.059726674 0.040007133 0.58999997 4294967295
0.060845934 0.040007867 0.58999997 4294967295
0.062385328 0.040279854 0.59399998 4294967295
0.063512243 0.040280618 0.59399998 4294967295
0.064639196 0.040281385 0.59399998 4294967295
0.065876901 0.040349994 0.59500003 4294967295
0.067343675 0.040554237 0.59799999 4294967295
0.068592854 0.040622868 0.59899998 4294967295
0.069729455 0.04062371 0.59899998 4294967295
-0.028929694 0.041531689 0.59600002 4294308588
-0.027752992 0.04146158 0.59500003 4294308588
-0.026624853 0.041461151 0.59500003 4294768369
-0.025411034 0.041321382 0.59299999 4294439404
-0.024286736 0.041320998 0.59299999 4294242795
-0.023123398 0.041250944 0.59200001 4294505710
-0.021963876 0.041180912 0.59100002 4294571506
-0.020843433 0.041180573 0.59100002 4294637299
-0.019723009 0.041180242 0.59100002 4294899955
-0.018602604 0.041179929 0.59100002 4294899955
-0.017452637 0.041109957 0.58999997 4294965748
-0.016334163 0.041109681 0.58999997 4294966005
-0.015189913 0.041039735 0.58899999 4294966005
-0.014049474 0.040969815 0.588 4294966263
-0.012912839 0.040899899 0.58700001 4294965748
-0.01178001 0.040830005 0.58600003 4294966005
-0.010650983 0.04076013 0.58499998 4294967292
-0.0095257582 0.040690269 0.58399999 4294967294
-0.0084043397 0.040620424 0.583 4294967294
-0.0072992407 0.040620267 0.583 4294967294
-0.0061835269 0.040550455 0.58200002 4294967294
-0.0050716121 0.040480644 0.58099997 4294967295
-0.0039703301 0.040480532 0.58099997 4294967295
-0.002864118 0.040410776 0.57999998 4294967295
-0.0017647443 0.040410694 0.57999998 4294967295
-0.00066422916 0.040340956 0.579 4294967295
0.0004332391 0.040340904 0.579 4294967295
0.0015280599 0.040271193 0.57800001 4294967295
0.0026236263 0.040271178 0.57800001 4294967295
0.0037127566 0.0402015 0.57700002 4294967295
0.004806424 0.040201508 0.57700002 4294967295
0.0059000915 0.040201534 0.57700002 4294967295
0.0069937604 0.040201582 0.57700002 4294967295
0.0080874301 0.04020163 0.57700002 4294967295
0.0091651892 0.040132023 0.57599998 4294967295
0.010256968 0.040132105 0.57599998 4294967295
0.011348751 0.04013221 0.57599998 4294967295
0.012440541 0.040132329 0.57599998 4294967295
0.01350884 0.040062785 0.57499999 4294967295
0.014598744 0.04006293 0.57499999 4294967295
0.015688654 0.040063083 0.57499999 4294967295
0.016807752 0.040132929 0.57599998 4294967295
0.017899577 0.040133119 0.57599998 4294967295
0.018991409 0.040133324 0.57599998 4294967295
0.020083254 0.040133547 0.57599998 4294967295
0.021175101 0.040133774 0.57599998 4294967295
0.022266971 0.04013402 0.57599998 4294967295
0.023318298 0.040064611 0.57499999 4294967295
0.024408294 0.04006489 0.57499999 4294967295
0.025498303 0.040065181 0.57499999 4294967295
0.026588328 0.040065482 0.57499999 4294967295
0.02767837 0.040065806 0.57499999 4294967295
0.028818456 0.040135816 0.57599998 4294967295
0.029910432 0.04013617 0.57599998 4294967295
0.031163896 0.040345583 0.579 4294967295
0.032317307 0.040415641 0.57999998 4294967295
0.033474531 0.040485725 0.58099997 4294967295
0.034576062 0.040486135 0.58099997 4294967295
0.035677612 0.040486556 0.58099997 4294967295
0.036779184 0.040486995 0.58099997 4294967295
0.037880775 0.040487453 0.58099997 4294967295
0.038915295 0.04041823 0.57999998 4294967295
0.040015046 0.040418718 0.57999998 4294967295
0.041043926 0.040349524 0.579 4294967295
0.042141829 0.040350039 0.579 4294967295
0.043314423 0.040420242 0.57999998 4294967295
0.044337705 0.040351093 0.579 4294967295
0.045435686 0.040351648 0.579 4294967295
0.046533696 0.040352218 0.579 4294967295
0.047631729 0.040352795 0.579 4294967295
0.048729796 0.040353384 0.579 4294967295
0.0498279 0.040353995 0.579 4294967295
0.051101938 0.040494006 0.58099997 4294967295
0.052203886 0.040494639 0.58099997 4294967295
0.053948108 0.040983185 0.588 4294967295
0.055063404 0.040983859 0.588 4294967295
0.056274284 0.041054253 0.58899999 4294967295
0.057391539 0.041054945 0.58899999 4294967295
0.058508851 0.041055661 0.58899999 4294967295
0.059727404 0.041126087 0.58999997 4294967295
0.060846679 0.041126832 0.58999997 4294967295
0.06207101 0.0411973 0.59100002 4294967295
0.063299164 0.041267775 0.59200001 4294967295
0.064531162 0.041338269 0.59299999 4294967295
0.065766983 0.04140877 0.59399998 4294967295
0.067119271 0.041549012 0.59600002 4294967295
0.068479173 0.041689266 0.59799999 4294967295
0.069730297 0.04175983 0.59899998 4294967295
-0.028833058 0.042518731 0.59399998 4294373611
-0.02766013 0.04244671 0.59299999 4294373611
-0.026535768 0.042446285 0.59299999 4294637036
-0.025368582 0.042374302 0.59200001 4294307814
-0.024246166 0.042373911 0.59200001 4294307814
-0.023123767 0.042373527 0.59200001 4294505449
-0.021964228 0.042301588 0.59100002 4294505458
-0.020843772 0.042301245 0.59100002 4294703094
-0.01972333 0.04230091 0.59100002 4294769139
-0.018571431 0.042229012 0.58999997 4294703090
-0.017423345 0.042157143 0.58899999 4294769139
-0.01630675 0.042156857 0.58899999 4294834932
-0.015190173 0.042156585 0.58899999 4294966519
-0.013978033 0.041870035 0.58499998 4294967291
-0.012869069 0.041869808 0.58499998 4294703094
-0.011740015 0.041798014 0.58399999 4294637301
-0.010632972 0.041797806 0.58399999 4294967035
-0.0095096286 0.041726053 0.583 4294967295
-0.0084045054 0.041725878 0.583 4294967295
-0.0072868704 0.041654151 0.58200002 4294967295
-0.0061836615 0.041654002 0.58200002 4294967294
-0.0050717308 0.041582298 0.58099997 4294967295
-0.0039636004 0.041510612 0.57999998 4294967295
-0.0028592681 0.041438952 0.579 4294967295
-0.0017587319 0.041367296 0.57800001 4294967295
-0.00066313962 0.041367233 0.57800001 4294967293
0.00043169997 0.04129561 0.57700002 4294967295
0.0015253888 0.041295573 0.57700002 4294967295
0.0026190747 0.041295562 0.57700002 4294967295
0.0037127591 0.041295554 0.57700002 4294967295
0.0048064422 0.041295566 0.57700002 4294967295
0.0059001246 0.041295588 0.57700002 4294967295
0.0069938079 0.041295629 0.57700002 4294967295
0.0080874935 0.041295689 0.57700002 4294967295
0.0091652656 0.041224185 0.57599998 4294967295
0.010257062 0.041224271 0.57599998 4294967295
0.01134886 0.041224375 0.57599998 4294967295
0.012440663 0.041224487 0.57599998 4294967295
0.013508976 0.041153051 0.57499999 4294967295
0.014598895 0.041153196 0.57499999 4294967293
0.015688822 0.04115336 0.57499999 4294967295
0.016778756 0.041153535 0.57499999 4294967295
0.0178687 0.041153722 0.57499999 4294967295
0.018991621 0.0412255 0.57599998 4294967295
0.02008348 0.041225728 0.57599998 4294967295
0.021175345 0.041225959 0.57599998 4294967295
0.022228573 0.041154645 0.57499999 4294967295
0.023278015 0.041083336 0.574 4294967295
0.024366129 0.041083612 0.574 4294967295
0.02545426 0.04108391 0.574 4294967295
0.026542405 0.041084222 0.574 4294967295
0.027630564 0.041084543 0.574 4294967295
0.02876878 0.04115646 0.57499999 4294967295
0.029858865 0.041156817 0.57499999 4294967295
0.031056622 0.041300341 0.57700002 4294967295
0.032261979 0.041443884 0.579 4294967295
0.033417325 0.041515864 0.57999998 4294967295
0.034516972 0.041516278 0.57999998 4294967295
0.035555232 0.041445136 0.579 4294967295
0.036653034 0.041445579 0.579 4294967295
0.037750844 0.041446041 0.579 4294967295
0.038848683 0.041446514 0.579 4294967295
0.039946541 0.041447002 0.579 4294967295
0.041044436 0.041447509 0.579 4294967295
0.042142347 0.041448027 0.579 4294967295
0.043314971 0.041520137 0.57999998 4294967295
0.044338256 0.041449104 0.579 4294967295
0.045436248 0.041449666 0.579 4294967295
0.046534274 0.04145024 0.579 4294967295
0.047632322 0.041450825 0.579 4294967295
0.048730399 0.041451424 0.579 4294967295
0.049828511 0.041452046 0.579 4294967295
0.051014613 0.041524269 0.57999998 4294967295
0.052114684 0.041524913 0.57999998 4294967295
0.053306531 0.041597165 0.58099997 4294967295
0.054689508 0.041812632 0.58399999 4294967295
0.055892807 0.041884925 0.58499998 4294967295
0.057099938 0.041957229 0.58600003 4294967295
0.058211558 0.041957945 0.58600003 4294967295
0.059525672 0.042101886 0.588 4294967295
0.060744297 0.042174246 0.58899999 4294967295
0.061966736 0.042246606 0.58999997 4294967295
0.063086092 0.042247389 0.58999997 4294967295
0.064314306 0.042319793 0.59100002 4294967295
0.065546356 0.042392209 0.59200001 4294967295
0.066782244 0.042464644 0.59299999 4294967295
0.068480015 0.042823534 0.59799999 4294967295
-0.032375243 0.043867063 0.597 4293847267
-0.03119085 0.04379309 0.59600002 4294044646
-0.030010268 0.043719128 0.59500003 4293978853
-0.028784968 0.043571711 0.59299999 4293715682
-0.027660567 0.04357126 0.59299999 4294307818
-0.026536191 0.043570831 0.59299999 4294637297
-0.025368983 0.043496933 0.59200001 4294242795
-0.024246553 0.043496531 0.59200001 4294373609
-0.023085082 0.043422677 0.59100002 4294439402
-0.021964585 0.043422312 0.59100002 4294373611
-0.02080884 0.04334848 0.58999997 4294505197
-0.019690281 0.043348145 0.58999997 4294966776
-0.018571742 0.043347821 0.58999997 4294834162
-0.017423639 0.043274052 0.58899999 4294637297
-0.01630703 0.043273758 0.58899999 4294769139
-0.015061484 0.042906135 0.58399999 4294966519
-0.013954385 0.042905882 0.58399999 4294966261
-0.012825303 0.04283217 0.583 4294505458
-0.011720126 0.04283195 0.583 4294703094
-0.010614964 0.042831741 0.583 4294966776
-0.0095098121 0.04283154 0.583 4294967290
-0.0083758412 0.042684428 0.58099997 4294967293
-0.007274502 0.042684268 0.58099997 4294967293
-0.0061625484 0.04261066 0.57999998 4294967294
-0.0050543938 0.04253706 0.579 4294967293
-0.003956872 0.042536944 0.579 4294967292
-0.0028544196 0.042463385 0.57800001 4294967292
-0.0017588068 0.042463299 0.57800001 4294967293
-0.00066205155 0.042389765 0.57700002 4294967034
0.0004316562 0.042389713 0.57700002 4294966780
0.0015253604 0.04238968 0.57700002 4294967295
0.0026145226 0.042316187 0.57599998 4294967295
0.0037063262 0.04231618 0.57599998 4294967295
0.0047981297 0.042316187 0.57599998 4294967295
0.0059001576 0.042389687 0.57700002 4294967295
0.0069938558 0.042389721 0.57700002 4294967293
0.0080875559 0.04238978 0.57700002 4294967295
0.0091653448 0.042316381 0.57599998 4294967295
0.010257157 0.04231647 0.57599998 4294967295
0.011348967 0.042316575 0.57599998 4294967295
0.012440787 0.04231669 0.57599998 4294967295
0.013509116 0.042243358 0.57499999 4294967295
0.014599049 0.042243503 0.57499999 4294967295
0.015688991 0.042243671 0.57499999 4294967295
0.01677894 0.042243849 0.57499999 4294967295
0.017868901 0.042244047 0.57499999 4294967295
0.018991835 0.042317715 0.57599998 4294967295
0.020048842 0.042244479 0.57499999 4294967295
0.02113883 0.042244721 0.57499999 4294967295
0.022190172 0.042171504 0.574 4294967295
0.02327829 0.042171773 0.574 4294967295
0.02436642 0.042172059 0.574 4294967295
0.025410218 0.042098891 0.57300001 4294967295
0.026496483 0.0420992 0.57300001 4294967295
0.027582765 0.042099535 0.57300001 4294967295
0.028669059 0.042099874 0.57300001 4294967295
0.029755371 0.04210024 0.57300001 4294967295
0.030841701 0.042100605 0.57300001 4294967295
0.03198377 0.042174473 0.574 4294967295
0.033244889 0.042395301 0.57700002 4294967295
0.034338865 0.042395726 0.57700002 4294967295
0.035432857 0.042396162 0.57700002 4294967295
0.036526877 0.042396612 0.57700002 4294967295
0.037620913 0.042397078 0.57700002 4294967295
0.038782068 0.04247104 0.57800001 4294967295
0.039878052 0.042471528 0.57800001 4294967295
0.040974066 0.04247205 0.57800001 4294967295
0.042070087 0.042472567 0.57800001 4294967295
0.04324083 0.042546585 0.579 4294967295
0.044338811 0.042547144 0.579 4294967295
0.045436818 0.042547718 0.579 4294967295
0.046534859 0.042548299 0.579 4294967295
0.047632921 0.042548895 0.579 4294967295
0.048815176 0.042622991 0.57999998 4294967295
0.049915202 0.04262362 0.57999998 4294967295
0.051015254 0.042624261 0.57999998 4294967295
0.05211534 0.042624921 0.57999998 4294967295
0.053215455 0.042625595 0.57999998 4294967295
0.054596554 0.042846762 0.583 4294967295
0.055797961 0.042920951 0.58399999 4294967295
0.057003208 0.042995159 0.58499998 4294967295
0.058112945 0.042995896 0.58499998 4294967295
0.059526425 0.043217134 0.588 4294967295
0.060745057 0.043291394 0.58899999 4294967295
0.061862499 0.043292176 0.58899999 4294967295
0.06308689 0.043366466 0.58999997 4294967295
0.064206295 0.043367274 0.58999997 4294967295
0.06543646 0.043441597 0.59100002 4294967295
0.066670462 0.043515943 0.59200001 4294967295
-0.034814071 0.045226477 0.60000002 4293782242
-0.033620112 0.045150556 0.59899998 4293715682
-0.032375753 0.044999283 0.597 4293847267
-0.031191342 0.044923402 0.59600002 4294110439
-0.029960303 0.044772159 0.59399998 4294110439
-0.02878543 0.044696316 0.59299999 4294045159
-0.027614368 0.044620495 0.59200001 4294176746
-0.026491867 0.044620048 0.59200001 4294242795
-0.025326544 0.044544257 0.59100002 4294176746
-0.024165031 0.044468477 0.58999997 4294373611
-0.023046397 0.044468086 0.58999997 4294505197
-0.02196495 0.04454308 0.59100002 4294242795
-0.020809188 0.044467352 0.58999997 4294110953
-0.019690616 0.044467006 0.58999997 4294768369
-0.018572059 0.044466678 0.58999997 4294768369
-0.017335193 0.044164903 0.58600003 4294703090
-0.016196569 0.044089247 0.58499998 4294703090
-0.015061752 0.044013597 0.58399999 4294834162
-0.013954636 0.044013336 0.58399999 4294965748
-0.012825537 0.043937735 0.583 4294966776
-0.011720345 0.043937504 0.583 4294966776
-0.010615169 0.043937296 0.583 4294966519
-0.0095100002 0.043937091 0.583 4294967290
-0.0083760116 0.043786179 0.58099997 4294967290
-0.0072621363 0.043710653 0.57999998 4294966261
-0.0061520622 0.043635145 0.579 4294966267
-0.0050545167 0.043635011 0.579 4294967294
-0.0039501465 0.043559533 0.57800001 4294900987
-0.0028545121 0.043559432 0.57800001 4294835193
-0.0017558401 0.04348398 0.57700002 4294967292
-0.00066211238 0.043483917 0.57700002 4294967034
0.00043161112 0.043483857 0.57700002 4294966780
0.0015253308 0.043483824 0.57700002 4294967295
0.0026145086 0.043408435 0.57599998 4294967295
0.0037063286 0.043408431 0.57599998 4294967295
0.004798146 0.043408439 0.57599998 4294967294
0.0058899648 0.043408465 0.57599998 4294967293
0.006981784 0.043408509 0.57599998 4294967293
0.0080736037 0.043408565 0.57599998 4294967295
0.0091495123 0.043333277 0.57499999 4294967292
0.010221636 0.043258004 0.574 4294966778
0.01128997 0.043182746 0.57300001 4294967295
0.012376118 0.043182861 0.57300001 4294967295
0.013485764 0.043258354 0.574 4294967295
0.014573818 0.043258503 0.574 4294967295
0.015661879 0.043258671 0.574 4294967295
0.016720766 0.043183487 0.57300001 4294967295
0.017806949 0.043183681 0.57300001 4294967295
0.018893139 0.043183897 0.57300001 4294967295
0.019979339 0.04318412 0.57300001 4294967295
0.021065554 0.043184374 0.57300001 4294967295
0.022151779 0.043184627 0.57300001 4294967295
0.023238016 0.043184903 0.57300001 4294967295
0.024324264 0.043185186 0.57300001 4294967295
0.025366187 0.043110128 0.57200003 4294967295
0.026450565 0.043110445 0.57200003 4294967295
0.027583105 0.043186147 0.57300001 4294967295
0.028669413 0.043186489 0.57300001 4294967295
0.029755743 0.043186858 0.57300001 4294967295
0.03084209 0.043187238 0.57300001 4294967295
0.031984173 0.043263007 0.574 4294967295
0.033245306 0.043489527 0.57700002 4294967295
0.034339294 0.043489955 0.57700002 4294967295
0.035433304 0.043490402 0.57700002 4294967295
0.036527343 0.043490864 0.57700002 4294967295
0.037621386 0.04349133 0.57700002 4294967295
0.038715467 0.043491818 0.57700002 4294967295
0.039809566 0.043492325 0.57700002 4294967295
0.040903687 0.043492842 0.57700002 4294967295
0.041997842 0.043493375 0.57700002 4294967295
0.04316669 0.043569293 0.57800001 4294967295
0.04433937 0.043645233 0.579 4294967295
0.045437399 0.043645818 0.579 4294967295
0.046535458 0.043646406 0.579 4294967295
0.047633532 0.043647017 0.579 4294967295
0.048731644 0.043647636 0.579 4294967295
0.049829781 0.043648276 0.579 4294967295
0.051015906 0.04372431 0.57999998 4294967295
0.052116007 0.043724973 0.57999998 4294967295
0.053216141 0.043725658 0.57999998 4294967295
0.054503601 0.043877136 0.58200002 4294967295
0.05579868 0.044028629 0.58399999 4294967295
0.057003938 0.044104747 0.58499998 4294967295
0.058113694 0.044105485 0.58499998 4294967295
0.059527189 0.04433243 0.588 4294967295
0.060642704 0.044333208 0.588 4294967295
0.061863285 0.044409383 0.58899999 4294967295
0.062980764 0.044410188 0.58899999 4294967295
0.064207114 0.044486411 0.58999997 4294967295
0.065326564 0.044487238 0.58999997 4294967295
0.066446073 0.044488091 0.58999997 4294967295
-0.034756597 0.046287175 0.59899998 4293650404
-0.033508394 0.04613208 0.597 4293715682
-0.032322042 0.046054285 0.59600002 4293978853
-0.031139506 0.045976494 0.59500003 4294110953
-0.029910354 0.045821454 0.59299999 4294110953
-0.028737351 0.045743704 0.59200001 4294176746
-0.027568169 0.045665972 0.59100002 4294242795
-0.026447557 0.045665529 0.59100002 4294242795
-0.025326965 0.0456651 0.59100002 4294242795
-0.024165438 0.045587417 0.58999997 4294374127
-0.023046786 0.045587022 0.58999997 4294505712
-0.021965323 0.045663908 0.59100002 4294374127
-0.020844812 0.045663536 0.59100002 4294242541
-0.01942396 0.044967808 0.58200002 4294570990
-0.01838351 0.045122005 0.58399999 4294834162
-0.01727633 0.045121688 0.58399999 4294965748
-0.016169168 0.04512139 0.58399999 4294834162
-0.015062025 0.045121115 0.58399999 4294768369
-0.013930998 0.045043584 0.583 4294965748
-0.012825778 0.045043342 0.583 4294967295
-0.01168036 0.044888578 0.58099997 4294966009
-0.010578956 0.044888359 0.58099997 4294505712
-0.009493879 0.044965427 0.58200002 4294967035
-0.0083617698 0.04481072 0.57999998 4294967292
-0.007249773 0.044733286 0.579 4294966776
-0.0061415792 0.044655886 0.57800001 4294833908
-0.0050459132 0.044655748 0.57800001 4294966007
-0.0039434219 0.044578373 0.57700002 4294835191
-0.0028447281 0.044501003 0.57599998 4294769398
-0.0017528747 0.044500917 0.57599998 4294967295
-0.00066102669 0.044500846 0.57599998 4294967291
0.00043081693 0.044500794 0.57599998 4294768885
0.0015226569 0.044500757 0.57599998 4294967292
0.0026144942 0.044500731 0.57599998 4294967293
0.0037063297 0.044500723 0.57599998 4294967293
0.0047981641 0.044500735 0.57599998 4294967293
0.0058797728 0.044423502 0.57499999 4294967292
0.0069697099 0.044423539 0.57499999 4294967035
0.0080736689 0.044500858 0.57599998 4294967292
0.0091495933 0.044423673 0.57499999 4294967292
0.010203925 0.044269253 0.57300001 4294967292
0.011270379 0.044192098 0.57200003 4294967295
0.012354646 0.044192214 0.57200003 4294967295
0.013438919 0.044192348 0.57200003 4294967295
0.014573976 0.044347014 0.574 4294967295
0.01563477 0.044269931 0.57300001 4294967295
0.016691776 0.044192847 0.57200003 4294967295
0.017776079 0.044193048 0.57200003 4294967295
0.018860389 0.04419326 0.57200003 4294967295
0.019944711 0.044193491 0.57200003 4294967295
0.02102904 0.044193741 0.57200003 4294967295
0.022113387 0.044193998 0.57200003 4294967295
0.023197744 0.044194277 0.57200003 4294967295
0.024282113 0.044194564 0.57200003 4294967295
0.025366491 0.04419487 0.57200003 4294967295
0.026450893 0.044195194 0.57200003 4294967295
0.027535308 0.044195537 0.57200003 4294967295
0.02861974 0.04419589 0.57200003 4294967295
0.029756119 0.044273529 0.57300001 4294967295
0.030842477 0.044273913 0.57300001 4294967295
0.031928856 0.044274315 0.57300001 4294967295
0.033015259 0.044274729 0.57300001 4294967295
0.034101676 0.044275161 0.57300001 4294967295
0.03518812 0.044275608 0.57300001 4294967295
0.036527805 0.044585153 0.57700002 4294967295
0.037621871 0.044585627 0.57700002 4294967295
0.038648862 0.044508852 0.57599998 4294967295
0.039741084 0.044509359 0.57599998 4294967295
0.040833324 0.044509888 0.57599998 4294967295
0.041998386 0.044587698 0.57700002 4294967295
0.043092571 0.044588253 0.57700002 4294967295
0.04426337 0.044666097 0.57800001 4294967295
0.045437992 0.044743963 0.579 4294967295
0.046536058 0.044744562 0.579 4294967295
0.047634151 0.044745181 0.579 4294967295
0.048732273 0.044745814 0.579 4294967295
0.049830429 0.044746459 0.579 4294967295
0.051016573 0.044824399 0.57999998 4294967295
0.052116685 0.044825077 0.57999998 4294967295
0.053216822 0.044825766 0.57999998 4294967295
0.054410655 0.044903759 0.58099997 4294967295
0.055608306 0.044981766 0.58200002 4294967295
0.05680979 0.045059793 0.583 4294967295
0.058015112 0.045137838 0.58399999 4294967295
0.059527967 0.045447771 0.588 4294967295
0.060643487 0.04544856 0.588 4294967295
0.061864085 0.045526654 0.58899999 4294967295
0.062981583 0.045527462 0.58899999 4294967295
0.064099111 0.045528296 0.58899999 4294967295
0.06521669 0.045529138 0.58899999 4294967295
0.066446915 0.045607291 0.58999997 4294967295
-0.037090983 0.047503635 0.60000002 4293189589
-0.035953067 0.047503047 0.60000002 4293649636
-0.034757152 0.047423296 0.59899998 4293583843
-0.033508934 0.047264397 0.597 4293518050
-0.032322563 0.047184695 0.59600002 4294044394
-0.031140015 0.047104996 0.59500003 4294176233
-0.029860405 0.046866987 0.59200001 4294373611
-0.028689284 0.046787344 0.59100002 4294242795
-0.027521977 0.046707697 0.58999997 4294637297
-0.026403246 0.04670725 0.58999997 4294374381
-0.02524168 0.046627652 0.58899999 4294374381
-0.024083925 0.046548065 0.588 4294374129
-0.022969052 0.046547666 0.588 4294374129
-0.021668361 0.046151478 0.583 4294374381
-0.020527735 0.046071939 0.58200002 4294374381
-0.019424299 0.046071593 0.58200002 4294505197
-0.018352356 0.046150412 0.583 4294439404
-0.017247055 0.046150092 0.583 4294571504
-0.016141774 0.046149794 0.583 4294505710
-0.015036507 0.0461495 0.583 4294636784
-0.013907361 0.046070084 0.58200002 4294768369
-0.01278202 0.045990665 0.58099997 4294966011
-0.011660481 0.045911271 0.57999998 4294768633
-0.010560959 0.045911051 0.57999998 4294571252
-0.0094614457 0.045910846 0.57999998 4294966009
-0.008347529 0.045831509 0.579 4294966521
-0.0072374125 0.045752183 0.57800001 4294966263
-0.0061310972 0.045672871 0.57700002 4294966521
-0.0050373115 0.045672737 0.57700002 4294966521
-0.0039366991 0.045593455 0.57599998 4294835191
-0.0028398852 0.0455142 0.57499999 4294703605
-0.0017499112 0.045514114 0.57499999 4294901239
-0.00065879477 0.045434885 0.574 4294967289
0.00042927387 0.045434829 0.574 4294834678
0.0015173389 0.045434784 0.574 4294966263
0.0026099402 0.045513917 0.57499999 4294834932
0.0036998959 0.045513909 0.57499999 4294834932
0.0047898516 0.045513917 0.57499999 4294966521
0.0058695809 0.045434799 0.574 4294834678
0.0069576385 0.045434829 0.574 4294967290
0.0080737332 0.045593195 0.57599998 4294967290
0.0091655878 0.045593273 0.57599998 4294967294
0.010204022 0.045355897 0.57300001 4294967295
0.011231084 0.045118537 0.56999999 4294967294
0.012311574 0.045118652 0.56999999 4294967295
0.013439062 0.045277104 0.57200003 4294967295
0.014523356 0.045277257 0.57200003 4294967295
0.015634947 0.045356587 0.57300001 4294967294
0.016691968 0.045277622 0.57200003 4294967295
0.017776286 0.045277819 0.57200003 4294967295
0.018860612 0.045278035 0.57200003 4294967295
0.019910082 0.045199111 0.57099998 4294967295
0.020992531 0.045199353 0.57099998 4294967295
0.022113658 0.04527878 0.57200003 4294967295
0.023198033 0.045279063 0.57200003 4294967295
0.024282414 0.045279358 0.57200003 4294967295
0.025322462 0.045200501 0.57099998 4294967295
0.026404982 0.045200832 0.57099998 4294967295
0.02753566 0.045280345 0.57200003 4294967295
0.028620102 0.045280702 0.57200003 4294967295
0.029704565 0.045281075 0.57200003 4294967295
0.030627565 0.045043971 0.56900001 4294967295
0.031929266 0.045361027 0.57300001 4294967295
0.033015687 0.045361463 0.57300001 4294967295
0.03410212 0.045361895 0.57300001 4294967295
0.035188574 0.045362342 0.57300001 4294967295
0.036528278 0.04567948 0.57700002 4294967295
0.037491959 0.045521632 0.57499999 4294967295
0.038582269 0.045522131 0.57499999 4294967295
0.039741598 0.045601819 0.57599998 4294967295
0.040833868 0.045602355 0.57599998 4294967295
0.041926138 0.045602895 0.57599998 4294967295
0.043018449 0.045603462 0.57599998 4294967295
0.044263951 0.045762386 0.57800001 4294967295
0.04543858 0.045842148 0.579 4294967295
0.046536669 0.045842767 0.579 4294967295
0.04763478 0.045843393 0.579 4294967295
0.048732918 0.045844033 0.579 4294967295
0.049831077 0.045844682 0.579 4294967295
0.051017243 0.045924533 0.57999998 4294967295
0.052117378 0.045925226 0.57999998 4294967295
0.053217538 0.045925926 0.57999998 4294967295
0.054317724 0.045926638 0.57999998 4294967295
0.05551349 0.046006545 0.58099997 4294967295
0.056810539 0.046165667 0.583 4294967295
0.058015868 0.046245616 0.58399999 4294967295
0.059225027 0.046325583 0.58499998 4294967295
0.060747426 0.046643138 0.58899999 4294967295
0.06175987 0.046564769 0.588 4294967295
0.062875479 0.046565592 0.588 4294967295
0.06409996 0.046645623 0.58899999 4294967295
0.06521754 0.046646476 0.58899999 4294967295
0.066335171 0.046647348 0.58899999 4294967295
0.067452833 0.046648227 0.58899999 4294967295
-0.037091587 0.048641723 0.60000002 4293715165
-0.035893727 0.048560053 0.59899998 4294241255
-0.034757726 0.048559472 0.59899998 4293912547
-0.033509489 0.048396774 0.597 4293452509
-0.032323103 0.04831516 0.59600002 4293978853
-0.031088194 0.048152491 0.59399998 4293978853
-0.029810462 0.04790879 0.59100002 4294110439
-0.028641222 0.047827233 0.58999997 4293848037
-0.027475795 0.047745693 0.58899999 4294110953
-0.02635894 0.047745235 0.58899999 4294110955
-0.025199257 0.047663737 0.588 4294242541
-0.024043379 0.047582243 0.58700001 4294242543
-0.022930386 0.047581833 0.58700001 4294242543
-0.02166874 0.047257207 0.583 4294439404
-0.020528095 0.047175776 0.58200002 4294439404
-0.019424645 0.047175426 0.58200002 4294308586
-0.018352685 0.047256142 0.583 4294308586
-0.017217785 0.047174763 0.58200002 4294768369
-0.016114384 0.047174454 0.58200002 4294636784
-0.014985203 0.047093108 0.58099997 4294768367
-0.013883727 0.047092833 0.58099997 4294768367
-0.012760266 0.047011524 0.57999998 4294176496
-0.011660711 0.047011275 0.57999998 4294571254
-0.010561171 0.047011055 0.57999998 4294571252
-0.0094616441 0.047010854 0.57999998 4294703094
-0.0083332928 0.046848558 0.57800001 4294506483
-0.0072250543 0.046767332 0.57700002 4294440690
-0.0061312448 0.046767175 0.57700002 4294835191
-0.0050287116 0.046685979 0.57599998 4294901241
-0.0039299787 0.046604808 0.57499999 4294835445
-0.0028350432 0.046523646 0.574 4294769652
-0.0017469488 0.046523556 0.574 4294769139
-0.00065771159 0.04644243 0.57300001 4294966261
0.00042847771 0.046442375 0.57300001 4294966261
0.0015146633 0.046442334 0.57300001 4294966261
0.0026008461 0.046442308 0.57300001 4294966261
0.0036870276 0.0464423 0.57300001 4294966776
0.0047732075 0.046442308 0.57300001 4294967033
0.0058593871 0.046442337 0.57300001 4294966519
0.0069334451 0.046361327 0.57200003 4294967291
0.0080177309 0.046361383 0.57200003 4294967033
0.0091020204 0.046361458 0.57200003 4294966780
0.010132885 0.046118394 0.56900001 4294967295
0.011211494 0.046118502 0.56900001 4294967293
0.012268508 0.04603757 0.56800002 4294967295
0.013345226 0.046037704 0.56800002 4294967295
0.014421954 0.046037856 0.56800002 4294967295
0.015525978 0.046119086 0.56900001 4294966521
0.016633796 0.046200328 0.56999999 4294967293
0.01771434 0.046200525 0.56999999 4294967295
0.018860837 0.046362855 0.57200003 4294967295
0.019875454 0.046200983 0.56999999 4294967295
0.020956023 0.046201237 0.56999999 4294967295
0.02203661 0.046201497 0.56999999 4294967295
0.023157759 0.046282839 0.57099998 4294967295
0.024282718 0.046364196 0.57200003 4294967295
0.025322787 0.04628345 0.57099998 4294967295
0.026405318 0.046283782 0.57099998 4294967295
0.027487874 0.046284132 0.57099998 4294967295
0.028620472 0.046365555 0.57200003 4294967295
0.029704954 0.046365939 0.57200003 4294967295
0.030627966 0.046123147 0.56900001 4294967295
0.031706788 0.046123561 0.56900001 4294967295
0.032843258 0.046205044 0.56999999 4294967295
0.033924017 0.046205491 0.56999999 4294967295
0.035004798 0.046205945 0.56999999 4294967295
0.036085609 0.046206422 0.56999999 4294967295
0.03742725 0.046531167 0.574 4294967295
0.03844858 0.046450611 0.57300001 4294967295
0.039535139 0.046451129 0.57300001 4294967295
0.040621728 0.046451665 0.57300001 4294967295
0.041781124 0.046533287 0.574 4294967295
0.042869661 0.04653386 0.574 4294967295
0.043958213 0.046534434 0.574 4294967295
0.045360714 0.046859324 0.57800001 4294967295
0.046456918 0.046859946 0.57800001 4294967295
0.047553144 0.046860576 0.57800001 4294967295
0.048649404 0.046861228 0.57800001 4294967295
0.049831752 0.046942964 0.579 4294967295
0.051017929 0.047024719 0.57999998 4294967295
0.051938362 0.046863262 0.57800001 4294967295
0.053034734 0.046863962 0.57800001 4294967295
0.054131147 0.046864692 0.57800001 4294967295
0.055418685 0.047027588 0.57999998 4294967295
0.056616407 0.047109425 0.58099997 4294967295
0.058016647 0.04735345 0.58399999 4294967295
0.059225816 0.047435328 0.58499998 4294967295
0.060748227 0.047760479 0.58899999 4294967295
0.06176069 0.047680221 0.588 4294967295
0.062876314 0.047681056 0.588 4294967295
0.063991986 0.047681913 0.588 4294967295
0.065107688 0.047682773 0.588 4294967295
0.066223435 0.047683656 0.588 4294967295
0.067339212 0.047684554 0.588 4294967295
0.068455033 0.047685456 0.588 4294967295
-0.038166463 0.049697518 0.59899998 4293452509
-0.037030376 0.049696896 0.59899998 4293452509
-0.035894331 0.049696293 0.59899998 4293847263
-0.034700278 0.049612734 0.59799999 4293913056
-0.033453919 0.049446229 0.59600002 4293715682
-0.032323644 0.049445674 0.59600002 4293913060
-0.030984044 0.049113285 0.59200001 4293978853
-0.029710084 0.04886388 0.58899999 4294110439
-0.02859316 0.048863374 0.58899999 4293979112
-0.02742962 0.048779938 0.588 4293979112
-0.026314644 0.048779473 0.588 4294110955
-0.025199695 0.048779026 0.588 4294242541
-0.024002843 0.04861268 0.58600003 4294110955
-0.022852663 0.048529312 0.58499998 4294045161
-0.021669125 0.048363 0.583 4294308588
-0.020563737 0.04836262 0.583 4294242795
-0.019458372 0.048362263 0.583 4294242791
-0.01832154 0.048278958 0.58200002 4294242791
-0.017218104 0.048278626 0.58200002 4294571504
-0.016114684 0.048278317 0.58200002 4294637297
-0.014985486 0.048195068 0.58099997 4294571758
-0.013883993 0.048194785 0.58099997 4294637551
-0.012760515 0.048111577 0.57999998 4294637299
-0.011660946 0.048111331 0.57999998 4294637299
-0.01052497 0.047945209 0.57800001 4294571252
-0.0094292173 0.047944997 0.57800001 4294505458
-0.0083190585 0.047861855 0.57700002 4294505458
-0.007225222 0.047861684 0.57700002 4294374129
-0.006120767 0.047778565 0.57599998 4294506483
-0.0050288443 0.047778424 0.57599998 4294835191
-0.0039300942 0.04769535 0.57499999 4294769652
-0.0028351424 0.047612295 0.574 4294703603
-0.0017439879 0.047529254 0.57300001 4294703344
-0.00065777765 0.04752918 0.57300001 4294834930
0.00042842823 0.047529124 0.57300001 4294965748
0.0015146303 0.047529075 0.57300001 4294965748
0.0026008296 0.047529049 0.57300001 4294834932
0.0036870276 0.047529049 0.57300001 4294967033
0.0047648936 0.047446113 0.57200003 4294966776
0.0058491947 0.047446135 0.57200003 4294703090
0.0069334954 0.047446176 0.57200003 4294768885
0.0080037797 0.047363285 0.57099998 4294834678
0.0090702744 0.047280405 0.56999999 4294967295
0.010132985 0.047197551 0.56900001 4294967295
0.011211609 0.047197662 0.56900001 4294967295
0.012268639 0.047114842 0.56800002 4294967295
0.013345375 0.047114976 0.56800002 4294967295
0.014422119 0.047115128 0.56800002 4294967295
0.015526156 0.047198255 0.56900001 4294967295
0.016604809 0.047198441 0.56900001 4294967295
0.017683474 0.047198649 0.56900001 4294967295
0.018762145 0.047198869 0.56900001 4294967295
0.019840827 0.047199108 0.56900001 4294967295
0.020956283 0.047282308 0.56999999 4294967295
0.022036886 0.047282577 0.56999999 4294967295
0.023117499 0.047282875 0.56999999 4294967295
0.024198124 0.047283176 0.56999999 4294967295
0.025278766 0.047283493 0.56999999 4294967295
0.026359418 0.047283828 0.56999999 4294967295
0.027488228 0.047367133 0.57099998 4294967295
0.028620847 0.04745046 0.57200003 4294967295
0.029549545 0.047201976 0.56900001 4294967295
0.030574538 0.04711942 0.56800002 4294967295
0.031651489 0.047119841 0.56800002 4294967295
0.032786075 0.047203224 0.56900001 4294967295
0.033864956 0.047203671 0.56900001 4294967295
0.034943856 0.047204133 0.56900001 4294967295
0.036022782 0.047204606 0.56900001 4294967295
0.037427753 0.047619913 0.574 4294967295
0.038449101 0.047537465 0.57300001 4294967295
0.039535671 0.047537994 0.57300001 4294967295
0.040622279 0.047538538 0.57300001 4294967295
0.041708905 0.0475391 0.57300001 4294967295
0.04279555 0.047539674 0.57300001 4294967295
0.04380564 0.047457293 0.57200003 4294967295
0.044890448 0.047457896 0.57200003 4294967295
0.046457548 0.04795634 0.57800001 4294967295
0.04747152 0.047874011 0.57700002 4294967295
0.048565894 0.047874663 0.57700002 4294967295
0.049746368 0.047958311 0.57800001 4294967295
0.05093066 0.048041973 0.579 4294967295
0.051939055 0.0479597 0.57800001 4294967295
0.053035457 0.047960419 0.57800001 4294967295
0.05413188 0.047961153 0.57800001 4294967295
0.055228345 0.047961906 0.57800001 4294967295
0.056519728 0.04812862 0.57999998 4294967295
0.057719398 0.048212383 0.58099997 4294967295
0.058821656 0.048213176 0.58099997 4294967295
0.059614524 0.047965039 0.57800001 4294967295
0.06165649 0.048712734 0.58700001 4294967295
0.062770233 0.048713583 0.58700001 4294967295
0.06388402 0.048714448 0.58700001 4294967295
0.064997837 0.048715319 0.58700001 4294967295
0.066111699 0.04871621 0.58700001 4294967295
0.06722559 0.048717115 0.58700001 4294967295
0.068455957 0.048801038 0.588 4294967295
0.069571845 0.04880197 0.588 4294967295
-0.038167093 0.050833821 0.59899998 4293518302
-0.037030999 0.050833184 0.59899998 4293518302
-0.035894934 0.05083257 0.59899998 4293518300
-0.034700863 0.050747108 0.59799999 4293913058
-0.033454489 0.050576802 0.59600002 4293847267
-0.032324195 0.050576244 0.59600002 4294044646
-0.030984577 0.050236255 0.59200001 4294176746
-0.0297106 0.049981155 0.58899999 4294176746
-0.028593659 0.049980644 0.58899999 4294045159
-0.027430095 0.049895298 0.588 4293979366
-0.026315104 0.049894832 0.588 4293914343
-0.025157277 0.049809512 0.58700001 4293914343
-0.024003267 0.049724229 0.58600003 4293847783
-0.022853073 0.049638946 0.58499998 4293979112
-0.021669513 0.049468834 0.583 4294242541
-0.020564111 0.049468458 0.583 4294374127
-0.019458726 0.049468085 0.583 4294243052
-0.018321879 0.049382888 0.58200002 4294045930
-0.017218428 0.049382556 0.58200002 4294309101
-0.016087299 0.049297377 0.58099997 4294374894
-0.014985775 0.049297083 0.58099997 4294242795
