# .PCD v0.7 - Point Cloud Data file format
VERSION 0.7
FIELDS x y z rgba
SIZE 4 4 4 4
TYPE F F F U
COUNT 1 1 1 1
WIDTH 1069
HEIGHT 1
VIEWPOINT 0 0 0 1 0 0 0
POINTS 1069
DATA ascii
-0.25437212 -0.18434577 0.68800002 4294967295
-0.25380316 -0.1848847 0.69 4294967295
-0.2535924 -0.18569145 0.69300002 4294901759
-0.25264207 -0.18596224 0.69400001 4294572287
-0.25204983 -0.18650086 0.69599998 4294835199
-0.25072956 -0.18650359 0.69599998 4294506239
-0.24940906 -0.18650614 0.69599998 4294703871
-0.2484449 -0.18677659 0.69700003 4294243323
-0.2474768 -0.18704699 0.69800001 4294572287
-0.24615215 -0.1870493 0.69800001 4294572285
-0.24552888 -0.18758748 0.69999999 4294967039
-0.24524678 -0.18839359 0.70300001 4294572287
-0.24425924 -0.18866368 0.704 4294703871
-0.24361283 -0.18920167 0.70599997 4294374654
-0.24227242 -0.18920358 0.70599997 4294572287
-0.24229698 -0.19027744 0.70999998 4294243323
-0.24128814 -0.19054721 0.71100003 4294703871
-0.23993792 -0.1905489 0.71100003 4294309887
-0.23858763 -0.19055054 0.71100003 4294836223
-0.23723722 -0.19055212 0.71100003 4293982207
-0.32295504 -0.1811102 0.68199998 4294440951
-0.32167602 -0.18112007 0.68199998 4294177779
-0.31945702 -0.1805986 0.68000001 4294045941
-0.31818095 -0.18060809 0.68000001 4294177783
-0.31643844 -0.18035184 0.67900002 4293980148
-0.31516349 -0.180361 0.67900002 4294506492
-0.31388816 -0.18037005 0.67900002 4294112247
-0.31215203 -0.1801132 0.67799997 4294244090
-0.30996078 -0.1795906 0.676 4293979896
-0.30869001 -0.17959911 0.676 4294440447
-0.30741891 -0.17960747 0.676 4294177783
-0.3061474 -0.17961566 0.676 4294638078
-0.30487561 -0.17962377 0.676 4294243836
-0.30360347 -0.17963168 0.676 4294704383
-0.302331 -0.17963946 0.676 4294572798
-0.3006129 -0.17938134 0.67500001 4294967295
-0.29934162 -0.17938881 0.67500001 4294638078
-0.29762852 -0.17913041 0.67400002 4294704127
-0.29635862 -0.1791376 0.67400002 4294506239
-0.29508832 -0.17914462 0.67400002 4294967295
-0.29381776 -0.17915154 0.67400002 4294638079
-0.29254693 -0.1791583 0.67400002 4294967039
-0.2912758 -0.17916498 0.67400002 4294835455
-0.28914386 -0.17863981 0.67199999 4294967295
-0.28787595 -0.17864616 0.67199999 4294967295
-0.2866078 -0.17865242 0.67199999 4294967295
-0.28533936 -0.17865852 0.67199999 4294703871
-0.28407064 -0.17866448 0.67199999 4294967039
-0.28280172 -0.17867033 0.67199999 4294901247
-0.2815325 -0.17867608 0.67199999 4294967295
-0.28026304 -0.1786817 0.67199999 4294836223
-0.27899337 -0.17868717 0.67199999 4294967295
-0.2777234 -0.1786925 0.67199999 4294967295
-0.27727604 -0.17922963 0.67400002 4294967295
-0.27641135 -0.17950068 0.67500001 4294836223
-0.27513507 -0.17950571 0.67500001 4294967295
-0.27385861 -0.17951065 0.67500001 4294770175
-0.27258188 -0.17951545 0.67500001 4294967295
-0.27170685 -0.17978607 0.676 4294967295
-0.27042785 -0.17979069 0.676 4294967295
-0.26914862 -0.17979515 0.676 4294835199
-0.26786914 -0.1797995 0.676 4294966783
-0.26658955 -0.17980377 0.676 4294703871
-0.26609462 -0.18033989 0.67799997 4294967295
-0.26520145 -0.18060999 0.67900002 4294967039
-0.26430428 -0.18087994 0.68000001 4294967295
-0.26378989 -0.18141578 0.68199998 4294770431
-0.26249796 -0.18141955 0.68199998 4294967295
-0.2615889 -0.18168925 0.68300003 4294835199
-0.26029474 -0.18169282 0.68300003 4294967039
-0.25937966 -0.18196233 0.68400002 4294704127
-0.25808328 -0.18196571 0.68400002 4294967295
-0.25678673 -0.18196897 0.68400002 4294704127
-0.25549003 -0.18197218 0.68400002 4294835455
-0.25419322 -0.18197528 0.68400002 4294572287
-0.25363564 -0.18251039 0.68599999 4294966783
-0.25270259 -0.18277936 0.68699998 4294967039
-0.25249743 -0.18358035 0.69 4294967039
-0.2522808 -0.18438132 0.69300002 4294638079
-0.25132829 -0.18465005 0.69400001 4294900991
-0.25001165 -0.18465258 0.69400001 4294638079
-0.24941154 -0.18518727 0.69599998 4294900991
-0.24809085 -0.18518968 0.69599998 4294572287
-0.2471246 -0.18545811 0.69700003 4294966783
-0.24580175 -0.18546036 0.69700003 4294901247
-0.24447878 -0.18546253 0.69700003 4294967039
-0.24420229 -0.18626288 0.69999999 4294703871
-0.24322033 -0.18653096 0.70099998 4294967039
-0.2429246 -0.1873312 0.704 4294506494
-0.24227427 -0.18786529 0.70599997 4294638079
-0.24229874 -0.18893144 0.70999998 4294440701
-0.24095048 -0.18893319 0.70999998 4294703871
-0.23960207 -0.18893483 0.70999998 4294177531
-0.2385892 -0.18920252 0.71100003 4294440447
-0.23723869 -0.18920401 0.71100003 4294441727
-0.23688346 -0.19000377 0.71399999 4294967295
-0.32424375 -0.17981358 0.68199998 4294506239
-0.32296494 -0.17982349 0.68199998 4293520882
-0.32168573 -0.1798332 0.68199998 4293586676
-0.31946656 -0.1793154 0.68000001 4293519599
-0.31772238 -0.17906106 0.67900002 4293914101
-0.3159816 -0.17880654 0.67799997 4293717746
-0.31378001 -0.17828809 0.676 4294309883
-0.3125101 -0.17829692 0.676 4294046454
-0.31123996 -0.17830567 0.676 4293915125
-0.30951083 -0.17805043 0.67500001 4293585138
-0.30824175 -0.17805879 0.67500001 4293979896
-0.30697238 -0.17806706 0.67500001 4293782772
-0.30570263 -0.17807513 0.67500001 4294177529
-0.30488354 -0.1783469 0.676 4293979896
-0.3031621 -0.17809087 0.67500001 4294506239
-0.30189145 -0.17809853 0.67500001 4294309629
-0.30017501 -0.17784218 0.67400002 4294638591
-0.29801857 -0.17732181 0.67199999 4294243836
-0.29675251 -0.17732899 0.67199999 4294309629
-0.29548618 -0.17733604 0.67199999 4294243325
-0.29378179 -0.17707908 0.671 4294703871
-0.29251674 -0.17708583 0.671 4294440701
-0.29125145 -0.17709251 0.671 4294703871
-0.28998587 -0.17709902 0.671 4294506494
-0.28871995 -0.17710543 0.671 4294901247
-0.28745386 -0.17711167 0.671 4294572285
-0.28618741 -0.17711781 0.671 4294835455
-0.28492075 -0.1771238 0.671 4294440701
-0.2836538 -0.17712969 0.671 4294703871
-0.28238657 -0.17713538 0.671 4294572287
-0.2811192 -0.17714104 0.671 4294967039
-0.27985147 -0.17714655 0.671 4294572799
-0.27858353 -0.1771519 0.671 4294770175
-0.27731538 -0.17715719 0.671 4294770431
-0.27645841 -0.17742638 0.67199999 4294901759
-0.27600694 -0.17795953 0.67400002 4294506751
-0.27514005 -0.17822847 0.67500001 4294835967
-0.2738634 -0.1782333 0.67500001 4294638591
-0.27258658 -0.17823802 0.67500001 4294967295
-0.27130952 -0.17824262 0.67500001 4294638591
-0.27043235 -0.17851122 0.676 4294770175
-0.26915303 -0.17851561 0.676 4294703871
-0.26787344 -0.17851989 0.676 4294835199
-0.26659369 -0.17852406 0.676 4294638079
-0.26609874 -0.17905635 0.67799997 4294967295
-0.26481485 -0.17906033 0.67799997 4294638079
-0.26391947 -0.17932831 0.67900002 4294835199
-0.2630201 -0.1795962 0.68000001 4294572287
-0.26250163 -0.18012808 0.68199998 4294901247
-0.26159251 -0.18039584 0.68300003 4294506494
-0.26029825 -0.18039934 0.68300003 4294638079
-0.25938302 -0.18066686 0.68400002 4294440701
-0.25808656 -0.18067016 0.68400002 4294703871
-0.25678995 -0.18067341 0.68400002 4294440701
-0.25549316 -0.18067653 0.68400002 4294638079
-0.25419623 -0.18067954 0.68400002 4294374652
-0.25363863 -0.1812108 0.68599999 4294638079
-0.25270543 -0.1814778 0.68699998 4294506494
-0.25250018 -0.18227306 0.69 4294638079
-0.25119135 -0.18227573 0.69 4294572287
-0.25096872 -0.18307084 0.69300002 4294901247
-0.24965392 -0.18307336 0.69300002 4294638079
-0.24869727 -0.18333997 0.69400001 4294901247
-0.24809319 -0.18387069 0.69599998 4294572287
-0.24677229 -0.18387295 0.69599998 4294638079
-0.24545126 -0.18387514 0.69599998 4294638078
-0.2441301 -0.18387724 0.69599998 4294704127
-0.24315771 -0.18414348 0.69700003 4294243325
-0.24287532 -0.184938 0.69999999 4294440447
-0.24189132 -0.18520409 0.70099998 4294177531
-0.24158975 -0.1859985 0.704 4294374654
-0.24093543 -0.18652862 0.70599997 4294045689
-0.24095213 -0.18758711 0.70999998 4294572287
-0.23960365 -0.18758871 0.70999998 4294177791
-0.23859069 -0.18785445 0.71100003 4294177791
-0.23724014 -0.18785587 0.71100003 4294178045
-0.23688482 -0.18864991 0.71399999 4294770175
-0.32728958 -0.17876853 0.68300003 4294834430
-0.3255322 -0.17851688 0.68199998 4294374906
-0.32425365 -0.1785268 0.68199998 4294374906
-0.32202756 -0.17801301 0.68000001 4293783539
-0.32075197 -0.17802258 0.68000001 4293783539
-0.31900609 -0.17777017 0.67900002 4293585651
-0.31726366 -0.17751761 0.67799997 4294112251
-0.3159906 -0.17752665 0.67799997 4294046195
-0.31378889 -0.17701186 0.676 4294440697
-0.31251886 -0.17702061 0.676 4294177781
-0.31078807 -0.17676732 0.67500001 4294374904
-0.30906066 -0.17651388 0.67400002 4293849080
-0.30779332 -0.17652212 0.67400002 4294506751
-0.30698046 -0.17679213 0.67500001 4294374906
-0.30571058 -0.17680013 0.67500001 4294638078
-0.30444035 -0.17680795 0.67500001 4294440701
-0.30316979 -0.17681561 0.67500001 4294967295
-0.30145171 -0.17656122 0.67400002 4294901247
-0.30018237 -0.1765686 0.67400002 4294967295
-0.29802579 -0.1760519 0.67199999 4294638078
-0.29675958 -0.17605899 0.67199999 4294901247
-0.29505345 -0.17580396 0.671 4294638079
-0.29378852 -0.17581075 0.671 4294966783
-0.29208747 -0.17555542 0.67000002 4294835455
-0.29082388 -0.17556198 0.67000002 4294967295
-0.28956002 -0.17556836 0.67000002 4294638591
-0.28829592 -0.17557463 0.67000002 4294901759
-0.28703156 -0.17558077 0.67000002 4294704639
-0.2857669 -0.17558682 0.67000002 4294770431
-0.28450203 -0.17559272 0.67000002 4294506751
-0.28365952 -0.17586057 0.671 4294967295
-0.28239223 -0.1758662 0.671 4294836223
-0.28112465 -0.17587174 0.671 4294967295
-0.27985689 -0.17587718 0.671 4294638335
-0.27858883 -0.17588247 0.671 4294770175
-0.27732053 -0.17588764 0.671 4294770431
-0.27605209 -0.17589274 0.671 4294901759
-0.27519286 -0.17615983 0.67199999 4294638591
-0.27392203 -0.17616466 0.67199999 4294967295
-0.27346238 -0.17669369 0.67400002 4294770175
-0.27218741 -0.17669836 0.67400002 4294967295
-0.27131405 -0.17696503 0.67500001 4294967295
-0.2700367 -0.17696944 0.67500001 4294967295
-0.26915732 -0.17723593 0.676 4294703871
-0.26748142 -0.17697796 0.67500001 4294966783
-0.26620343 -0.17698205 0.67500001 4294966783
-0.2653178 -0.17724824 0.676 4294967295
-0.26481873 -0.17777655 0.67799997 4294835199
-0.26353458 -0.17778036 0.67799997 4294967039
-0.26263699 -0.17804627 0.67900002 4294703871
-0.26250526 -0.17883652 0.68199998 4294967295
-0.26121297 -0.17884004 0.68199998 4294835455
-0.25992051 -0.17884348 0.68199998 4294967039
-0.25900713 -0.17910905 0.68300003 4294638078
-0.25771245 -0.17911229 0.68300003 4294967039
-0.25679308 -0.17937769 0.68400002 4294901247
-0.25512266 -0.17911851 0.68300003 4294967295
-0.25382754 -0.17912145 0.68300003 4294901247
-0.252902 -0.17938656 0.68400002 4294967295
-0.25270823 -0.18017612 0.68699998 4294638079
-0.251771 -0.18044107 0.68800002 4294703871
-0.25119391 -0.18096825 0.69 4294704127
-0.25024694 -0.18123306 0.69099998 4294967039
-0.24893583 -0.18123552 0.69099998 4294901247
-0.24834129 -0.18176247 0.69300002 4294967295
-0.24738257 -0.18202704 0.69400001 4294572287
-0.24606536 -0.18202922 0.69400001 4294572287
-0.24474803 -0.18203133 0.69400001 4294572285
-0.2434306 -0.18203337 0.69400001 4294704127
-0.24281082 -0.18255995 0.69599998 4294374654
-0.24183632 -0.18282413 0.69700003 4294440447
-0.24154808 -0.18361288 0.69999999 4294243327
-0.24124834 -0.18440153 0.70300001 4294637823
-0.24025454 -0.1846655 0.704 4294374654
-0.23993559 -0.18545401 0.70700002 4294703871
-0.23960517 -0.18624251 0.70999998 4294243327
-0.23859213 -0.18650627 0.71100003 4294177277
-0.23724149 -0.18650767 0.71100003 4294111736
-0.23688611 -0.18729593 0.71399999 4294243323
-0.23552962 -0.18729718 0.71399999 4293981179
-0.23379461 -0.18808644 0.71700001 4292798463
-0.33227357 -0.17875862 0.68800002 4294440188
-0.32906049 -0.17772964 0.68400002 4294177783
-0.32729971 -0.17747995 0.68300003 4294243576
-0.32554215 -0.17723005 0.68199998 4293454835
-0.32426345 -0.17723987 0.68199998 4293849593
-0.32203713 -0.17672971 0.68000001 4293455089
-0.32076135 -0.17673916 0.68000001 4293455089
-0.31901535 -0.17648852 0.67900002 4293388527
-0.31727275 -0.17623772 0.67799997 4293849078
-0.31506738 -0.17572676 0.676 4293651696
-0.31333342 -0.17547558 0.67500001 4293915125
-0.31206512 -0.17548415 0.67500001 4293585903
-0.31033605 -0.17523263 0.67400002 4293849332
-0.30906895 -0.17524095 0.67400002 4293717494
-0.30780146 -0.17524906 0.67400002 4294178045
-0.30653369 -0.17525709 0.67400002 4294045943
-0.30571842 -0.17552496 0.67500001 4294440701
-0.30399701 -0.17527261 0.67400002 4294177529
-0.30272821 -0.17528021 0.67400002 4294572287
-0.30056453 -0.17476748 0.67199999 4294374906
-0.29929885 -0.17477472 0.67199999 4294572285
-0.2971459 -0.17426167 0.67000002 4294243576
-0.29588336 -0.17426866 0.67000002 4294506492
-0.29462054 -0.17427547 0.67000002 4294374654
-0.2933574 -0.17428221 0.67000002 4294638079
-0.29209399 -0.17428875 0.67000002 4294506494
-0.29083034 -0.17429522 0.67000002 4294703871
-0.28956634 -0.17430152 0.67000002 4294113020
-0.28830206 -0.17430766 0.67000002 4294573567
-0.28703761 -0.17431375 0.67000002 4294441983
-0.28577277 -0.17431967 0.67000002 4294507775
-0.28450778 -0.1743255 0.67000002 4294309631
-0.28324246 -0.17433114 0.67000002 4294835967
-0.28197691 -0.17433672 0.67000002 4294704639
-0.28071114 -0.17434214 0.67000002 4294836223
-0.27944508 -0.1743475 0.67000002 4294506239
-0.27817884 -0.17435269 0.67000002 4294703871
-0.27691233 -0.17435776 0.67000002 4294572285
-0.27564561 -0.17436273 0.67000002 4294704127
-0.2747882 -0.17462786 0.671 4294440447
-0.27351916 -0.17463261 0.671 4294835199
-0.27265555 -0.17489749 0.67199999 4294309631
-0.27219191 -0.17542259 0.67400002 4294704383
-0.27091655 -0.17542703 0.67400002 4294770175
-0.27004102 -0.17569163 0.67500001 4294638591
-0.26876336 -0.17569585 0.67500001 4294374654
-0.2674855 -0.17569998 0.67500001 4294703871
-0.26620743 -0.17570402 0.67500001 4294638079
-0.2653217 -0.17596823 0.676 4294835199
-0.26404136 -0.17597206 0.676 4294440447
-0.26276088 -0.17597578 0.676 4294572287
-0.26225379 -0.17650005 0.67799997 4294374652
-0.26096916 -0.17650357 0.67799997 4294703871
-0.26045042 -0.17702767 0.68000001 4294440699
-0.25916162 -0.177031 0.68000001 4294901247
-0.25863114 -0.17755492 0.68199998 4294309883
-0.25771561 -0.17781846 0.68300003 4294572798
-0.25604528 -0.17756116 0.68199998 4294506492
-0.25475207 -0.17756413 0.68199998 4294901247
-0.25383043 -0.17782742 0.68300003 4294310396
-0.25290474 -0.17809053 0.68400002 4294441982
-0.25234306 -0.17861401 0.68599999 4294112251
-0.25140768 -0.178877 0.68699998 4294309631
-0.25046834 -0.17913993 0.68800002 4294440701
-0.24988726 -0.17966317 0.69 4294506494
-0.24857797 -0.17966555 0.69 4294374652
-0.24762687 -0.17992826 0.69099998 4294572287
-0.24702832 -0.18045123 0.69300002 4294439934
-0.24571292 -0.18045337 0.69300002 4294505727
-0.24439746 -0.18045546 0.69300002 4294308345
-0.24308184 -0.18045743 0.69300002 4294637310
-0.24211501 -0.18071975 0.69400001 4294374652
-0.24079722 -0.18072155 0.69400001 4294440701
-0.24051461 -0.18150453 0.69700003 4294111738
-0.24022047 -0.18228742 0.69999999 4294374654
-0.23991489 -0.18307029 0.70300001 4294111736
-0.23959778 -0.18385306 0.70599997 4294374652
-0.23859422 -0.18411493 0.70700002 4293848828
-0.2375868 -0.18437676 0.708 4293848828
-0.23791018 -0.1856802 0.713 4293914103
-0.2368874 -0.18594192 0.71399999 4294045689
-0.23553078 -0.18594311 0.71399999 4293783287
-0.23483016 -0.1864651 0.71600002 4294506751
-0.23379566 -0.18672659 0.71700001 4294112511
-0.2324332 -0.1867276 0.71700001 4292993782
-0.23107056 -0.18672851 0.71700001 4287674866
-0.33035207 -0.17642896 0.68400002 4294704127
-0.32907072 -0.17643918 0.68400002 4294506744
-0.32730967 -0.17619124 0.68300003 4294506744
-0.32555199 -0.17594312 0.68199998 4294046708
-0.32332215 -0.17543679 0.68000001 4294112501
-0.32204661 -0.17544626 0.68000001 4293783539
-0.32077068 -0.1754556 0.68000001 4293915125
-0.3190245 -0.17520672 0.67900002 4293717494
-0.31634578 -0.17444158 0.676 4294243838
-0.31461012 -0.17419234 0.67500001 4294111988
-0.3128778 -0.17394288 0.67400002 4294374904
-0.31161126 -0.17395136 0.67400002 4293980150
-0.31034437 -0.17395969 0.67400002 4294440701
-0.30907708 -0.17396784 0.67400002 4294112247
-0.30780947 -0.1739759 0.67400002 4294507005
-0.30654153 -0.1739838 0.67400002 4294573052
-0.30527321 -0.1739915 0.67400002 4294836223
-0.30400458 -0.1739991 0.67400002 4294440699
-0.30138811 -0.17323206 0.671 4294506492
-0.30012453 -0.17323935 0.671 4294243323
-0.29841521 -0.17298831 0.67000002 4294638079
-0.29626581 -0.1724789 0.66799998 4294440701
-0.29500693 -0.17248575 0.66799998 4294703871
-0.29374775 -0.17249246 0.66799998 4294572285
-0.29248828 -0.17249908 0.66799998 4294901247
-0.29122853 -0.1725055 0.66799998 4294638591
-0.28996843 -0.17251182 0.66799998 4294836223
-0.28870812 -0.17251801 0.66799998 4294572799
-0.28744757 -0.17252409 0.66799998 4294967295
-0.28618667 -0.17253003 0.66799998 4294901759
-0.28492552 -0.17253584 0.66799998 4294967295
-0.28366417 -0.17254156 0.66799998 4294704639
-0.28240252 -0.17254713 0.66799998 4294901759
-0.28114066 -0.17255259 0.66799998 4294770431
-0.27987853 -0.17255789 0.66799998 4294901759
-0.2786161 -0.17256312 0.66799998 4294703871
-0.2773535 -0.17256822 0.66799998 4294967295
-0.27609071 -0.17257322 0.66799998 4294836223
-0.27482766 -0.17257811 0.66799998 4294901759
-0.27356434 -0.17258283 0.66799998 4294638591
-0.27311617 -0.17310421 0.67000002 4294967295
-0.27266011 -0.17362551 0.67199999 4294506751
-0.27138868 -0.17363 0.67199999 4294770175
-0.27092087 -0.17415108 0.67400002 4294703871
-0.26964521 -0.17415535 0.67400002 4294638079
-0.26836935 -0.1741595 0.67400002 4294440191
-0.26748952 -0.17442194 0.67500001 4294900735
-0.26621136 -0.17442587 0.67500001 4294572287
-0.26493302 -0.17442971 0.67500001 4294835199
-0.26365447 -0.17443345 0.67500001 4294638079
-0.2623758 -0.17443712 0.67500001 4294967039
-0.26109689 -0.17444064 0.67500001 4294638079
-0.26020277 -0.1747025 0.676 4294967039
-0.26007077 -0.1754812 0.67900002 4294901247
-0.2591649 -0.17574292 0.68000001 4294967295
-0.25787589 -0.17574608 0.68000001 4294572285
-0.2565867 -0.17574918 0.68000001 4294638078
-0.25529739 -0.17575216 0.68000001 4294506239
-0.25400788 -0.17575507 0.68000001 4294835199
-0.25346157 -0.17627482 0.68199998 4294572285
-0.25253776 -0.17653604 0.68300003 4294704127
-0.25161004 -0.17679714 0.68400002 4294309631
-0.25104427 -0.17731665 0.68599999 4294704383
-0.25010675 -0.17757758 0.68699998 4294506494
-0.2488032 -0.17758001 0.68699998 4294572287
-0.24785976 -0.17784081 0.68800002 4294374654
-0.2472707 -0.17836003 0.69 4294638079
-0.24631755 -0.17862068 0.69099998 4294572285
-0.24571499 -0.17913975 0.69300002 4294901247
-0.24369408 -0.17862476 0.69099998 4294506494
-0.24238218 -0.17862667 0.69099998 4294835199
-0.24176796 -0.17914554 0.69300002 4294704127
-0.24045205 -0.1791473 0.69300002 4294835455
-0.23948105 -0.17940751 0.69400001 4294440447
-0.23884937 -0.17992614 0.69599998 4294638079
-0.23821007 -0.18044472 0.69800001 4294440699
-0.23892048 -0.18199731 0.704 4294506492
-0.23825814 -0.18251577 0.70599997 4294111738
-0.23691697 -0.18251711 0.70599997 4294374654
-0.23724411 -0.18381104 0.71100003 4294111738
-0.23655681 -0.18432932 0.713 4294243325
-0.23553196 -0.18458898 0.71399999 4294111738
-0.23417525 -0.18459004 0.71399999 4294111738
-0.23347059 -0.18510814 0.71600002 4293783026
-0.23243412 -0.18536761 0.71700001 4294704127
-0.23107146 -0.18536851 0.71700001 4292337407
-0.33420429 -0.17510726 0.68400002 4289635248
-0.3329241 -0.17511785 0.68400002 4294569466
-0.33115852 -0.1748722 0.68300003 4294178045
-0.32987928 -0.17488241 0.68300003 4294243838
-0.32859966 -0.17489246 0.68300003 4292929777
-0.32684028 -0.17464626 0.68199998 4293521914
-0.32556164 -0.17465599 0.68199998 4293520882
-0.32333165 -0.17415328 0.68000001 4293783798
-0.32158238 -0.17390658 0.67900002 4293454574
-0.32030815 -0.17391576 0.67900002 4293651696
-0.31856361 -0.17366861 0.67799997 4293388527
-0.31635457 -0.17316514 0.676 4293717492
-0.31415269 -0.17266153 0.67400002 4293716978
-0.31288633 -0.17267004 0.67400002 4293980150
-0.31161961 -0.17267835 0.67400002 4293388527
-0.30943161 -0.17217416 0.67199999 4293915127
-0.30816793 -0.17218219 0.67199999 4293914101
-0.30690396 -0.1721901 0.67199999 4294243323
-0.30563962 -0.17219785 0.67199999 4294244090
-0.30437493 -0.17220546 0.67199999 4294507005
-0.30265892 -0.17195666 0.671 4294178040
-0.3009463 -0.17170773 0.67000002 4294244090
-0.2987898 -0.17120227 0.66799998 4293980148
-0.29753143 -0.17120931 0.66799998 4294374906
-0.29582918 -0.17095987 0.667 4294177529
-0.29457206 -0.17096663 0.667 4294638079
-0.29375434 -0.17122956 0.66799998 4294638078
-0.29249471 -0.17123602 0.66799998 4294901247
-0.29079884 -0.17098601 0.667 4294376189
-0.28954053 -0.17099226 0.667 4294705151
-0.28828201 -0.17099833 0.667 4294309629
-0.28702316 -0.1710043 0.667 4294638591
-0.28576407 -0.17101015 0.667 4294375423
-0.28450471 -0.17101584 0.667 4294770175
-0.28324509 -0.17102146 0.667 4294441982
-0.28156248 -0.17077053 0.66600001 4294705151
-0.28030425 -0.17077589 0.66600001 4294309629
-0.27946472 -0.17103751 0.667 4294572799
-0.27820414 -0.17104265 0.667 4294506494
-0.27694333 -0.17104767 0.667 4294835199
-0.27568224 -0.17105256 0.667 4294310142
-0.27442098 -0.17105731 0.667 4294507775
-0.27356899 -0.17131847 0.66799998 4294310143
-0.2723054 -0.17132305 0.66799998 4294507775
-0.27225885 -0.17209695 0.671 4294178045
-0.271393 -0.17235778 0.67199999 4294572799
-0.27012122 -0.17236207 0.67199999 4294506494
-0.26964936 -0.17287925 0.67400002 4294506494
-0.26837337 -0.17288332 0.67400002 4294440447
-0.2670972 -0.17288725 0.67400002 4294703871
-0.26582083 -0.17289115 0.67400002 4294243323
-0.26493677 -0.1731514 0.67500001 4294506494
-0.26365814 -0.17315508 0.67500001 4294440701
-0.26237932 -0.17315863 0.67500001 4294703871
-0.26110035 -0.17316213 0.67500001 4294440447
-0.25982124 -0.17316552 0.67500001 4294638079
-0.259691 -0.17393842 0.67799997 4294506492
-0.25878695 -0.17419815 0.67900002 4294704127
-0.25749975 -0.17420126 0.67900002 4294111736
-0.25621238 -0.1742043 0.67900002 4294243323
-0.25492483 -0.1742072 0.67900002 4294111736
-0.25401071 -0.1744666 0.68000001 4294506494
-0.25272098 -0.17446935 0.68000001 4294374652
-0.25217065 -0.17498517 0.68199998 4294506494
-0.25124475 -0.17524433 0.68300003 4294243323
-0.25031483 -0.17550339 0.68400002 4294572287
-0.249017 -0.17550582 0.68400002 4294440701
-0.24844334 -0.17602132 0.68599999 4294572287
-0.24750172 -0.17628017 0.68699998 4294374654
-0.24655618 -0.17653893 0.68800002 4294506239
-0.24596316 -0.17705424 0.69 4294374652
-0.2450079 -0.17731288 0.69099998 4294572287
-0.243696 -0.17731477 0.69099998 4294045689
-0.24238405 -0.17731665 0.69099998 4294440447
-0.24176969 -0.17783165 0.69300002 4294243576
-0.24045372 -0.17783338 0.69300002 4294506492
-0.23844744 -0.17732175 0.69099998 4294045689
-0.23713508 -0.17732334 0.69099998 4294243325
-0.23684643 -0.17809471 0.69400001 4294111736
-0.2379038 -0.17989248 0.70099998 4294243323
-0.23758456 -0.18066368 0.704 4293914103
-0.23691827 -0.18117826 0.70599997 4294045689
-0.23724532 -0.18246262 0.71100003 4293914103
-0.23655798 -0.18297705 0.713 4294111738
-0.23553306 -0.18323478 0.71399999 4293717494
-0.23417628 -0.18323582 0.71399999 4293717494
-0.23347156 -0.18375005 0.71600002 4293782001
-0.23243502 -0.18400759 0.71700001 4294505981
-0.23107232 -0.18400843 0.71700001 4294308863
-0.23035029 -0.18452245 0.71899998 4292861433
-0.33421493 -0.17381702 0.68400002 4293848048
-0.33293456 -0.17382741 0.68400002 4294769150
-0.33116877 -0.17358357 0.68300003 4294244090
-0.32988936 -0.17359363 0.68300003 4294244090
-0.32860956 -0.17360358 0.68300003 4293652471
-0.32685006 -0.17335913 0.68199998 4293981179
-0.32461649 -0.17286028 0.68000001 4293849078
-0.32286555 -0.17261547 0.67900002 4294178043
-0.32111791 -0.17237045 0.67799997 4293980148
-0.3189019 -0.17187102 0.676 4294177783
-0.31763279 -0.17187989 0.676 4293651700
-0.31542733 -0.17138009 0.67400002 4294046202
-0.31416121 -0.17138863 0.67400002 4293980150
-0.31196621 -0.17088839 0.67199999 4294374652
-0.31024075 -0.17064232 0.671 4294111734
-0.30897924 -0.17065039 0.671 4294440699
-0.30771729 -0.17065832 0.671 4293849082
-0.3059983 -0.17041174 0.67000002 4294309631
-0.3047376 -0.17041934 0.67000002 4294244090
-0.30257064 -0.16991809 0.66799998 4294375676
-0.30131304 -0.16992544 0.66799998 4294243576
-0.30005509 -0.16993262 0.66799998 4294638078
-0.29834956 -0.16968524 0.667 4294177783
-0.29709288 -0.16969214 0.667 4294572285
-0.29583594 -0.16969891 0.667 4294243325
-0.29457867 -0.16970555 0.667 4294572287
-0.29332107 -0.16971207 0.667 4294507005
-0.29206321 -0.16971844 0.667 4294901759
-0.2908051 -0.16972466 0.667 4294704639
-0.2895467 -0.16973083 0.667 4294901759
-0.288288 -0.16973682 0.667 4294572287
-0.28659871 -0.16948821 0.66600001 4294703871
-0.28534138 -0.16949397 0.66600001 4294572287
-0.28408372 -0.16949955 0.66600001 4294967039
-0.28282592 -0.16950504 0.66600001 4294638591
-0.28156784 -0.16951044 0.66600001 4294836223
-0.28030947 -0.16951571 0.66600001 4294572799
-0.27905092 -0.16952085 0.66600001 4294836223
-0.27779207 -0.16952588 0.66600001 4294638591
-0.27694824 -0.16978535 0.667 4294836223
-0.27568707 -0.16979016 0.667 4294572799
-0.27442569 -0.16979487 0.667 4294836223
-0.27357358 -0.17005403 0.66799998 4294572799
-0.2723099 -0.17005853 0.66799998 4294836223
-0.27226323 -0.17082663 0.671 4294507007
-0.27099344 -0.17083095 0.671 4294770175
-0.27012536 -0.17108972 0.67199999 4294572287
-0.26885331 -0.17109384 0.67199999 4294835199
-0.26758096 -0.1710978 0.67199999 4294638078
-0.26710111 -0.17161095 0.67400002 4294967295
-0.26582462 -0.17161471 0.67400002 4294638078
-0.26454797 -0.1716184 0.67400002 4294901247
-0.26327112 -0.17162201 0.67400002 4294638078
-0.26238286 -0.17188014 0.67500001 4294901247
-0.26110375 -0.17188352 0.67500001 4294572287
-0.25982451 -0.17188682 0.67500001 4294835199
-0.25969419 -0.172654 0.67799997 4294638078
-0.25840893 -0.17265712 0.67799997 4294901247
-0.25750276 -0.17291482 0.67900002 4294506239
-0.2562153 -0.1729178 0.67900002 4294703871
-0.25492769 -0.17292061 0.67900002 4294374654
-0.25363994 -0.1729234 0.67900002 4294900991
-0.25235206 -0.17292607 0.67900002 4294704127
-0.25143376 -0.17318337 0.68000001 4294835455
-0.25014368 -0.17318587 0.68000001 4294506494
-0.24958535 -0.17369765 0.68199998 4294703871
-0.2486553 -0.1739547 0.68300003 4294506494
-0.24772125 -0.17421165 0.68400002 4294638079
-0.24714364 -0.17472327 0.68599999 4294440701
-0.24655828 -0.17523478 0.68800002 4294703871
-0.24596518 -0.17574622 0.69 4294572539
-0.24465525 -0.17574817 0.69 4294901247
-0.2433452 -0.17575006 0.69 4294374652
-0.24238583 -0.17600656 0.69099998 4294572287
-0.24107368 -0.1760083 0.69099998 4294506492
-0.23976138 -0.17600997 0.69099998 4294704127
-0.23844901 -0.17601153 0.69099998 4294177531
-0.23713657 -0.17601304 0.69099998 4294243325
-0.23684788 -0.17677866 0.69400001 4294111734
-0.23654766 -0.17754421 0.69700003 4294440699
-0.23556098 -0.17780024 0.69800001 4294111738
-0.23524161 -0.17856565 0.70099998 4294374654
-0.23791385 -0.18162361 0.713 4294111736
-0.23655909 -0.18162473 0.713 4294374652
-0.23553406 -0.1818805 0.71399999 4293914103
-0.23483321 -0.18239099 0.71600002 4293914103
-0.23379855 -0.18264663 0.71700001 4293782772
-0.23308422 -0.18315698 0.71899998 4294111736
-0.23171762 -0.18315773 0.71899998 4293914105
-0.23035105 -0.1831585 0.71899998 4294572031
-0.33373672 -0.17227435 0.68300003 4293717240
-0.33245802 -0.17228463 0.68300003 4294111997
-0.33117887 -0.17229475 0.68300003 4293192179
-0.32941628 -0.17205241 0.68199998 4293718523
-0.32813814 -0.1720622 0.68199998 4293586678
-0.32494256 -0.1710626 0.67799997 4293783800
-0.32367107 -0.17107198 0.67799997 4293454576
-0.32144821 -0.17057657 0.676 4293915127
-0.31970605 -0.1703333 0.67500001 4293651698
-0.3179673 -0.17008986 0.67400002 4293717492
-0.31670177 -0.17009857 0.67400002 4293453552
-0.31449988 -0.16960239 0.67199999 4293914103
-0.31323734 -0.16961078 0.67199999 4293717494
-0.31197447 -0.16961904 0.67199999 4294178045
-0.31024882 -0.1693747 0.671 4293915125
-0.30898711 -0.16938266 0.671 4294112247
-0.3077251 -0.16939048 0.671 4293454322
-0.30600592 -0.1691457 0.67000002 4294046202
-0.30383539 -0.16864827 0.66799998 4294045943
-0.30257797 -0.16865563 0.66799998 4294177529
-0.30132023 -0.16866285 0.66799998 4293783285
-0.30006212 -0.16866994 0.66799998 4294178043
-0.29835647 -0.16842437 0.667 4293980148
-0.29709965 -0.16843118 0.667 4294243576
-0.29584259 -0.16843784 0.667 4293849078
-0.29458517 -0.1684444 0.667 4294112249
-0.29332748 -0.16845077 0.667 4294243836
-0.29206944 -0.16845706 0.667 4294638591
-0.29081124 -0.16846322 0.667 4294244090
-0.28911856 -0.16821666 0.66600001 4294638591
-0.28786165 -0.16822258 0.66600001 4294177529
-0.28660443 -0.16822836 0.66600001 4294374652
-0.28449014 -0.16772881 0.66399997 4294243323
-0.28323615 -0.1677343 0.66399997 4294440701
-0.28198197 -0.1677397 0.66399997 4294177783
-0.28072751 -0.16774496 0.66399997 4294572285
-0.27947286 -0.16775014 0.66399997 4294243576
-0.27821794 -0.1677552 0.66399997 4294638078
-0.27779701 -0.16826545 0.66600001 4294507005
-0.27653784 -0.16827027 0.66600001 4294572798
-0.27569181 -0.16852766 0.667 4294440701
-0.2744303 -0.1685323 0.667 4294703871
-0.27316859 -0.16853681 0.667 4294374652
-0.27190664 -0.16854118 0.667 4294572287
-0.27105024 -0.16879818 0.66799998 4294309631
-0.27059376 -0.16930781 0.67000002 4294506751
-0.26932552 -0.1693119 0.67000002 4294045943
-0.26845717 -0.16956858 0.671 4294440701
-0.26718667 -0.1695725 0.671 4294374906
-0.26591599 -0.16957632 0.671 4294704127
-0.2650395 -0.16983274 0.67199999 4294244090
-0.26455158 -0.17034182 0.67400002 4294375676
-0.26327464 -0.17034534 0.67400002 4294374906
-0.26199755 -0.17034878 0.67400002 4294638078
-0.26072028 -0.17035209 0.67400002 4294243325
-0.25944281 -0.17035532 0.67400002 4294506239
-0.25854823 -0.1706112 0.67500001 4294440699
-0.25764972 -0.17086703 0.676 4294638078
-0.25712648 -0.17137551 0.67799997 4294178045
-0.25584081 -0.1713784 0.67799997 4294243838
-0.25455502 -0.17138118 0.67799997 4293979896
-0.25364265 -0.17163669 0.67900002 4294572287
-0.25235462 -0.17163928 0.67900002 4294506239
-0.25106654 -0.17164183 0.67900002 4294638079
-0.25014606 -0.17189707 0.68000001 4294177529
-0.2495877 -0.17240502 0.68199998 4294374652
-0.24829349 -0.17240728 0.68199998 4293980150
-0.24736132 -0.17266232 0.68300003 4294243323
-0.24642523 -0.17291726 0.68400002 4293979896
-0.24620195 -0.17367773 0.68699998 4294243325
-0.24525423 -0.17393249 0.68800002 4294177783
-0.243948 -0.17393441 0.68800002 4294506492
-0.24264169 -0.17393622 0.68800002 4294111738
-0.2420368 -0.1744436 0.69 4294177531
-0.2407265 -0.1744453 0.69 4294111736
-0.23976301 -0.17469974 0.69099998 4294506494
-0.23845053 -0.17470124 0.69099998 4294111738
-0.23713805 -0.1747027 0.69099998 4294243325
-0.2358254 -0.1747041 0.69099998 4294045689
-0.23620959 -0.17596953 0.69599998 4294177531
-0.23522475 -0.17622364 0.69700003 4293914103
-0.23423606 -0.17647766 0.69800001 4294177531
-0.23357713 -0.17698444 0.69999999 4293914103
-0.23656017 -0.18027239 0.713 4294243325
-0.2352052 -0.18027338 0.713 4293849080
-0.23417817 -0.18052715 0.71399999 4293783287
-0.23379943 -0.18128654 0.71700001 4293585138
-0.23308504 -0.18179303 0.71899998 4293782774
-0.23171836 -0.18179376 0.71899998 4293453554
-0.23035172 -0.18179449 0.71899998 4294243327
-0.33228111 -0.17023462 0.68000001 4294112247
-0.33100781 -0.17024469 0.68000001 4293915125
-0.32924923 -0.17000429 0.67900002 4293652469
-0.32749397 -0.16976364 0.67799997 4293981433
-0.32526088 -0.16927245 0.676 4294046202
-0.32399338 -0.16928187 0.676 4294243838
-0.32224816 -0.16904069 0.67500001 4293849078
-0.32098177 -0.16904978 0.67500001 4294243836
-0.31971502 -0.16905871 0.67500001 4293915125
-0.31703249 -0.16831608 0.67199999 4294112247
-0.31577054 -0.16832463 0.67199999 4293717240
-0.31450826 -0.16833311 0.67199999 4294309631
-0.31277946 -0.16809088 0.671 4294112249
-0.31151834 -0.168099 0.671 4294375678
-0.30886966 -0.16735539 0.66799998 4294177529
-0.30715296 -0.16711265 0.667 4294440701
-0.30589828 -0.16712032 0.667 4294111738
-0.30418655 -0.1668773 0.66600001 4294572287
-0.3029331 -0.16688465 0.66600001 4294374652
-0.30167928 -0.16689189 0.66600001 4294506494
-0.30042514 -0.16689898 0.66600001 4294243323
-0.29961991 -0.16715655 0.667 4294703871
-0.29836327 -0.16716337 0.667 4294243323
-0.29710636 -0.16717006 0.667 4294703871
-0.29584914 -0.16717666 0.667 4294440699
-0.29459164 -0.1671831 0.667 4294638078
-0.29333377 -0.1671894 0.667 4294507005
-0.29207563 -0.16719559 0.667 4294967295
-0.29038128 -0.166951 0.66600001 4294704639
-0.28912449 -0.16695692 0.66600001 4294967295
-0.28786746 -0.16696268 0.66600001 4294638078
-0.28574941 -0.16646697 0.66399997 4294901247
-0.28449562 -0.16647251 0.66399997 4294572287
-0.28324154 -0.16647795 0.66399997 4294703871
-0.28198722 -0.16648324 0.66399997 4294506492
-0.28073269 -0.16648845 0.66399997 4294967039
-0.27947792 -0.16649355 0.66399997 4294506492
-0.27822286 -0.1664985 0.66399997 4294967039
-0.27696761 -0.16650338 0.66399997 4294835455
-0.27571213 -0.16650811 0.66399997 4294901247
-0.27528307 -0.16701427 0.66600001 4294638078
-0.27402338 -0.16701883 0.66600001 4294967039
-0.27276346 -0.16702327 0.66600001 4294506494
-0.27150327 -0.16702758 0.66600001 4294703871
-0.27064872 -0.1672826 0.667 4294638078
-0.26938626 -0.16728671 0.667 4294967039
-0.26852554 -0.16754152 0.66799998 4294572285
-0.26806104 -0.16804706 0.67000002 4294967039
-0.26679233 -0.16805092 0.67000002 4294638078
-0.26591972 -0.16830547 0.671 4294967039
-0.26464871 -0.16830909 0.671 4294638332
-0.2637701 -0.16856346 0.67199999 4294704125
-0.26249683 -0.16856691 0.67199999 4294572285
-0.26122341 -0.16857025 0.67199999 4294967039
-0.25994983 -0.1685735 0.67199999 4294572285
-0.25944597 -0.16907838 0.67400002 4294638078
-0.25816828 -0.16908149 0.67400002 4294572285
-0.25727153 -0.16933532 0.67500001 4294901247
-0.25599164 -0.16933821 0.67500001 4294638079
-0.25471157 -0.16934101 0.67500001 4294835199
-0.2538068 -0.16959456 0.676 4294374654
-0.25252458 -0.16959722 0.676 4294835199
-0.25198549 -0.17010152 0.67799997 4294835455
-0.25106895 -0.17035492 0.67900002 4294835455
-0.24978061 -0.1703573 0.67900002 4294440701
-0.24849209 -0.17035958 0.67900002 4294638079
-0.24720351 -0.17036182 0.67900002 4294440701
-0.24627693 -0.17061485 0.68000001 4294703871
-0.24570674 -0.17111874 0.68199998 4294374654
-0.24441205 -0.17112073 0.68199998 4294638079
-0.24383025 -0.1716245 0.68400002 4294440699
-0.24324065 -0.17212816 0.68599999 4294638078
-0.24193808 -0.17212991 0.68599999 4294374652
-0.24133696 -0.17263345 0.68800002 4294506494
-0.24003035 -0.17263508 0.68800002 4294374906
-0.23872361 -0.17263663 0.68800002 4294638078
-0.23810697 -0.17313996 0.69 4294440699
-0.23679627 -0.17314136 0.69 4294638078
-0.2354854 -0.17314267 0.69 4294374654
-0.23417456 -0.17314395 0.69 4294440447
-0.23320104 -0.17339607 0.69099998 4294177531
-0.23289487 -0.17415002 0.69400001 4294506239
-0.23224348 -0.17465296 0.69599998 4294177783
-0.23092085 -0.17465396 0.69599998 4294440699
-0.23190732 -0.17641149 0.70300001 4293914103
-0.23089927 -0.17666332 0.704 4293782774
-0.23380028 -0.17992641 0.71700001 4293716980
-0.23308581 -0.18042909 0.71899998 4294045689
-0.23171908 -0.18042976 0.71899998 4293651185
-0.2303523 -0.18043041 0.71899998 4294111736
-0.33356416 -0.16894127 0.68000001 4293719038
-0.33131388 -0.16845451 0.67799997 4293585905
-0.33004418 -0.16846445 0.67799997 4293717492
-0.32877409 -0.16847426 0.67799997 4293455089
-0.32653749 -0.16798688 0.676 4293915640
-0.32478908 -0.16774781 0.67500001 4293652471
-0.3220855 -0.16701151 0.67199999 4293915386
-0.32082498 -0.16702057 0.67199999 4293717492
-0.31956407 -0.16702949 0.67199999 4294046456
-0.31830278 -0.16703828 0.67199999 4293586676
-0.3165693 -0.16679832 0.671 4293849591
-0.31530911 -0.16680677 0.671 4293651700
-0.31404859 -0.1668151 0.671 4294112251
-0.31138912 -0.16607738 0.66799998 4293652471
-0.31013352 -0.16608536 0.66799998 4293915386
-0.30841509 -0.16584457 0.667 4293585651
-0.30716062 -0.16585226 0.667 4293914873
-0.30590588 -0.16585983 0.667 4293979896
-0.30419391 -0.16561855 0.66600001 4294177531
-0.30294031 -0.16562583 0.66600001 4293783287
-0.30168635 -0.16563293 0.66600001 4294046202
-0.30043212 -0.16563994 0.66600001 4293979896
-0.29962674 -0.16589552 0.667 4294374654
-0.29837 -0.16590226 0.667 4293783285
-0.29711294 -0.16590886 0.667 4294243836
-0.29585558 -0.16591533 0.667 4294177783
-0.29459795 -0.16592169 0.667 4294243576
-0.29333997 -0.16592789 0.667 4294177531
-0.29208171 -0.16593398 0.667 4294638079
-0.29038721 -0.16569118 0.66600001 4294178043
-0.2891303 -0.16569702 0.66600001 4294572799
-0.28700864 -0.16520511 0.66399997 4294243836
-0.28575498 -0.16521069 0.66399997 4294572799
-0.28407261 -0.16496736 0.66299999 4294374652
-0.28282034 -0.16497269 0.66299999 4294374652
-0.28156778 -0.16497791 0.66299999 4294243323
-0.28031498 -0.16498299 0.66299999 4294572287
-0.27906197 -0.164988 0.66299999 4293980150
-0.27780873 -0.16499287 0.66299999 4294506494
-0.27655521 -0.16499765 0.66299999 4294440701
-0.27571675 -0.16525115 0.66399997 4294572287
-0.27446091 -0.16525571 0.66399997 4294374906
-0.27402779 -0.16575795 0.66600001 4294704127
-0.27276775 -0.16576229 0.66600001 4294111738
-0.2715075 -0.16576655 0.66600001 4294440447
-0.27024704 -0.16577068 0.66600001 4294243325
-0.2689864 -0.16577473 0.66600001 4294506239
-0.26852947 -0.16627647 0.66799998 4294243323
-0.26806486 -0.16677818 0.67000002 4294572287
-0.26679602 -0.16678192 0.67000002 4294111734
-0.26592335 -0.16703452 0.671 4294572285
-0.26465225 -0.16703808 0.671 4294243576
-0.26377353 -0.16729049 0.67199999 4294440699
-0.2625002 -0.16729388 0.67199999 4294374906
-0.26122671 -0.16729715 0.67199999 4294572285
-0.25995302 -0.16730033 0.67199999 4294244090
-0.25944909 -0.16780138 0.67400002 4294309883
-0.25817126 -0.16780438 0.67400002 4294177783
-0.25689331 -0.1678073 0.67400002 4294506492
-0.25599444 -0.1680591 0.67500001 4294243323
-0.25471428 -0.16806185 0.67500001 4294572287
-0.25343397 -0.16806448 0.67500001 4294111736
-0.25252715 -0.16831607 0.676 4294440701
-0.25124469 -0.16831855 0.676 4294374652
-0.25070158 -0.16881894 0.67799997 4294440701
-0.24941504 -0.16882126 0.67799997 4294045943
-0.24812832 -0.16882348 0.67799997 4294440701
-0.24684159 -0.16882567 0.67799997 4294111736
-0.24591683 -0.16907676 0.67900002 4294243323
-0.24570875 -0.16982581 0.68199998 4293979896
-0.24441399 -0.16982774 0.68199998 4294177531
-0.24347563 -0.17007864 0.68300003 4294045689
-0.24253328 -0.17032942 0.68400002 4294243325
-0.24193978 -0.17082916 0.68599999 4294045689
-0.24098778 -0.17107984 0.68699998 4294177531
-0.23968302 -0.17108141 0.68699998 4294045943
-0.2387251 -0.17133193 0.68800002 4294243323
-0.2381084 -0.17183143 0.69 4293980150
-0.23679759 -0.17183276 0.69 4294177529
-0.23548673 -0.17183408 0.69 4293782776
-0.23417576 -0.17183529 0.69 4294045691
-0.23320217 -0.17208546 0.69099998 4293914103
-0.23289593 -0.17283368 0.69400001 4294177531
-0.23224448 -0.17333278 0.69599998 4293782774
-0.2309218 -0.17333373 0.69599998 4293979896
-0.23025881 -0.17383273 0.69800001 4293914103
-0.22991613 -0.17458069 0.70099998 4293782774
-0.22858369 -0.17458145 0.70099998 4293585138
-0.2282238 -0.17532933 0.704 4293782774
-0.22753008 -0.17582805 0.70599997 4293256943
-0.23035294 -0.17906633 0.71899998 4293717494
-0.33357432 -0.16765805 0.68000001 4294374652
-0.33132383 -0.16717494 0.67799997 4294046193
-0.32908043 -0.1666916 0.676 4294046193
-0.32732895 -0.16645463 0.67500001 4293980148
-0.32558084 -0.16621749 0.67400002 4294374906
-0.32335487 -0.16573353 0.67199999 4294111734
-0.32161531 -0.16549601 0.671 4294374906
-0.31987908 -0.16525832 0.67000002 4294112247
-0.31862178 -0.16526707 0.67000002 4294244090
-0.31736407 -0.16527572 0.67000002 4294112249
-0.31516236 -0.16479079 0.66799998 4294309629
-0.31390768 -0.16479911 0.66799998 4294177529
-0.31265262 -0.16480727 0.66799998 4294572287
-0.31093103 -0.16456859 0.667 4294244088
-0.30967706 -0.16457643 0.667 4294507259
-0.30842277 -0.16458414 0.667 4294111736
-0.30716822 -0.16459174 0.667 4294440701
-0.30591324 -0.16459918 0.667 4294111738
-0.30420119 -0.1643597 0.66600001 4294506239
-0.30294743 -0.16436686 0.66600001 4294177531
-0.30169341 -0.16437389 0.66600001 4294506239
-0.300439 -0.16438079 0.66600001 4294374906
-0.2996335 -0.16463436 0.667 4294835455
-0.29837665 -0.16464099 0.667 4294374652
-0.29711944 -0.16464752 0.667 4294638079
-0.29541838 -0.16440703 0.66600001 4294374906
-0.29416248 -0.1644133 0.66600001 4294506492
-0.29290628 -0.16441941 0.66600001 4294309631
-0.29164985 -0.16442542 0.66600001 4294835967
-0.29039305 -0.16443127 0.66600001 4294638591
-0.28826776 -0.16394323 0.66399997 4294770175
-0.28658202 -0.16370192 0.66299999 4294638078
-0.28533012 -0.16370742 0.66299999 4294967039
-0.28407797 -0.16371275 0.66299999 4294243325
-0.28282556 -0.16371801 0.66299999 4294440447
-0.28157294 -0.16372317 0.66299999 4294506494
-0.28032002 -0.16372818 0.66299999 4294967039
-0.27906686 -0.16373307 0.66299999 4294374654
-0.27781352 -0.16373789 0.66299999 4294835199
-0.27655992 -0.16374257 0.66299999 4294638079
-0.27572131 -0.1639941 0.66399997 4294901247
-0.27446538 -0.16399857 0.66399997 4294704127
-0.27403218 -0.16449694 0.66600001 4294967295
-0.27277201 -0.16450123 0.66600001 4294572285
-0.27151167 -0.16450541 0.66600001 4294704127
-0.2702511 -0.16450948 0.66600001 4294374654
-0.26899034 -0.16451344 0.66600001 4294506239
-0.26853338 -0.16501136 0.66799998 4294374654
-0.26806867 -0.16550919 0.67000002 4294703871
-0.26679972 -0.16551287 0.67000002 4294506492
-0.26592693 -0.1657635 0.671 4294835455
-0.26465571 -0.16576697 0.671 4294374652
-0.2637769 -0.16601743 0.67199999 4294440701
-0.26250347 -0.16602075 0.67199999 4294243323
-0.26122987 -0.16602395 0.67199999 4294572287
-0.25995612 -0.1660271 0.67199999 4294440699
-0.25868219 -0.16603011 0.67199999 4294638078
-0.25817418 -0.16652721 0.67400002 4294374906
-0.25689617 -0.16653007 0.67400002 4294572285
-0.25599724 -0.16677991 0.67500001 4294506492
-0.25471699 -0.1667826 0.67500001 4294835455
-0.25343663 -0.16678518 0.67500001 4294440699
-0.25252962 -0.16703478 0.676 4294440699
-0.25124708 -0.16703723 0.676 4294243323
-0.25070393 -0.16753377 0.67799997 4294506494
-0.2494173 -0.16753605 0.67799997 4294440699
-0.24813055 -0.16753824 0.67799997 4294901247
-0.24684367 -0.16754033 0.67799997 4294440699
-0.24591884 -0.16778949 0.67900002 4294506492
-0.24462985 -0.16779144 0.67900002 4294111738
-0.24477424 -0.16878179 0.68300003 4294440447
-0.2434774 -0.16878359 0.68300003 4294111738
-0.242535 -0.16903245 0.68400002 4294243325
-0.24123611 -0.16903411 0.68400002 4294177529
-0.24063855 -0.16952993 0.68599999 4294243323
-0.23968448 -0.16977857 0.68699998 4293979896
-0.23837954 -0.16978005 0.68699998 4294440447
-0.23741958 -0.17002857 0.68800002 4294177529
-0.23611251 -0.17002985 0.68800002 4294440701
-0.23548795 -0.17052539 0.69 4294177529
-0.23417692 -0.17052653 0.69 4294374652
-0.23387825 -0.17126909 0.69300002 4293979896
-0.23289694 -0.17151727 0.69400001 4294440447
-0.23224545 -0.17201252 0.69599998 4293979896
-0.23092273 -0.17201345 0.69599998 4294045689
-0.23025964 -0.1725086 0.69800001 4293980148
-0.22958893 -0.17300367 0.69999999 4294045941
-0.22858442 -0.17325155 0.70099998 4293717494
-0.22822447 -0.17399369 0.704 4293914873
-0.22688614 -0.17399432 0.704 4293585392
-0.22650895 -0.17473634 0.70700002 4293782772
-0.33260325 -0.16588536 0.67799997 4293980150
-0.3303563 -0.16540585 0.676 4293191918
-0.32860327 -0.16517085 0.67500001 4293520882
-0.32685348 -0.1649356 0.67400002 4293519599
-0.324624 -0.16445549 0.67199999 4293914101
-0.3228828 -0.1642199 0.671 4293651700
-0.32162425 -0.16422889 0.671 4294112251
-0.31988788 -0.16399296 0.67000002 4293915125
-0.3186304 -0.16400161 0.67000002 4294046454
-0.31737256 -0.16401014 0.67000002 4293717492
-0.31517068 -0.16352889 0.66799998 4294112249
-0.31391582 -0.16353709 0.66799998 4293783287
-0.3126606 -0.16354515 0.66799998 4294112251
-0.31093889 -0.16330823 0.667 4293783285
-0.30968481 -0.16331598 0.667 4294178043
-0.3084304 -0.1633236 0.667 4293783287
-0.30717564 -0.16333106 0.667 4293849080
-0.30592054 -0.16333841 0.667 4293782774
-0.30420837 -0.16310073 0.66600001 4294177531
-0.30295449 -0.1631078 0.66600001 4293783287
-0.30170026 -0.16311471 0.66600001 4294243838
-0.3004458 -0.16312152 0.66600001 4293915127
-0.29964018 -0.16337311 0.667 4294309629
-0.29838315 -0.16337965 0.667 4294111738
-0.29712582 -0.16338608 0.667 4294440447
-0.29542464 -0.16314739 0.66600001 4294177783
-0.29416862 -0.16315354 0.66600001 4294440699
-0.2929123 -0.16315958 0.66600001 4294112251
-0.29165569 -0.16316546 0.66600001 4294572799
-0.29039884 -0.16317126 0.66600001 4294309629
-0.28827339 -0.1626869 0.66399997 4294572799
-0.28658751 -0.16244739 0.66299999 4294243576
-0.28533545 -0.16245279 0.66299999 4294506492
-0.28408322 -0.16245808 0.66299999 4293914103
-0.28283072 -0.16246326 0.66299999 4294045689
-0.28157794 -0.1624683 0.66299999 4294177529
-0.28032497 -0.16247325 0.66299999 4294638079
-0.27907166 -0.16247806 0.66299999 4293915127
-0.27781823 -0.1624828 0.66299999 4294243836
-0.27656448 -0.16248739 0.66299999 4294177529
-0.27572584 -0.16273697 0.66399997 4294638079
-0.27446973 -0.16274136 0.66399997 4294243576
-0.27321354 -0.16274568 0.66399997 4294638078
-0.27195704 -0.16274986 0.66399997 4294112249
-0.2707004 -0.16275395 0.66399997 4294309629
-0.27025506 -0.16324818 0.66600001 4294111738
-0.26899421 -0.16325207 0.66600001 4294374654
-0.26853713 -0.16374612 0.66799998 4294111738
-0.26807237 -0.16424011 0.67000002 4294374654
-0.26680329 -0.16424371 0.67000002 4294243323
-0.2655341 -0.16424724 0.67000002 4294440701
-0.26426473 -0.16425067 0.67000002 4293782772
-0.26378024 -0.1647443 0.67199999 4294111736
-0.26250669 -0.16474754 0.67199999 4293980148
-0.26123303 -0.16475068 0.67199999 4294243576
-0.25995913 -0.16475375 0.67199999 4294045941
-0.25868514 -0.16475672 0.67199999 4294177783
-0.25817704 -0.16524994 0.67400002 4293980150
-0.25689894 -0.16525276 0.67400002 4294177529
-0.25562066 -0.16525546 0.67400002 4294177531
-0.25471959 -0.16550326 0.67500001 4294572287
-0.25343916 -0.1655058 0.67500001 4294178040
-0.25215855 -0.16550829 0.67500001 4294112247
-0.25124943 -0.16575582 0.676 4293914101
-0.2507062 -0.16624853 0.67799997 4294243323
-0.2494195 -0.16625074 0.67799997 4294111734
-0.24813269 -0.16625288 0.67799997 4294440699
-0.24684571 -0.16625492 0.67799997 4294111734
-0.24592081 -0.16650213 0.67900002 4294111734
-0.24463175 -0.16650404 0.67900002 4293913590
-0.24441765 -0.16724151 0.68199998 4294242554
-0.24312265 -0.16724326 0.68199998 4294045689
-0.24218214 -0.1674902 0.68300003 4294243325
-0.24123767 -0.16773702 0.68400002 4294177529
-0.23993854 -0.16773857 0.68400002 4294177529
-0.23933704 -0.16823047 0.68599999 4293782772
-0.23838088 -0.16847712 0.68699998 4294111736
-0.23742086 -0.16872369 0.68800002 4293980150
-0.2361138 -0.16872498 0.68800002 4294243323
-0.23548913 -0.16921663 0.69 4293980150
-0.23417805 -0.16921777 0.69 4293980150
-0.23387931 -0.16995457 0.69300002 4293651187
-0.23256239 -0.16995557 0.69300002 4294045689
-0.23157899 -0.17020175 0.69400001 4293782772
-0.23092358 -0.17069311 0.69599998 4294045943
-0.22993056 -0.17093919 0.69700003 4293849078
-0.22958967 -0.1716757 0.69999999 4293783285
-0.22858509 -0.1719216 0.70099998 4293388529
-0.22790092 -0.17241278 0.70300001 4293717494
-0.2268867 -0.17265858 0.704 4293453550
-0.22618905 -0.17314962 0.70599997 4293519599
-0.22516523 -0.17339534 0.70700002 4293453039
-0.33261314 -0.16460563 0.67799997 4294177779
-0.33036599 -0.16412976 0.676 4293717743
-0.32812595 -0.16365372 0.67400002 4293783537
-0.32686284 -0.16366307 0.67400002 4293454322
-0.32415006 -0.16294375 0.671 4293849080
-0.3228918 -0.1629528 0.671 4293783287
-0.32019511 -0.16223304 0.66799998 4294243838
-0.31894162 -0.16224171 0.66799998 4294177783
-0.31768778 -0.16225025 0.66799998 4294243576
