# .PCD v0.7 - Point Cloud Data file format
VERSION 0.7
FIELDS x y z rgba
SIZE 4 4 4 4
TYPE F F F U
COUNT 1 1 1 1
WIDTH 1090
HEIGHT 1
VIEWPOINT 0 0 0 1 0 0 0
POINTS 1090
DATA ascii
0.094704457 -0.14840092 0.73000002 4290821041
0.09609019 -0.14840204 0.73000002 4290821041
0.097075395 -0.14779331 0.727 4290951857
0.098184682 -0.14738789 0.72500002 4291017651
0.099561043 -0.14738902 0.72500002 4290886832
0.10121591 -0.14779681 0.727 4290886832
0.10259616 -0.14779797 0.727 4291083698
0.10397645 -0.14779918 0.727 4291083698
0.10535677 -0.14780037 0.727 4291083698
0.1071776 -0.14841151 0.73000002 4291215284
0.10856371 -0.14841273 0.73000002 4291478969
0.10994986 -0.14841397 0.73000002 4291544762
0.11133602 -0.14841521 0.73000002 4291544762
0.11241343 -0.14800984 0.72799999 4291544762
0.1137959 -0.14801107 0.72799999 4291610044
0.11517841 -0.14801235 0.72799999 4291610044
0.11640087 -0.14781031 0.727 4291544249
0.11778154 -0.14781156 0.727 4291807164
0.11883447 -0.14740621 0.72500002 4291807934
0.12021146 -0.14740747 0.72500002 4291742141
0.12158848 -0.14740877 0.72500002 4291742143
0.12296553 -0.14741004 0.72500002 4291742143
0.12434262 -0.14741132 0.72500002 4291872959
0.12571977 -0.14741261 0.72500002 4291872959
0.12744755 -0.14782056 0.727 4291807936
0.12882857 -0.14782184 0.727 4291807936
0.13020961 -0.14782315 0.727 4291939268
0.13159071 -0.14782445 0.727 4292005061
0.13297185 -0.14782573 0.727 4291808452
0.13435303 -0.14782703 0.727 4291808452
0.13573423 -0.14782834 0.727 4291939268
0.13673829 -0.14742297 0.72500002 4291939268
0.13811579 -0.14742425 0.72500002 4291938752
0.1394933 -0.14742555 0.72500002 4292267717
0.14184241 -0.14844358 0.73000002 4292136388
0.1432295 -0.14844486 0.73000002 4292004546
0.14461662 -0.14844614 0.73000002 4291742143
0.14600383 -0.14844744 0.73000002 4292005059
0.14678529 -0.14783867 0.727 4292005061
0.14816688 -0.14783993 0.727 4292005061
0.15037127 -0.14865462 0.73100001 4292070854
0.15176047 -0.14865589 0.73100001 4292005061
0.15314975 -0.14865717 0.73100001 4291808452
0.15496182 -0.14906514 0.73299998 4291874245
0.15699486 -0.14967647 0.736 4291939268
0.15839373 -0.14967772 0.736 4292005061
0.16022684 -0.1500857 0.73799998 4292070854
0.16162957 -0.15008695 0.73799998 4291939268
0.16303232 -0.15008818 0.73799998 4291742145
0.16465792 -0.15029277 0.73900002 4292070854
0.16606264 -0.15029398 0.73900002 4292005831
0.16724074 -0.15009177 0.73799998 4291940038
0.16864361 -0.15009296 0.73799998 4291808452
0.17004648 -0.15009411 0.73799998 4291874245
0.051610827 -0.15483853 0.76899999 4294110203
0.053069483 -0.15483914 0.76899999 4292863159
0.054386355 -0.15443712 0.76700002 4291020955
0.05562285 -0.15383373 0.764 4291283139
0.057072096 -0.15383445 0.764 4291611848
0.058368191 -0.15343247 0.76200002 4291676089
0.059813693 -0.1534332 0.76200002 4291478453
0.061178844 -0.15323259 0.76099998 4291281590
0.062457938 -0.15283066 0.759 4291150004
0.063561082 -0.152026 0.755 4290953141
0.064993426 -0.1520268 0.755 4290953141
0.066337824 -0.15182628 0.75400001 4291084211
0.0674088 -0.15102166 0.75 4291084211
0.06873998 -0.15082115 0.74900001 4291084209
0.069880031 -0.15021792 0.74599999 4291018416
0.071104318 -0.14981608 0.74400002 4291018418
0.072515979 -0.149817 0.74400002 4291018418
0.073927671 -0.14981788 0.74400002 4291017904
0.075136855 -0.14941606 0.74199998 4291083698
0.076544836 -0.14941703 0.74199998 4291017900
0.077847779 -0.14921664 0.741 4291017900
0.07925389 -0.14921761 0.741 4291017900
0.080442362 -0.14881586 0.73900002 4291017900
0.081734024 -0.14861549 0.73799998 4291148970
0.083134577 -0.14861649 0.73799998 4291148970
0.084306046 -0.14821474 0.736 4290821289
0.085702874 -0.1482158 0.736 4290755496
0.086863071 -0.14781411 0.73400003 4290886314
0.088256158 -0.14781518 0.73400003 4290952107
0.08952716 -0.14761487 0.73299998 4290952107
0.090918437 -0.14761595 0.73299998 4290886314
0.092309736 -0.14761706 0.73299998 4290821039
0.093445443 -0.1472154 0.73100001 4290821039
0.094833031 -0.14721651 0.73100001 4290821291
0.096220687 -0.14721765 0.73100001 4290755498
0.097474843 -0.14701743 0.73000002 4290821039
0.098860636 -0.14701858 0.73000002 4290821039
0.10038383 -0.14722115 0.73100001 4290821041
0.10135395 -0.14661813 0.72799999 4290821041
0.10273609 -0.14661932 0.72799999 4291017904
0.10411827 -0.1466205 0.72799999 4291083698
0.10550048 -0.1466217 0.72799999 4291083444
0.10717638 -0.14702572 0.73000002 4291017651
0.10856249 -0.14702696 0.73000002 4291215284
0.10994862 -0.14702821 0.73000002 4291412406
0.11133479 -0.14702941 0.73000002 4291412660
0.11272101 -0.14703067 0.73000002 4291215538
0.11410727 -0.14703193 0.73000002 4291478455
0.11549357 -0.14703318 0.73000002 4291544249
0.11687991 -0.14703445 0.73000002 4291478455
0.11794228 -0.14663287 0.72799999 4291544249
0.11932492 -0.14663413 0.72799999 4291610555
0.12070759 -0.14663543 0.72799999 4291742141
0.1220903 -0.14663671 0.72799999 4291676348
0.12330345 -0.14643657 0.727 4291676348
0.12468434 -0.14643785 0.727 4291676096
0.12606528 -0.14643915 0.727 4291676096
0.12744625 -0.14644043 0.727 4291742143
0.12882727 -0.14644173 0.727 4291742143
0.13020831 -0.14644302 0.727 4291939520
0.1317704 -0.14664574 0.72799999 4292005313
0.13315342 -0.14664704 0.72799999 4292005059
0.13453652 -0.14664835 0.72799999 4292005059
0.13591965 -0.14664967 0.72799999 4292005313
0.13767999 -0.14705384 0.73000002 4291742141
0.13906699 -0.14705516 0.73000002 4291938752
0.14045401 -0.14705645 0.73000002 4292004546
0.14203539 -0.14725918 0.73100001 4291938752
0.14342441 -0.14726047 0.73100001 4291938752
0.14481345 -0.14726177 0.73100001 4291807936
0.14620252 -0.14726306 0.73100001 4291939266
0.14738975 -0.1470629 0.73000002 4291939268
0.14877701 -0.14706418 0.73000002 4291807938
0.15098712 -0.1478713 0.73400003 4291807685
0.15175924 -0.14726821 0.73100001 4291807685
0.15314849 -0.14726944 0.73100001 4291939268
0.15517202 -0.1478751 0.73400003 4292005061
0.15699364 -0.14827928 0.736 4292005059
0.15882289 -0.14868346 0.73799998 4292005059
0.1602256 -0.14868471 0.73799998 4292005059
0.16162832 -0.14868595 0.73799998 4291939266
0.16325201 -0.14888866 0.73900002 4291808452
0.1646567 -0.14888988 0.73900002 4291808452
0.16606142 -0.14889106 0.73900002 4291743429
0.16746616 -0.14889225 0.73900002 4291743429
0.16864245 -0.14869197 0.73799998 4291677380
0.17004536 -0.14869314 0.73799998 4291677380
0.052930817 -0.15298061 0.76700002 4294178281
0.054385684 -0.15298125 0.76700002 4293783523
0.055622168 -0.15238357 0.764 4292139493
0.057071403 -0.15238428 0.764 4291152341
0.058367454 -0.15198605 0.76200002 4291675837
0.059812956 -0.15198681 0.76200002 4291610044
0.061258469 -0.15198755 0.76200002 4291216060
0.062704027 -0.15198833 0.76200002 4291018938
0.06372866 -0.15099181 0.75700003 4291083959
0.065164782 -0.15099263 0.75700003 4291018166
0.066424966 -0.15059452 0.755 4291018418
0.067767471 -0.15039589 0.75400001 4291018418
0.068830892 -0.14959888 0.75 4291018418
0.07016018 -0.14940029 0.74900001 4291018418
0.071581274 -0.14940117 0.74900001 4290887346
0.072807468 -0.14900313 0.74699998 4290821552
0.074125476 -0.14880459 0.74599999 4291083696
0.075135931 -0.14800762 0.74199998 4291149489
0.076543882 -0.14800858 0.74199998 4291148970
0.077846803 -0.14781006 0.741 4291148970
0.079252928 -0.14781104 0.741 4290886832
0.080659069 -0.14781201 0.741 4290821039
0.081843764 -0.14741409 0.73900002 4291017641
0.083133548 -0.14721562 0.73799998 4290951848
0.084305026 -0.14681768 0.736 4290885801
0.085701831 -0.14681871 0.736 4290885801
0.08709868 -0.14681979 0.736 4291016871
0.088495567 -0.14682086 0.736 4291082664
0.089648217 -0.14642297 0.73400003 4290886055
0.091041386 -0.14642407 0.73400003 4290886055
0.092308626 -0.14622565 0.73299998 4290623912
0.093444332 -0.14582779 0.73100001 4290689705
0.094831914 -0.14582892 0.73100001 4290755500
0.096219555 -0.14583005 0.73100001 4290755500
0.097607203 -0.14583118 0.73100001 4290755498
0.098994903 -0.14583234 0.73100001 4290821291
0.10038266 -0.14583352 0.73100001 4290755498
0.10177044 -0.1458347 0.73100001 4290821291
0.10315827 -0.14583588 0.73100001 4290821039
0.10440312 -0.14563757 0.73000002 4290886832
0.10578912 -0.14563878 0.73000002 4291017904
0.10717516 -0.14563999 0.73000002 4291017904
0.10870996 -0.1458407 0.73100001 4290952107
0.10994738 -0.14564243 0.73000002 4291346865
0.11133356 -0.1456437 0.73000002 4291412660
0.11271978 -0.14564492 0.73000002 4291346867
0.11410601 -0.14564615 0.73000002 4291412660
0.11549232 -0.14564741 0.73000002 4291412660
0.11687866 -0.14564869 0.73000002 4291412406
0.11826504 -0.14564994 0.73000002 4291478455
0.11965145 -0.14565122 0.73000002 4291347385
0.12103793 -0.1456525 0.73000002 4291544508
0.12242445 -0.14565377 0.73000002 4291676348
0.12330216 -0.1450565 0.727 4291676348
0.12468307 -0.14505778 0.727 4291478969
0.12606399 -0.14505905 0.727 4291544762
0.12744495 -0.14506035 0.727 4291676348
0.12882596 -0.14506164 0.727 4291676348
0.13038611 -0.14526246 0.72799999 4291676348
0.13213113 -0.14566286 0.73000002 4291676348
0.13351795 -0.14566414 0.73000002 4291610557
0.13490483 -0.14566545 0.73000002 4291676350
0.13629176 -0.14566676 0.73000002 4291676096
0.1378673 -0.14586759 0.73100001 4291676096
0.13925621 -0.14586891 0.73100001 4291676350
0.14064512 -0.14587019 0.73100001 4291676350
0.1420341 -0.14587151 0.73100001 4291610557
0.14342311 -0.1458728 0.73100001 4291742143
0.14481218 -0.1458741 0.73100001 4291611586
0.14620122 -0.14587536 0.73100001 4291611586
0.14759037 -0.14587666 0.73100001 4291808452
0.14897953 -0.14587793 0.73100001 4291742402
0.15098584 -0.14647791 0.73400003 4291479487
0.15238075 -0.14647917 0.73400003 4291545280
0.15377572 -0.14648044 0.73400003 4291676350
0.15559356 -0.14688085 0.736 4291742143
0.15741898 -0.14728123 0.73799998 4291807936
0.15882166 -0.14728248 0.73799998 4291742143
0.16022436 -0.14728372 0.73799998 4291545280
0.16184612 -0.14748454 0.73900002 4291676609
0.16325079 -0.14748576 0.73900002 4291611589
0.16465549 -0.14748698 0.73900002 4291677382
0.16606021 -0.14748819 0.73900002 4291677893
0.167465 -0.1474894 0.73900002 4291612100
0.16932678 -0.14788973 0.741 4291546560
0.05562149 -0.15093346 0.764 4293322225
0.057070684 -0.15093412 0.764 4290887627
0.058519922 -0.15093483 0.764 4290888131
0.060126178 -0.15133069 0.76599997 4291545805
0.061579268 -0.15133144 0.76599997 4291281594
0.062867805 -0.15093711 0.764 4291149752
0.064317152 -0.1509379 0.764 4291083959
0.065938704 -0.15133384 0.76599997 4291083959
0.066600092 -0.14955658 0.75700003 4291018166
0.067766622 -0.14896472 0.75400001 4291018166
0.069013573 -0.14857043 0.75199997 4290886835
0.070159309 -0.14797862 0.74900001 4290886835
0.071580388 -0.1479795 0.74900001 4290821552
0.07280656 -0.14758524 0.74699998 4290755759
0.07412456 -0.14738859 0.74599999 4290887084
0.075337522 -0.14699437 0.74400002 4290887084
0.076542936 -0.14660019 0.74199998 4291017639
0.077845834 -0.14640354 0.741 4291017639
0.079251945 -0.1464045 0.741 4290951857
0.080658078 -0.14640549 0.741 4290886064
0.081842758 -0.14601135 0.73900002 4290885801
0.083132528 -0.14581478 0.73799998 4290885801
0.084533073 -0.1458158 0.73799998 4290885801
0.085700795 -0.14542168 0.736 4290885801
0.087097622 -0.14542271 0.736 4290886055
0.088494495 -0.14542378 0.736 4290886055
0.089647129 -0.14502969 0.73400003 4290820006
0.091040276 -0.14503078 0.73400003 4290820006
0.09243346 -0.14503187 0.73400003 4290689190
0.093698874 -0.14483541 0.73299998 4290689190
0.09509024 -0.14483652 0.73299998 4290689192
0.096481644 -0.14483765 0.73299998 4290689192
0.097873099 -0.1448388 0.73299998 4290754983
0.099264577 -0.14483994 0.73299998 4290952361
0.10065614 -0.14484113 0.73299998 4290886566
0.10204767 -0.14484228 0.73299998 4290755237
0.1034393 -0.14484346 0.73299998 4290951594
0.10483097 -0.1448447 0.73299998 4290951594
0.10593282 -0.14445066 0.73100001 4291148459
0.10732076 -0.1444519 0.73100001 4291214252
0.10870873 -0.14445309 0.73100001 4291018154
0.11009676 -0.14445432 0.73100001 4291018154
0.11148483 -0.14445557 0.73100001 4291083696
0.11287293 -0.14445682 0.73100001 4291083696
0.11426107 -0.14445804 0.73100001 4291347115
0.11564926 -0.14445931 0.73100001 4291347115
0.11687738 -0.14426294 0.73000002 4291412658
0.11826378 -0.14426421 0.73000002 4291478451
0.11932237 -0.14387025 0.72799999 4291478204
0.12070504 -0.14387152 0.72799999 4291215032
0.12208774 -0.14387278 0.72799999 4291347383
0.1234705 -0.14387408 0.72799999 4291544762
0.12485328 -0.14387535 0.72799999 4291478967
0.1262361 -0.14387663 0.72799999 4291478967
0.12761897 -0.14387792 0.72799999 4291610805
0.1290019 -0.14387923 0.72799999 4291676598
0.13074301 -0.14427578 0.73000002 4291676602
0.13231084 -0.14447473 0.73100001 4291676602
0.13351667 -0.14427839 0.73000002 4291610553
0.13490354 -0.1442797 0.73000002 4291544760
0.13647716 -0.14447865 0.73100001 4291347388
0.13786599 -0.14447992 0.73100001 4291281594
0.1392549 -0.14448124 0.73100001 4291478715
0.14064384 -0.14448254 0.73100001 4291610557
0.1420328 -0.14448383 0.73100001 4291478715
0.14342181 -0.14448513 0.73100001 4291478715
0.14481086 -0.14448641 0.73100001 4291413694
0.14659995 -0.14488301 0.73299998 4291347901
0.14799288 -0.1448843 0.73299998 4291479485
0.14938585 -0.14488558 0.73299998 4291676863
0.15180737 -0.14587519 0.73799998 4291610303
0.15320988 -0.14587645 0.73799998 4291544510
0.15419346 -0.14548241 0.736 4291676602
0.15559228 -0.14548367 0.736 4291676602
0.15763102 -0.14607793 0.73900002 4291676348
0.15903562 -0.14607918 0.73900002 4291676348
0.16044024 -0.14608046 0.73900002 4291545280
0.16184489 -0.14608169 0.73900002 4291413694
0.16369137 -0.14647827 0.741 4291413444
0.16509987 -0.14647947 0.741 4291545030
0.16650842 -0.14648069 0.741 4291676609
0.16791701 -0.14648192 0.741 4291742402
0.16932562 -0.14648311 0.741 4291742656
0.17280793 -0.14826342 0.75 4291742656
0.05721939 -0.14987537 0.76599997 4289836734
0.058672391 -0.14987607 0.76599997 4290233518
0.060203936 -0.15007252 0.76700002 4291220413
0.061658904 -0.15007323 0.76700002 4291347647
0.063031606 -0.14987834 0.76599997 4291018938
0.064484723 -0.14987913 0.76599997 4291215032
0.065937884 -0.14987995 0.76599997 4291149239
0.066775225 -0.1485111 0.759 4291018164
0.067855656 -0.14772926 0.755 4291018164
0.069196261 -0.14753443 0.75400001 4290821806
0.070252098 -0.14675263 0.75 4290821806
0.07167507 -0.14675352 0.75 4290690736
0.073000595 -0.14655875 0.74900001 4290624943
0.074223004 -0.14616831 0.74699998 4290756011
0.07533659 -0.14558221 0.74400002 4290821804
0.07654199 -0.1451918 0.74199998 4290755498
0.077949926 -0.14519274 0.74199998 4290689705
0.079357907 -0.14519371 0.74199998 4290755248
0.08076594 -0.14519469 0.74199998 4290689455
0.08206325 -0.14500001 0.741 4290754213
0.0831315 -0.14441398 0.73799998 4290820006
0.084532045 -0.14441499 0.73799998 4290885801
0.08593262 -0.14441602 0.73799998 4290885801
0.087096564 -0.14402573 0.736 4290820006
0.088493414 -0.14402677 0.736 4290688419
0.089890324 -0.14402784 0.736 4290491043
0.091039203 -0.14363757 0.73400003 4290688421
0.092432357 -0.14363864 0.73400003 4290557349
0.093697757 -0.14344406 0.73299998 4290623399
0.095089115 -0.14344518 0.73299998 4290623397
0.096480511 -0.14344631 0.73299998 4290623397
0.097871952 -0.14344744 0.73299998 4290623397
0.099398859 -0.14364432 0.73400003 4290754983
0.10079227 -0.14364548 0.73400003 4290755237
0.10218572 -0.14364663 0.73400003 4290689444
0.10343812 -0.14345212 0.73299998 4290820006
0.10482976 -0.14345331 0.73299998 4290820006
0.10622144 -0.14345451 0.73299998 4290754215
0.10761318 -0.14345573 0.73299998 4290951594
0.10900495 -0.14345695 0.73299998 4290887084
0.11009552 -0.14306673 0.73100001 4290887084
0.1114836 -0.143068 0.73100001 4290886832
0.11287168 -0.14306921 0.73100001 4290821039
0.11425982 -0.14307044 0.73100001 4290952107
0.11564801 -0.14307171 0.73100001 4291017900
0.11687613 -0.14287725 0.73000002 4290952107
0.11826251 -0.1428785 0.73000002 4291017900
0.1193211 -0.14248833 0.72799999 4291215032
0.12070378 -0.1424896 0.72799999 4291149239
0.12208647 -0.14249085 0.72799999 4291018418
0.12346922 -0.14249216 0.72799999 4291215797
0.125195 -0.14288491 0.73000002 4291216564
0.12658162 -0.14288618 0.73000002 4291084979
0.12796828 -0.14288749 0.73000002 4291216049
0.129355 -0.14288877 0.73000002 4291216049
0.13074173 -0.14289005 0.73000002 4291281590
0.13267151 -0.14347857 0.73299998 4291281590
0.13369825 -0.14308839 0.73100001 4291347385
0.13508703 -0.14308968 0.73100001 4291347385
0.13684922 -0.14348248 0.73299998 4291347385
0.1382419 -0.14348379 0.73299998 4291347385
0.1392536 -0.14309359 0.73100001 4291478969
0.14064254 -0.1430949 0.73100001 4291347383
0.14203149 -0.14309618 0.73100001 4291346867
0.14381291 -0.14348899 0.73299998 4291412660
0.14520578 -0.1434903 0.73299998 4291478204
0.14679866 -0.14368732 0.73400003 4291478204
0.14799158 -0.14349286 0.73299998 4291478717
0.14938459 -0.14349416 0.73299998 4291544510
0.15180606 -0.14447424 0.73799998 4291478969
0.1532086 -0.14447549 0.73799998 4291544762
0.1546112 -0.1444768 0.73799998 4291479485
0.15601382 -0.14447808 0.73799998 4291282105
0.15762977 -0.14467511 0.73900002 4291281844
0.15903437 -0.14467637 0.73900002 4291544760
0.16087319 -0.14506915 0.741 4291610303
0.16228165 -0.14507039 0.741 4291347388
0.16435288 -0.14565898 0.74400002 4291478463
0.16621271 -0.14605175 0.74599999 4291544512
0.16763073 -0.14605296 0.74599999 4291610557
0.16927545 -0.14624998 0.74699998 4291676350
0.17069547 -0.14625117 0.74699998 4291544508
0.17280674 -0.14683971 0.75 4291544508
0.17469716 -0.14723249 0.75199997 4291807168
0.057218689 -0.14842156 0.76599997 4279512320
0.058671683 -0.14842226 0.76599997 4283524510
0.060203195 -0.14861676 0.76700002 4290695935
0.061658137 -0.14861749 0.76700002 4292071108
0.063113116 -0.14861828 0.76700002 4291215799
0.06456811 -0.14861907 0.76700002 4291149754
0.066023149 -0.14861988 0.76700002 4291149754
0.066774391 -0.14707053 0.759 4291018164
0.068034567 -0.14668383 0.75700003 4291018164
0.069287181 -0.14629714 0.755 4290821802
0.070625909 -0.14610423 0.75400001 4290887852
0.072056428 -0.14610511 0.75400001 4290887600
0.072999679 -0.14513715 0.74900001 4290821806
0.074420802 -0.14513806 0.74900001 4290821804
0.075335652 -0.14417011 0.74400002 4290756011
0.076747358 -0.14417104 0.74400002 4290755246
0.078159079 -0.14417198 0.74400002 4290689453
0.079570845 -0.14417297 0.74400002 4290755500
0.080764934 -0.14378637 0.74199998 4290623658
0.082172975 -0.14378735 0.74199998 4290688417
0.083468415 -0.14359459 0.741 4290820260
0.084645554 -0.14320803 0.73900002 4290886053
0.086048029 -0.14320908 0.73900002 4290820260
0.087332189 -0.14301634 0.73799998 4290820260
0.088492356 -0.14262983 0.736 4290688417
0.089889236 -0.14263089 0.736 4290491045
0.0910381 -0.14224438 0.73400003 4290491045
0.092431262 -0.14224547 0.73400003 4290491558
0.093696646 -0.14205277 0.73299998 4290557351
0.09508799 -0.14205389 0.73299998 4290426787
0.096611001 -0.14224881 0.73400003 4290426787
0.098004334 -0.14224996 0.73400003 4290427299
0.099668548 -0.14263873 0.736 4290427299
0.10106574 -0.14263989 0.736 4290557855
0.10246299 -0.14264105 0.736 4290623649
0.10357805 -0.14225464 0.73400003 4290623397
0.10497158 -0.14225581 0.73400003 4290623397
0.10622022 -0.1420632 0.73299998 4290754215
0.10761195 -0.14206439 0.73299998 4290754215
0.10900372 -0.14206563 0.73299998 4290886055
0.11009431 -0.14167921 0.73100001 4291017641
0.11148237 -0.14168045 0.73100001 4290623406
0.11317925 -0.1420693 0.73299998 4290557613
0.11425859 -0.14168292 0.73100001 4290821289
0.11564675 -0.14168416 0.73100001 4290821289
0.11703497 -0.14168541 0.73100001 4290754735
0.11826124 -0.14149286 0.73000002 4290754735
0.11931984 -0.14110646 0.72799999 4290886066
0.12070251 -0.14110774 0.72799999 4290754481
0.12208518 -0.14110899 0.72799999 4290952111
0.12346793 -0.14111027 0.72799999 4291083698
0.12519372 -0.14149924 0.73000002 4291018668
0.12658033 -0.1415005 0.73000002 4291084461
0.12814228 -0.14169562 0.73100001 4290953393
0.12935369 -0.14150308 0.73000002 4290953393
0.13074043 -0.14150436 0.73000002 4291084211
0.13285121 -0.14228104 0.73400003 4291150004
0.13406274 -0.14208847 0.73299998 4291215797
0.13545531 -0.14208977 0.73299998 4291281590
0.13684794 -0.14209111 0.73299998 4291347637
0.13842919 -0.14228626 0.73400003 4291347637
0.13925229 -0.14170599 0.73100001 4291478453
0.14064124 -0.14170729 0.73100001 4291478453
0.14241879 -0.14209628 0.73299998 4291346615
0.1440078 -0.14229144 0.73400003 4291215286
0.14540258 -0.14229275 0.73400003 4291215545
0.14679736 -0.14229402 0.73400003 4291083959
0.148596 -0.14268303 0.736 4291281594
0.15040226 -0.14307205 0.73799998 4291478717
0.15180477 -0.14307331 0.73799998 4291347637
0.15320735 -0.14307463 0.73799998 4291478967
0.15481943 -0.14326976 0.73900002 4291347388
0.15622397 -0.14327104 0.73900002 4291149752
0.15805511 -0.14366004 0.741 4291150002
0.15946351 -0.14366129 0.741 4291347637
0.16087195 -0.14366256 0.741 4291347388
0.16249941 -0.14385767 0.74199998 4291347388
0.16479345 -0.14463443 0.74599999 4291347134
0.16643427 -0.14482956 0.74699998 4291478463
0.16785425 -0.14483076 0.74699998 4291610303
0.16927423 -0.14483197 0.74699998 4291676096
0.17115128 -0.14522095 0.74900001 4291544510
0.17280558 -0.14541605 0.75 4291544510
0.17469597 -0.14580499 0.75199997 4291806664
0.17612557 -0.14580616 0.75199997 4292398802
0.060908869 -0.14888787 0.77600002 4291154853
0.062380873 -0.14888863 0.77600002 4292268489
0.06344147 -0.14793004 0.77100003 4291478717
0.06456732 -0.14716338 0.76700002 4291281592
0.066022336 -0.14716418 0.76700002 4291215799
0.066949524 -0.14601377 0.76099998 4290953141
0.068033732 -0.14524713 0.75700003 4290953141
0.069469862 -0.14524797 0.75700003 4290953393
0.070718698 -0.14486507 0.755 4290887600
0.07215111 -0.14486594 0.755 4290953395
0.073096246 -0.14390746 0.75 4290953395
0.074419886 -0.1437165 0.74900001 4290821552
0.07584101 -0.14371742 0.74900001 4290755759
0.076952711 -0.14314272 0.74599999 4290755246
0.078368224 -0.14314367 0.74599999 4290755246
0.079569869 -0.14276087 0.74400002 4290755246
0.080981657 -0.14276186 0.74400002 4290623660
0.082171984 -0.14237906 0.74199998 4290820006
0.083467409 -0.14218819 0.741 4290820006
0.084873609 -0.1421892 0.741 4290885801
0.086279854 -0.14219025 0.741 4290754215
0.087804474 -0.14238319 0.74199998 4290688167
0.089092448 -0.14219232 0.741 4290688167
0.09049882 -0.14219342 0.741 4290491043
0.091905206 -0.14219449 0.741 4290491043
0.093059801 -0.14181182 0.73900002 4290425765
0.094462506 -0.14181292 0.73900002 4290491558
0.09573549 -0.14162213 0.73799998 4290360740
0.097136363 -0.14162327 0.73799998 4290360740
0.098537266 -0.14162442 0.73799998 4290360994
0.099938214 -0.14162555 0.73799998 4290360994
0.10106457 -0.14124291 0.736 4290295199
0.10246179 -0.14124407 0.736 4290360992
0.10357687 -0.14086145 0.73400003 4290557603
0.10497039 -0.14086263 0.73400003 4290557603
0.10621903 -0.14067191 0.73299998 4290688419
0.10761075 -0.1406731 0.73299998 4290688419
0.10900249 -0.14067432 0.73299998 4290688421
0.1103943 -0.14067554 0.73299998 4290688421
0.11178613 -0.14067677 0.73299998 4290688167
0.11317802 -0.140678 0.73299998 4290753961
0.11456995 -0.14067924 0.73299998 4290755500
0.11596192 -0.14068051 0.73299998 4290689451
0.11735393 -0.14068176 0.73299998 4290557865
0.11842198 -0.14029916 0.73100001 4290557865
0.11981028 -0.14030041 0.73100001 4290688938
0.12103284 -0.14010973 0.73000002 4290688938
0.12241933 -0.14011103 0.73000002 4290950826
0.12380586 -0.14011231 0.73000002 4290950826
0.12519242 -0.14011356 0.73000002 4290754215
0.12675245 -0.1403068 0.73100001 4290885801
0.128141 -0.14030807 0.73100001 4290887086
0.1295296 -0.14030936 0.73100001 4291084209
0.13181372 -0.14127037 0.736 4290953141
0.13321191 -0.14127167 0.736 4290953141
0.13461015 -0.14127296 0.736 4291018418
0.13563883 -0.14089037 0.73400003 4291018418
0.13703333 -0.14089169 0.73400003 4291083948
0.13842788 -0.14089297 0.73400003 4291083948
0.13963199 -0.14070231 0.73299998 4291083948
0.14102472 -0.1407036 0.73299998 4291083948
0.14300041 -0.14128079 0.736 4290886835
0.14439893 -0.14128207 0.736 4290821041
0.14619365 -0.14166728 0.73799998 4291215284
0.14759606 -0.14166859 0.73799998 4291215284
0.14920041 -0.14186186 0.73900002 4291149493
0.15060481 -0.14186314 0.73900002 4291215286
0.1520092 -0.14186442 0.73900002 4291215538
0.15341367 -0.1418657 0.73900002 4291215538
0.15523715 -0.14225091 0.741 4291215284
0.15685688 -0.14244413 0.74199998 4291412406
0.15869375 -0.14282937 0.74400002 4291281590
0.16010787 -0.14283064 0.74400002 4291347383
0.16152199 -0.14283189 0.74400002 4291347385
0.16293618 -0.14283314 0.74400002 4291347385
0.16501309 -0.14341031 0.74699998 4291347388
0.16687866 -0.14379553 0.74900001 4291347388
0.16830243 -0.14379676 0.74900001 4291347388
0.16972624 -0.14379796 0.74900001 4291478717
0.17137861 -0.14399119 0.75 4291282108
0.17326519 -0.14437634 0.75199997 4291347901
0.17469481 -0.14437751 0.75199997 4291872711
0.17612444 -0.14437869 0.75199997 4292135884
0.060908128 -0.14741515 0.77600002 4288007092
0.062380109 -0.14741589 0.77600002 4291875530
0.063687541 -0.14703672 0.77399999 4291151551
0.064734876 -0.14608765 0.76899999 4291216310
0.066021524 -0.14570853 0.76700002 4291216310
0.067212619 -0.14513941 0.764 4291018934
0.068212636 -0.14419039 0.759 4290953141
0.06965255 -0.14419124 0.759 4291018164
0.070905164 -0.14381213 0.75700003 4290886835
0.072341353 -0.14381303 0.75700003 4291083696
0.073290266 -0.14286402 0.75199997 4291083696
0.074717045 -0.14286493 0.75199997 4290886832
0.075941332 -0.14248589 0.75 4290821039
0.077054933 -0.14191689 0.74699998 4290755761
0.078472324 -0.14191782 0.74699998 4290624432
0.079889737 -0.14191876 0.74699998 4290623406
0.081198357 -0.14172977 0.74599999 4290623406
0.082392476 -0.14135081 0.74400002 4290623658
0.083804332 -0.14135182 0.74400002 4290623658
0.085216202 -0.1413528 0.74400002 4290820006
0.086628132 -0.14135385 0.74400002 4290557090
0.088040091 -0.14135489 0.74400002 4290491047
0.089452088 -0.14135596 0.74400002 4290491047
0.090864122 -0.14135703 0.74400002 4290425504
0.092028163 -0.14097811 0.74199998 4290491297
0.093436465 -0.14097922 0.74199998 4290425765
0.094717026 -0.14079031 0.741 4290294436
0.095734373 -0.14022143 0.73799998 4290294436
0.097135216 -0.14022255 0.73799998 4290294436
0.098536134 -0.1402237 0.73799998 4290491806
0.099937037 -0.14022481 0.73799998 4290491806
0.10106342 -0.13984598 0.736 4290491808
0.10246063 -0.13984716 0.736 4290294686
0.1035757 -0.13946831 0.73400003 4290491556
0.1049692 -0.13946947 0.73400003 4290425763
0.10621784 -0.13928066 0.73299998 4290491297
0.10760954 -0.13928184 0.73299998 4290557090
0.10900129 -0.13928308 0.73299998 4290556838
0.11039308 -0.13928425 0.73299998 4290556838
0.11178491 -0.1392855 0.73299998 4290491558
0.11317679 -0.13928671 0.73299998 4290491558
0.1145687 -0.13928796 0.73299998 4290491558
0.11611886 -0.13947925 0.73400003 4290425765
0.11751276 -0.13948047 0.73400003 4290491558
0.11874471 -0.1392917 0.73299998 4290623145
0.12013679 -0.13929296 0.73299998 4290688419
0.12119737 -0.13891417 0.73100001 4290688419
0.12258575 -0.13891545 0.73100001 4290557351
0.12482214 -0.13986689 0.736 4290623145
0.12622012 -0.13986816 0.736 4290426535
0.12761812 -0.13986945 0.736 4290426535
0.12936676 -0.14025082 0.73799998 4290492590
0.13076866 -0.14025213 0.73799998 4290624432
0.1321706 -0.14025342 0.73799998 4290558383
0.13357256 -0.14025471 0.73799998 4290492590
0.13460882 -0.13987593 0.736 4290755248
0.1360071 -0.13987723 0.736 4290886835
0.13740543 -0.13987853 0.736 4290887084
0.13880378 -0.13987984 0.736 4291018414
0.14020216 -0.13988112 0.736 4291083696
0.14198539 -0.14026253 0.73799998 4291017902
0.14338768 -0.14026384 0.73799998 4290821041
0.14478998 -0.14026511 0.73799998 4290755248
0.14639047 -0.1404565 0.73900002 4291084461
0.14779477 -0.14045779 0.73900002 4291216047
0.14919911 -0.14045908 0.73900002 4291149491
0.1506035 -0.14046037 0.73900002 4291149491
0.15241933 -0.14084178 0.741 4291215286
0.15382758 -0.14084308 0.741 4291215286
0.15523587 -0.14084433 0.741 4291215032
0.1568556 -0.14103568 0.74199998 4291346617
0.15869249 -0.1414171 0.74400002 4291478455
0.16010658 -0.14141837 0.74400002 4291478455
0.16152076 -0.14141963 0.74400002 4291347383
0.16337293 -0.14180103 0.74599999 4291215797
0.16501185 -0.14199236 0.74699998 4291347385
0.16687742 -0.14237377 0.74900001 4291347385
0.1685259 -0.14256507 0.75 4291347388
0.16995163 -0.14256628 0.75 4291281594
0.17137739 -0.14256752 0.75 4291083961
0.17280319 -0.14256871 0.75 4291478463
0.174229 -0.14256987 0.75 4291281856
0.062379345 -0.14594324 0.77600002 4292273911
0.063686766 -0.14556785 0.77399999 4291089381
0.064902455 -0.14500444 0.77100003 4290626488
0.066192858 -0.14462906 0.76899999 4290824124
0.067387745 -0.14406565 0.76599997 4291018934
0.068661153 -0.14369035 0.764 4291018934
0.069927007 -0.14331505 0.76200002 4290886835
0.071372613 -0.1433159 0.76200002 4291018164
0.072531603 -0.14275254 0.759 4291149491
0.073484294 -0.14181302 0.75400001 4291149491
0.07491485 -0.14181393 0.75400001 4290886832
0.075940415 -0.14106251 0.75 4290886832
0.077260293 -0.14087537 0.74900001 4290887348
0.078681469 -0.14087632 0.74900001 4290755761
0.079888768 -0.14050108 0.74699998 4290558383
0.081197374 -0.140314 0.74599999 4290492590
0.082391478 -0.1399388 0.74400002 4290557613
0.083803318 -0.1399398 0.74400002 4290557613
0.085215189 -0.13994083 0.74400002 4290556838
0.086627088 -0.13994183 0.74400002 4290425252
0.088039041 -0.13994287 0.74400002 4290491045
0.08945103 -0.13994393 0.74400002 4290425252
0.091107309 -0.1403212 0.74599999 4290425250
0.092275128 -0.13994607 0.74400002 4290425250
0.093435369 -0.13957095 0.74199998 4290294182
0.094843745 -0.13957207 0.74199998 4290228389
0.096122414 -0.13938507 0.741 4290228387
0.09726572 -0.13901001 0.73900002 4290228387
0.098534979 -0.138823 0.73799998 4290097052
0.099935904 -0.13882416 0.73799998 4290162846
0.10106225 -0.1384491 0.736 4290228641
0.10245949 -0.13845026 0.736 4290228641
0.10385673 -0.13845143 0.736 4290425250
0.10525404 -0.13845262 0.736 4290359457
0.10621665 -0.13788944 0.73299998 4290293664
0.10760835 -0.13789065 0.73299998 4290491043
0.10900009 -0.13789184 0.73299998 4290425763
0.11039186 -0.13789304 0.73299998 4290425763
0.11178368 -0.13789426 0.73299998 4290425763
0.11317556 -0.13789548 0.73299998 4290425763
0.11472376 -0.13808484 0.73400003 4290294434
0.11611763 -0.13808608 0.73400003 4290294434
0.11751152 -0.13808733 0.73400003 4290294434
0.11890547 -0.13808858 0.73400003 4290294434
0.12029944 -0.13808984 0.73400003 4290294436
0.12169349 -0.1380911 0.73400003 4290294436
0.12426142 -0.13940932 0.741 4290294436
0.12516007 -0.1388462 0.73799998 4290425765
0.12656182 -0.13884747 0.73799998 4290491558
0.12796363 -0.13884877 0.73799998 4290557351
0.12954077 -0.13903821 0.73900002 4290491558
0.13076738 -0.13885134 0.73799998 4290557351
0.13216931 -0.13885263 0.73799998 4290623658
0.13357128 -0.13885392 0.73799998 4290623658
0.1349733 -0.13885522 0.73799998 4290689451
0.13600579 -0.1384802 0.736 4290689451
0.13740414 -0.13848151 0.736 4290623912
0.13917966 -0.13885911 0.73799998 4290689705
0.14058185 -0.1388604 0.73799998 4290885801
0.14198409 -0.13886172 0.73799998 4290951594
0.14338638 -0.13886301 0.73799998 4290624430
0.1447887 -0.13886431 0.73799998 4290624430
0.14638917 -0.13905378 0.73900002 4290821039
0.14819345 -0.13943139 0.741 4290821039
0.14960162 -0.13943268 0.741 4290951344
0.1510098 -0.13943397 0.741 4291017137
0.15241805 -0.13943526 0.741 4291083446
0.15382628 -0.13943653 0.741 4291149239
0.15523461 -0.13943781 0.741 4291083957
0.15685435 -0.13962726 0.74199998 4291150006
0.15869124 -0.14000489 0.74400002 4291150004
0.16053574 -0.1403825 0.74599999 4291150004
0.16217077 -0.14057191 0.74699998 4291150006
0.16402867 -0.14094952 0.74900001 4291083957
0.16545242 -0.14095077 0.74900001 4290953143
0.167099 -0.14114021 0.75 4291084729
0.16852468 -0.14114144 0.75 4291084983
0.16995043 -0.14114265 0.75 4290953141
0.1713762 -0.14114384 0.75 4291149241
0.17280199 -0.14114504 0.75 4291477950
0.17422783 -0.14114624 0.75 4290953656
0.067386918 -0.142612 0.76599997 4291084211
0.068840049 -0.14261283 0.76599997 4291084211
0.070109688 -0.14224133 0.764 4291083959
0.071371756 -0.14186983 0.76200002 4291018166
0.072721832 -0.14168452 0.76099998 4291018164
0.074165605 -0.14168541 0.76099998 4291018164
0.075212009 -0.14094158 0.75700003 4290886832
0.076445766 -0.14057012 0.755 4290886832
0.077362508 -0.13964012 0.75 4290887346
0.078785554 -0.13964105 0.75 4290755759
0.080101699 -0.13945583 0.74900001 4290623410
0.081522927 -0.13945679 0.74900001 4290557361
0.082722701 -0.1390854 0.74699998 4290426286
0.084140234 -0.13908641 0.74699998 4290426286
0.085557766 -0.13908742 0.74699998 4290688167
0.086975351 -0.13908844 0.74699998 4290556838
0.08839298 -0.13908948 0.74699998 4290425252
0.089810655 -0.13909054 0.74699998 4290425252
0.091106236 -0.13890541 0.74599999 4290293412
0.09227404 -0.13853408 0.74400002 4290359205
0.093434274 -0.13816276 0.74199998 4290294184
0.094842635 -0.13816385 0.74199998 4290162342
0.096121304 -0.13797875 0.741 4290096803
0.097264588 -0.13760747 0.73900002 4290096803
0.098533846 -0.13742238 0.73799998 4290096798
0.099934772 -0.13742352 0.73799998 4290096798
0.10106111 -0.13705225 0.736 4290096801
0.10245832 -0.1370534 0.736 4290096801
0.10385557 -0.13705456 0.736 4290096801
0.10553886 -0.13742816 0.73799998 4290096801
0.10665018 -0.13705692 0.736 4290293410
0.10804757 -0.13705812 0.736 4290425252
0.109445 -0.13705933 0.736 4290359455
0.11054127 -0.1366881 0.73400003 4290293662
0.11193497 -0.13668929 0.73400003 4290294432
0.11332873 -0.13669053 0.73400003 4290228639
0.11472253 -0.13669175 0.73400003 4290162594
0.11643277 -0.13706543 0.736 4290162594
0.11783045 -0.13706668 0.736 4290096801
0.11922821 -0.13706793 0.736 4290096801
0.12062598 -0.13706917 0.736 4290096803
0.12235539 -0.13744292 0.73799998 4290162596
0.12392476 -0.13763042 0.73900002 4290228387
0.12532839 -0.13763171 0.73900002 4290294436
0.12656055 -0.13744673 0.73799998 4290491810
0.12796235 -0.13744803 0.73799998 4290491810
0.12936418 -0.13744928 0.73799998 4290491556
0.13076609 -0.13745059 0.73799998 4290491556
0.13216801 -0.13745186 0.73799998 4290557351
0.13356999 -0.13745315 0.73799998 4290623145
0.13497202 -0.13745447 0.73799998 4290754983
0.13637409 -0.13745575 0.73799998 4290754983
0.13777621 -0.13745704 0.73799998 4290623658
0.13917837 -0.13745834 0.73799998 4290557865
0.14058055 -0.13745965 0.73799998 4290688938
0.14198279 -0.13746093 0.73799998 4290886316
0.14357939 -0.13764851 0.73900002 4290689705
0.1449836 -0.13764977 0.73900002 4290689705
0.14678407 -0.1380236 0.741 4290689455
0.14839216 -0.13821115 0.74199998 4290689455
0.14980221 -0.13821244 0.74199998 4290886066
0.15121229 -0.13821372 0.74199998 4290886066
0.15262243 -0.13821501 0.74199998 4290951859
0.15444778 -0.13858882 0.74400002 4291083446
0.15586182 -0.13859011 0.74400002 4291083444
0.15727589 -0.13859139 0.74400002 4291083444
0.15868996 -0.13859265 0.74400002 4291018418
0.16053449 -0.13896647 0.74599999 4291084211
0.16216953 -0.13915399 0.74699998 4291018164
0.16402744 -0.13952783 0.74900001 4291018164
0.16545118 -0.13952908 0.74900001 4290953141
0.16709776 -0.1397166 0.75 4291018934
0.16852346 -0.13971782 0.75 4291150002
0.17040241 -0.14009161 0.75199997 4291084209
0.171832 -0.14009281 0.75199997 4290952889
0.17280081 -0.13972141 0.75 4290097836
0.17422666 -0.1397226 0.75 4289508749
0.068839215 -0.14115922 0.76599997 4291215284
0.070292361 -0.14116009 0.76599997 4291150006
0.071370892 -0.1404238 0.76200002 4291150006
0.072816513 -0.14042467 0.76200002 4290887350
0.074164711 -0.14024128 0.76099998 4290887350
0.075409807 -0.13987361 0.759 4290821804
0.076444834 -0.13913737 0.755 4290756011
0.077567868 -0.13858542 0.75199997 4290755761
0.0787846 -0.13821778 0.75 4290624432
0.080207683 -0.13821875 0.75 4290426545
0.081630789 -0.1382197 0.75 4290492338
0.083053939 -0.13822068 0.75 4290557102
0.084477134 -0.1382217 0.75 4290557102
0.085785821 -0.13803841 0.74900001 4290688167
0.087207191 -0.13803943 0.74900001 4290491045
0.088391937 -0.13767186 0.74699998 4290424998
0.089809597 -0.13767292 0.74699998 4290424998
0.091105163 -0.13748968 0.74599999 4290162594
0.092521004 -0.13749075 0.74599999 4290162594
0.093685038 -0.13712323 0.74400002 4290162342
0.095097184 -0.13712431 0.74400002 4290096549
0.096249893 -0.13675679 0.74199998 4290031009
0.097658306 -0.13675791 0.74199998 4290031009
0.09893328 -0.13657475 0.741 4290031005
0.10006904 -0.13620725 0.73900002 4290096798
0.10147189 -0.1362084 0.73900002 4290096798
0.10287479 -0.13620956 0.73900002 4290096798
0.10427771 -0.13621069 0.73900002 4290096801
0.10553768 -0.13602756 0.73799998 4290031007
0.106649 -0.1356601 0.736 4290227617
0.10804637 -0.13566129 0.736 4290227617
0.10944379 -0.13566248 0.736 4290096798
0.11084126 -0.1356637 0.736 4290096798
0.11223875 -0.1356649 0.736 4290228641
0.1136363 -0.13566612 0.736 4290228641
0.1150339 -0.13566735 0.736 4290096801
0.11643153 -0.13566858 0.736 4290096801
0.11814941 -0.13603848 0.73799998 4290096803
0.11955093 -0.13603972 0.73799998 4289964960
0.12095249 -0.13604096 0.73799998 4290031009
0.12235414 -0.13604225 0.73799998 4290096803
0.1239235 -0.13622785 0.73900002 4290096801
0.1253271 -0.13622911 0.73900002 4290096801
0.12655926 -0.13604602 0.73799998 4289966496
0.12796107 -0.13604732 0.73799998 4290098338
0.1293629 -0.13604859 0.73799998 4290228900
0.1307648 -0.13604987 0.73799998 4290228900
0.13216671 -0.13605115 0.73799998 4290294182
0.13374971 -0.13623682 0.73900002 4290425511
0.13497072 -0.13605374 0.73799998 4290163877
0.13637279 -0.13605501 0.73799998 4290163877
0.13777491 -0.1360563 0.73799998 4290426538
0.13917707 -0.13605759 0.73799998 4290557867
0.14076976 -0.13624325 0.73900002 4290557865
0.14217392 -0.13624454 0.73900002 4290623658
0.14357808 -0.13624583 0.73900002 4290623658
0.1453747 -0.13661584 0.741 4290689451
0.14737703 -0.13717026 0.74400002 4290689451
0.14879085 -0.13717154 0.74400002 4290689451
0.15020469 -0.1371728 0.74400002 4290754994
0.15161861 -0.13717411 0.74400002 4290754994
0.15303254 -0.13717538 0.74400002 4290886066
0.1548617 -0.13754544 0.74599999 4291017653
0.15627952 -0.13754669 0.74599999 4290886835
0.15769738 -0.13754795 0.74599999 4290886835
0.15932858 -0.13773361 0.74699998 4290886832
0.16074841 -0.13773486 0.74699998 4290886832
0.16216828 -0.13773611 0.74699998 4290886835
0.16402619 -0.13810612 0.74900001 4290821041
0.16544993 -0.13810737 0.74900001 4290689455
0.16709653 -0.138293 0.75 4290821041
0.16942105 -0.13903181 0.75400001 4290821041
0.17040122 -0.13866423 0.75199997 4291083957
0.17183079 -0.13866542 0.75199997 4290624439
0.17326041 -0.13866661 0.75199997 4289111200
0.074261278 -0.13897957 0.76200002 4290821557
0.075607598 -0.13879806 0.76099998 4290821289
0.076848924 -0.13843422 0.759 4290755496
0.077566937 -0.13715839 0.75199997 4290755761
0.07899376 -0.13715933 0.75199997 4290624432
0.080206737 -0.13679549 0.75 4290623156
0.081629828 -0.13679646 0.75 4290623156
0.083052956 -0.13679743 0.75 4290557104
0.084476121 -0.13679843 0.75 4290491054
0.085784808 -0.13661705 0.74900001 4290425511
0.087206163 -0.13661803 0.74900001 4290162596
0.088627562 -0.13661909 0.74900001 4290293412
0.090048991 -0.13662012 0.74900001 4290359205
0.091226235 -0.1362564 0.74699998 4290162596
0.092519924 -0.13607503 0.74599999 4290096803
0.093683958 -0.13571133 0.74400002 4289964710
0.095096067 -0.13571239 0.74400002 4289964710
0.096508227 -0.13571349 0.74400002 4289899167
0.097920433 -0.13571464 0.74400002 4289899167
0.098932132 -0.13516849 0.741 4289899421
0.10033872 -0.13516961 0.741 4289965214
0.10174536 -0.13517077 0.741 4290031259
0.10315204 -0.13517192 0.741 4290097052
0.10455874 -0.13517307 0.741 4290097052
0.10525051 -0.13426214 0.736 4289965466
0.10664783 -0.13426331 0.736 4289964960
0.10804519 -0.13426448 0.736 4289964960
0.10944258 -0.13426568 0.736 4289965214
0.11084004 -0.13426688 0.736 4290031007
0.11223754 -0.13426809 0.736 4290031259
0.11363508 -0.13426928 0.736 4290097052
0.11534525 -0.13463537 0.73799998 4290031005
0.1167467 -0.1346366 0.73799998 4289965212
0.11814816 -0.13463785 0.73799998 4289964960
0.11954968 -0.13463907 0.73799998 4289899167
0.12111516 -0.13482279 0.73900002 4289964960
0.12251869 -0.13482404 0.73900002 4290096803
0.12425761 -0.13519017 0.741 4290096801
0.12532583 -0.13482654 0.73900002 4290031007
0.12672949 -0.13482782 0.73900002 4290096801
0.12813318 -0.13482907 0.73900002 4290228387
0.12988751 -0.13519529 0.741 4290096549
0.13076352 -0.13464916 0.73799998 4289964962
0.13216546 -0.13465047 0.73799998 4290228389
0.13374841 -0.1348342 0.73900002 4290425511
0.13496944 -0.13465302 0.73799998 4290228902
0.13637152 -0.13465431 0.73799998 4290228902
0.13777362 -0.13465557 0.73799998 4290491560
0.13917579 -0.13465689 0.73799998 4290623147
0.14076847 -0.13484062 0.73900002 4290557349
0.14217262 -0.13484189 0.73900002 4290491556
0.14396536 -0.13520811 0.741 4290557865
0.1453734 -0.13520941 0.741 4290689451
0.14777191 -0.13612305 0.74599999 4290623658
0.1491895 -0.13612433 0.74599999 4290623658
0.15060717 -0.13612561 0.74599999 4290754994
0.15202489 -0.13612692 0.74599999 4290689201
0.15344265 -0.13612819 0.74599999 4290754996
0.15486042 -0.13612945 0.74599999 4290820789
0.15648773 -0.1363132 0.74699998 4290951857
0.15790749 -0.13631447 0.74699998 4290951857
0.15975389 -0.13668071 0.74900001 4290952111
0.16117756 -0.13668196 0.74900001 4290952111
0.16260122 -0.13668321 0.74900001 4290821043
0.16424397 -0.13686697 0.75 4290754994
0.16566959 -0.13686818 0.75 4290755248
0.1670953 -0.13686942 0.75 4290886835
0.16964449 -0.13778311 0.755 4290756013
0.17085318 -0.13760182 0.75400001 4290361255
0.17228658 -0.13760303 0.75400001 4289638048
0.077566028 -0.13573141 0.75199997 4290821041
0.078992814 -0.13573234 0.75199997 4290689455
0.080205776 -0.1353723 0.75 4290623410
0.081628852 -0.13537325 0.75 4290623410
0.083051972 -0.13537422 0.75 4290426286
0.084475137 -0.13537523 0.75 4290360492
0.085783802 -0.1351957 0.74900001 4290425511
0.087205142 -0.13519673 0.74900001 4290294182
0.088626534 -0.13519774 0.74900001 4290228389
0.090047948 -0.1351988 0.74900001 4290228389
0.091469415 -0.13519984 0.74900001 4290096801
0.092642881 -0.13483989 0.74699998 4290096801
0.093934692 -0.13466045 0.74599999 4289899167
0.095094986 -0.13430052 0.74400002 4289899167
0.096507125 -0.13430162 0.74400002 4289899167
0.097919323 -0.13430272 0.74400002 4289899167
0.099064514 -0.13394278 0.74199998 4289899421
0.100473 -0.13394393 0.74199998 4289899421
0.10188153 -0.13394508 0.74199998 4289899671
0.10329008 -0.1339462 0.74199998 4289899671
0.10469869 -0.13394736 0.74199998 4289899419
0.10524935 -0.13286538 0.736 4289965212
0.10664663 -0.13286655 0.736 4289899421
0.108044 -0.13286774 0.736 4289899421
0.1097388 -0.13322997 0.73799998 4289899421
0.11114003 -0.13323115 0.73799998 4289899421
0.11254133 -0.13323236 0.73799998 4289899421
0.11394267 -0.13323358 0.73799998 4289899421
0.11550032 -0.13341533 0.73900002 4289899419
0.11690366 -0.13341653 0.73900002 4289899419
0.11830703 -0.13341779 0.73900002 4289899167
0.11971045 -0.13341902 0.73900002 4289899167
0.1211139 -0.13342024 0.73900002 4289899421
0.12251742 -0.13342151 0.73900002 4289899421
0.12425634 -0.13378385 0.741 4289637533
0.12566376 -0.1337851 0.741 4289834911
0.1270712 -0.13378638 0.741 4289834398
0.12847869 -0.13378765 0.741 4289900191
0.13006149 -0.13396946 0.74199998 4290030496
0.1312938 -0.13379019 0.741 4290096289
0.13270143 -0.13379145 0.741 4290162596
0.13410909 -0.13379273 0.741 4290228389
0.13515104 -0.13343291 0.73900002 4290228389
0.13655502 -0.13343418 0.73900002 4290228389
0.13795905 -0.13343547 0.73900002 4290294182
0.1393631 -0.13343674 0.73900002 4290425511
0.14114815 -0.13379915 0.741 4290425765
0.1425561 -0.13380045 0.741 4290491558
0.14415838 -0.13398227 0.74199998 4290556838
0.14556831 -0.13398357 0.74199998 4290688167
0.14777063 -0.13470714 0.74599999 4290491560
0.14918824 -0.13470842 0.74599999 4290425511
0.1506059 -0.13470969 0.74599999 4290688688
0.1522274 -0.13489155 0.74699998 4290688688
0.15364705 -0.13489284 0.74699998 4290689203
0.15506671 -0.13489409 0.74699998 4290754996
0.15690544 -0.13525654 0.74900001 4290754994
0.15832904 -0.13525783 0.74900001 4290754994
0.15996592 -0.13543966 0.75 4290754733
0.16139148 -0.1354409 0.75 4290754733
0.16281706 -0.13544215 0.75 4290755248
0.16468069 -0.13580458 0.75199997 4290755248
0.16765641 -0.13706997 0.759 4290821293
0.16909921 -0.13707122 0.759 4291018416
0.17009266 -0.13671125 0.75700003 4290558896
0.17153177 -0.13671248 0.75700003 4289374879
0.077771388 -0.13466164 0.75400001 4290755761
0.079201974 -0.1346626 0.75400001 4290558383
0.080418713 -0.13430634 0.75199997 4290623410
0.081845567 -0.13430728 0.75199997 4290557361
0.083272457 -0.13430825 0.75199997 4290426032
0.084474146 -0.13395205 0.75 4290360238
0.085897326 -0.13395303 0.75 4290294443
0.087320544 -0.13395403 0.75 4290228650
0.088625491 -0.13377644 0.74900001 4290162596
0.090046905 -0.1337775 0.74900001 4290162596
0.091224119 -0.1334213 0.74699998 4290096798
0.092517801 -0.13324375 0.74599999 4290031005
0.093681797 -0.1328876 0.74400002 4289899421
0.095093906 -0.13288867 0.74400002 4289899421
0.096506044 -0.13288978 0.74400002 4289965214
0.097918205 -0.13289088 0.74400002 4289767836
0.099330403 -0.13289197 0.74400002 4289702045
0.10074269 -0.1328931 0.74400002 4289636252
0.10188036 -0.13253698 0.74199998 4289702545
0.10328893 -0.13253814 0.74199998 4289768338
0.10469753 -0.13253926 0.74199998 4289899417
0.10610618 -0.13254043 0.74199998 4290097052
0.10736998 -0.13236298 0.741 4289899419
0.10833641 -0.13182823 0.73799998 4289768090
0.10973761 -0.13182944 0.73799998 4289702556
0.11128944 -0.13200925 0.73900002 4289636763
0.11269262 -0.13201046 0.73900002 4289636763
0.11409586 -0.13201167 0.73900002 4289702556
0.11581171 -0.13237014 0.741 4289636761
0.11721881 -0.13237137 0.741 4289636761
0.11830581 -0.13201532 0.73900002 4289636763
0.11970921 -0.13201655 0.73900002 4289768349
0.12111266 -0.13201778 0.73900002 4289767836
0.12284774 -0.13237631 0.741 4289702043
0.12442277 -0.13255621 0.74199998 4289767838
0.12566249 -0.13237882 0.741 4290031009
0.12706992 -0.13238007 0.741 4289965212
0.12847742 -0.13238135 0.741 4289899419
0.12988496 -0.1323826 0.741 4289964960
0.13129252 -0.13238387 0.741 4289964960
0.13270015 -0.13238513 0.741 4290030755
0.13410783 -0.13238642 0.741 4290096549
0.13551554 -0.1323877 0.741 4290096549
0.13655376 -0.13203163 0.73900002 4290162342
0.13795777 -0.1320329 0.73900002 4290162342
0.13973898 -0.13239151 0.741 4290294184
0.14133736 -0.13257146 0.74199998 4290294436
0.14274721 -0.13257273 0.74199998 4290491558
0.14454566 -0.13293137 0.74400002 4290491045
0.14595939 -0.13293265 0.74400002 4290556838
0.14776933 -0.13329124 0.74599999 4290360488
0.14938693 -0.13347121 0.74699998 4290360488
0.15080652 -0.1334725 0.74699998 4290557613
0.15283749 -0.13400981 0.75 4290557613
0.15426284 -0.13401109 0.75 4290492592
0.15568823 -0.13401236 0.75 4290492592
0.15753265 -0.13437098 0.75199997 4290623408
0.15896191 -0.13437225 0.75199997 4290689201
0.16039123 -0.13437352 0.75199997 4290623406
0.16182059 -0.13437477 0.75199997 4290623406
0.16325 -0.134376 0.75199997 4290689455
0.16467944 -0.13437726 0.75199997 4290755248
0.16909796 -0.13563058 0.759 4290294947
0.077858649 -0.13588054 0.76899999 4290887611
0.079111345 -0.13552806 0.76700002 4290624691
0.080566585 -0.13552901 0.76700002 4290493105
0.080631644 -0.13323283 0.75400001 4290623156
0.082062282 -0.13323377 0.75400001 4290623156
0.083271496 -0.13288134 0.75199997 4290426545
0.084698416 -0.1328823 0.75199997 4290360752
0.085896328 -0.13252991 0.75 4290295208
0.087319531 -0.13253088 0.75 4290295208
0.08862447 -0.1323552 0.74900001 4289966246
0.090045862 -0.13235623 0.74900001 4289966246
0.091223061 -0.13200384 0.74699998 4289965985
0.092516728 -0.13182817 0.74599999 4289965985
0.093680732 -0.13147582 0.74400002 4289834398
