# .PCD v0.7 - Point Cloud Data file format
VERSION 0.7
FIELDS x y z rgba
SIZE 4 4 4 4
TYPE F F F U
COUNT 1 1 1 1
WIDTH 1032
HEIGHT 1
VIEWPOINT 0 0 0 1 0 0 0
POINTS 1032
DATA ascii
-0.062464066 -0.012167035 0.57200003 4294965748
-0.061486047 -0.012188397 0.57300001 4294965748
-0.060398892 -0.012188488 0.57300001 4294637299
-0.059415277 -0.012209847 0.574 4294703092
-0.058326311 -0.012209933 0.574 4294768885
-0.057237379 -0.012210014 0.574 4294966263
-0.05624631 -0.012231369 0.57499999 4294835195
-0.055155568 -0.012231447 0.57499999 4294703353
-0.0541589 -0.012252795 0.57599998 4294834162
-0.053158488 -0.012274145 0.57700002 4294965748
-0.052154317 -0.012295489 0.57800001 4294965749
-0.051146384 -0.012316833 0.579 4294966263
-0.050221145 -0.012359447 0.58099997 4294966005
-0.049119275 -0.012359513 0.58099997 4294636784
-0.048100092 -0.012380851 0.58200002 4294505712
-0.046996407 -0.012380915 0.58200002 4294637299
-0.04589276 -0.012380976 0.58200002 4294768369
-0.044943057 -0.012423581 0.58399999 4294965748
-0.0438357 -0.012423638 0.58399999 4294965746
-0.042728368 -0.012423693 0.58399999 4294966775
-0.037892763 -0.012657952 0.59500003 4294967292
-0.036764782 -0.012657997 0.59500003 4294967293
-0.035756614 -0.012700586 0.597 4294967293
-0.034682903 -0.0127219 0.59799999 4294967293
-0.03354932 -0.012721939 0.59799999 4294967295
-0.032632601 -0.012807074 0.602 4294967295
-0.031543814 -0.012828383 0.60299999 4294967290
-0.030400842 -0.012828416 0.60299999 4294967291
-0.029306419 -0.012849721 0.60399997 4294967294
-0.028161606 -0.01284975 0.60399997 4294967295
-0.15651289 -0.011255541 0.58200002 4293846754
-0.15513705 -0.011236638 0.58099997 4293714911
-0.15403016 -0.011237069 0.58099997 4293584097
-0.15239693 -0.011198814 0.579 4293518304
-0.15103266 -0.011179891 0.57800001 4293715682
-0.1496722 -0.01116096 0.57700002 4293847267
-0.1480581 -0.01112268 0.57499999 4293781992
-0.14670728 -0.011103736 0.574 4293650150
-0.14561401 -0.011104132 0.574 4293387745
-0.144269 -0.011085175 0.57300001 4293585381
-0.14292783 -0.011066211 0.57200003 4293518563
-0.14159049 -0.01104724 0.57099998 4293387234
-0.14025703 -0.011028264 0.56999999 4293518050
-0.1391716 -0.01102863 0.56999999 4293518050
-0.13808623 -0.011028992 0.56999999 4293518302
-0.13652018 -0.01099065 0.56800002 4293584095
-0.13520023 -0.010971649 0.56699997 4293584097
-0.13388415 -0.010952641 0.56599998 4293715684
-0.13280661 -0.010952983 0.56599998 4293715684
-0.13149635 -0.010933966 0.565 4293715684
-0.13042076 -0.010934295 0.565 4293715163
-0.12934527 -0.010934621 0.565 4293649370
-0.12781574 -0.010896234 0.56300002 4293846238
-0.12674414 -0.010896547 0.56300002 4294109154
-0.12567258 -0.010896859 0.56300002 4293386716
-0.12460109 -0.010897165 0.56300002 4293452509
-0.12352964 -0.010897466 0.56300002 4293518561
-0.12245826 -0.010897764 0.56300002 4293387232
-0.12138692 -0.010898056 0.56300002 4293584095
-0.12010191 -0.010878986 0.56199998 4293518302
-0.1190326 -0.010879271 0.56199998 4293519067
-0.11775342 -0.010860192 0.56099999 4293848033
-0.11668611 -0.010860467 0.56099999 4293386462
-0.11561886 -0.010860738 0.56099999 4293452255
-0.11455166 -0.010861007 0.56099999 4293649118
-0.11328223 -0.010841908 0.56 4293714911
-0.11221705 -0.010842168 0.56 4293847004
-0.11115193 -0.010842423 0.56 4293912797
-0.11008687 -0.010842675 0.56 4293255644
-0.10921653 -0.010862284 0.56099999 4293387486
-0.10834246 -0.010881891 0.56199998 4293189851
-0.10727373 -0.010882131 0.56199998 4293124057
-0.10620509 -0.010882368 0.56199998 4293386464
-0.10513651 -0.010882602 0.56199998 4293518050
-0.10406797 -0.01088283 0.56199998 4293452248
-0.10263295 -0.010844328 0.56 4293386199
-0.10156833 -0.010844549 0.56 4293517789
-0.10050379 -0.010844768 0.56 4293451996
-0.099439293 -0.010844983 0.56 4293648857
-0.098374851 -0.010845193 0.56 4294109408
-0.097310439 -0.0108454 0.56 4293780443
-0.096246123 -0.010845605 0.56 4293977822
-0.095181845 -0.010845806 0.56 4293715936
-0.094285689 -0.010865373 0.56099999 4293715936
-0.09321963 -0.010865567 0.56099999 4293451996
-0.091989376 -0.010846389 0.56 4293649118
-0.090925321 -0.010846578 0.56 4294175199
-0.089861326 -0.010846762 0.56 4294241248
-0.08879739 -0.010846944 0.56 4293518300
-0.087733522 -0.010847122 0.56 4293584093
-0.086669691 -0.010847297 0.56 4293584095
-0.08575879 -0.010866839 0.56099999 4293715682
-0.084693164 -0.010867008 0.56099999 4293650402
-0.083776683 -0.010886544 0.56199998 4294110953
-0.082709283 -0.010886709 0.56199998 4293847267
-0.081641942 -0.010886871 0.56199998 4293847267
-0.080718003 -0.0109064 0.56300002 4293716188
-0.07964886 -0.010906555 0.56300002 4293847517
-0.078579791 -0.010906707 0.56300002 4293848037
-0.077510744 -0.010906857 0.56300002 4294045159
-0.076441757 -0.010907003 0.56300002 4294110439
-0.07550671 -0.01092652 0.56400001 4294176233
-0.074435934 -0.01092666 0.56400001 4294307816
-0.073365219 -0.010926799 0.56400001 4294307816
-0.072294533 -0.010926934 0.56400001 4294307816
-0.071350195 -0.010946441 0.565 4294307816
-0.070277728 -0.010946572 0.565 4294307818
-0.069205314 -0.010946698 0.565 4294636784
-0.068132944 -0.010946823 0.565 4294505197
-0.067060627 -0.010946945 0.565 4294373611
-0.065988354 -0.010947066 0.565 4294373361
-0.064916126 -0.010947184 0.565 4294570740
-0.064521939 -0.01106355 0.57099998 4294636015
-0.06343843 -0.011063665 0.57099998 4294767602
-0.062464166 -0.011083153 0.57200003 4294703090
-0.061378848 -0.01108326 0.57200003 4294966261
-0.060398985 -0.011102743 0.57300001 4294506483
-0.059311863 -0.011102846 0.57300001 4294506483
-0.05832639 -0.011122323 0.574 4294769139
-0.057237469 -0.01112242 0.574 4294966261
-0.056246396 -0.011141895 0.57499999 4294834678
-0.055155665 -0.01114199 0.57499999 4294703092
-0.054158982 -0.011161458 0.57599998 4294768369
-0.053250693 -0.011200302 0.57800001 4294834162
-0.052154392 -0.011200391 0.57800001 4294833908
-0.051146466 -0.011219854 0.579 4294899701
-0.05022122 -0.011258691 0.58099997 4294966261
-0.04911935 -0.011258772 0.58099997 4294703090
-0.048100166 -0.011278229 0.58200002 4294703090
-0.046996478 -0.011278306 0.58200002 4294769139
-0.045892827 -0.011278379 0.58200002 4294899955
-0.044866171 -0.011297829 0.583 4294966263
-0.043760698 -0.011297899 0.583 4294965749
-0.042801592 -0.011336725 0.58499998 4294966263
-0.039151993 -0.011569523 0.597 4294967295
-0.036950193 -0.011589015 0.59799999 4294967292
-0.035816554 -0.011589069 0.59799999 4294967293
-0.034682948 -0.011589119 0.59799999 4294967292
-0.033605468 -0.011608548 0.59899998 4294967295
-0.032578439 -0.011647354 0.60100001 4294967295
-0.031491537 -0.011666778 0.602 4294967288
-0.030451292 -0.01170558 0.60399997 4294967287
-0.029306455 -0.011705619 0.60399997 4294967035
-0.15651333 -0.010150805 0.58200002 4293715684
-0.15513748 -0.010133823 0.58099997 4293715684
-0.15403059 -0.010134282 0.58099997 4293189085
-0.15239736 -0.010099846 0.579 4293452257
-0.15103306 -0.010082846 0.57800001 4293650404
-0.14967263 -0.010065839 0.57700002 4293716197
-0.14805852 -0.010031377 0.57499999 4293650404
-0.14670771 -0.010014357 0.574 4293584610
-0.14561442 -0.010014774 0.574 4293453538
-0.14426938 -0.0099977395 0.57300001 4293453538
-0.14292823 -0.0099807 0.57200003 4293058012
-0.14159088 -0.0099636512 0.57099998 4293387234
-0.14025742 -0.0099465977 0.56999999 4293518050
-0.13917197 -0.0099469889 0.56999999 4293715686
-0.1380866 -0.0099473745 0.56999999 4293847267
-0.13676091 -0.0099303043 0.56900001 4293649888
-0.13543905 -0.0099132257 0.56800002 4293518302
-0.13412106 -0.0098961396 0.56699997 4293715682
-0.13304158 -0.0098965056 0.56699997 4293255131
-0.13172941 -0.0098794093 0.56599998 4293584095
-0.1304211 -0.0098623084 0.565 4293714398
-0.12934558 -0.0098626595 0.565 4293517019
-0.12781608 -0.0098280907 0.56300002 4293319642
-0.12674446 -0.0098284306 0.56300002 4293714400
-0.12567292 -0.0098287649 0.56300002 4293123544
-0.12460141 -0.0098290956 0.56300002 4293452509
-0.12352995 -0.0098294206 0.56300002 4293584608
-0.12245855 -0.009829741 0.56300002 4293387486
-0.12138721 -0.0098300576 0.56300002 4293518302
-0.12010223 -0.0098129101 0.56199998 4293452509
-0.11903288 -0.0098132174 0.56199998 4293189589
-0.11796361 -0.009813522 0.56199998 4293518554
-0.11668641 -0.0097963586 0.56099999 4293386716
-0.11561913 -0.0097966529 0.56099999 4293518302
-0.11455193 -0.0097969435 0.56099999 4293649118
-0.11328252 -0.0097797681 0.56 4293714911
-0.11221732 -0.0097800503 0.56 4293847267
-0.1111522 -0.0097803287 0.56 4293847267
-0.11008711 -0.0097806025 0.56 4293189337
-0.10902211 -0.0097808735 0.56 4293123544
-0.10795715 -0.009781139 0.56 4293123544
-0.107274 -0.0098163364 0.56199998 4293255131
-0.10620534 -0.0098165954 0.56199998 4293452509
-0.10494967 -0.0097993836 0.56099999 4293386716
-0.10388304 -0.009799635 0.56099999 4293254360
-0.1026332 -0.0097824158 0.56 4293451996
-0.10156858 -0.0097826598 0.56 4293649118
-0.10050401 -0.0097829001 0.56 4293517789
-0.099439509 -0.0097831367 0.56 4293648855
-0.098375075 -0.0097833704 0.56 4294043613
-0.097484432 -0.0098010702 0.56099999 4293714650
-0.096418209 -0.0098012956 0.56099999 4293714650
-0.095352016 -0.0098015191 0.56099999 4293386716
-0.094285898 -0.0098017389 0.56099999 4293452509
-0.093219839 -0.009801955 0.56099999 4293846238
-0.091989562 -0.0097846957 0.56 4293846238
-0.090925515 -0.0097849034 0.56 4294042848
-0.08986152 -0.0097851092 0.56 4293911261
-0.088797584 -0.0097853122 0.56 4293517787
-0.087733708 -0.0097855125 0.56 4293649116
-0.086669885 -0.009785708 0.56 4293321693
-0.085758977 -0.0098033734 0.56099999 4293518815
-0.08469335 -0.0098035624 0.56099999 4293519586
-0.083776847 -0.009821225 0.56199998 4293519586
-0.082709469 -0.0098214103 0.56199998 4293716197
-0.081642106 -0.0098215891 0.56199998 4293716197
-0.080718182 -0.0098392433 0.56300002 4293913058
-0.079649039 -0.0098394183 0.56300002 4294110693
-0.07857994 -0.0098395906 0.56300002 4294176233
-0.077510916 -0.0098397573 0.56300002 4294307818
-0.076441914 -0.0098399241 0.56300002 4294110439
-0.075506859 -0.0098575633 0.56400001 4294176233
-0.074436076 -0.0098577216 0.56400001 4294373609
-0.073365353 -0.00985788 0.56400001 4294307816
-0.07229469 -0.0098580336 0.56400001 4293715682
-0.071350344 -0.0098756617 0.565 4294307818
-0.070277877 -0.0098758107 0.565 4294373609
-0.069205448 -0.009875956 0.565 4294505195
-0.068133071 -0.0098760976 0.565 4294373611
-0.067060754 -0.0098762382 0.565 4294439404
-0.065988466 -0.0098763732 0.565 4294307566
-0.064916253 -0.0098765073 0.565 4294570738
-0.063844077 -0.0098766396 0.565 4294505199
-0.062771939 -0.0098767662 0.565 4294570992
-0.062464286 -0.0099992631 0.57200003 4294242543
-0.06137896 -0.009999386 0.57200003 4294505458
-0.060293689 -0.009999508 0.57200003 4294112238
-0.059311971 -0.010017109 0.57300001 4294243824
-0.05822489 -0.010017226 0.57300001 4294374127
-0.057237569 -0.010034822 0.574 4294637299
-0.056246497 -0.010052416 0.57499999 4294703605
-0.055155758 -0.010052524 0.57499999 4294440690
-0.054347135 -0.010105079 0.57800001 4294505710
-0.053250793 -0.010105183 0.57800001 4294769139
-0.052154485 -0.010105285 0.57800001 4294768887
-0.051146552 -0.010122866 0.579 4294768887
-0.050307754 -0.010175414 0.58200002 4294901241
-0.049203981 -0.010175508 0.58200002 4294703605
-0.048100255 -0.010175601 0.58200002 4294768885
-0.046996564 -0.010175688 0.58200002 4294768885
-0.045971759 -0.010193259 0.583 4294965748
-0.044866245 -0.010193342 0.583 4294966776
-0.043760769 -0.010193425 0.583 4294967295
-0.038020249 -0.010438656 0.597 4294966263
-0.036888469 -0.010438721 0.597 4294966778
-0.03581661 -0.01045627 0.59799999 4294967035
-0.034683 -0.010456331 0.59799999 4294967035
-0.033605516 -0.010473875 0.59899998 4294966265
-0.03252428 -0.010491419 0.60000002 4294966779
-0.031491589 -0.010526442 0.602 4294967290
-0.15651384 -0.009046061 0.58200002 4293715684
-0.15513794 -0.0090310033 0.58099997 4293847013
-0.15403105 -0.0090314839 0.58099997 4293715686
-0.15266104 -0.0090164132 0.57999998 4293649636
-0.15103352 -0.0089857914 0.57800001 4293715682
-0.14967307 -0.0089707067 0.57700002 4293913060
-0.14805897 -0.0089400653 0.57499999 4293584097
-0.14670815 -0.0089249667 0.574 4293452255
-0.14561485 -0.00892541 0.574 4293387745
-0.14426981 -0.0089102974 0.57300001 4293453538
-0.14292865 -0.0088951802 0.57200003 4293518563
-0.1415913 -0.0088800536 0.57099998 4293979114
-0.1405039 -0.0088804746 0.57099998 4293650150
-0.13917239 -0.0088653378 0.56999999 4293650150
-0.13784474 -0.0088501945 0.56900001 4293716195
-0.13676128 -0.0088505978 0.56900001 4293782244
-0.13567789 -0.0088509982 0.56900001 4293913058
-0.13435799 -0.0088358372 0.56800002 4294307816
-0.13304196 -0.0088206697 0.56699997 4293978851
-0.1317298 -0.0088054966 0.56599998 4293913058
-0.13065229 -0.0088058747 0.56599998 4293584095
-0.12934594 -0.0087906905 0.565 4293189337
-0.12804346 -0.0087755006 0.56400001 4293386210
-0.12696992 -0.0087758638 0.56400001 4293715432
-0.12567325 -0.0087606637 0.56300002 4293255385
-0.12460173 -0.0087610176 0.56300002 4293386714
-0.12353028 -0.0087613668 0.56300002 4293452509
-0.12245889 -0.0087617123 0.56300002 4293452509
-0.12138754 -0.0087620532 0.56300002 4293518302
-0.12010254 -0.0087468252 0.56199998 4293452509
-0.1190332 -0.0087471567 0.56199998 4293320659
-0.11796393 -0.0087474845 0.56199998 4293715161
-0.11689471 -0.0087478086 0.56199998 4293255131
-0.11561945 -0.008732561 0.56099999 4293584095
-0.11455224 -0.0087328749 0.56099999 4293518302
-0.11328281 -0.0087176189 0.56 4293189337
-0.11221761 -0.0087179244 0.56 4293452257
-0.11115249 -0.0087182261 0.56 4293452257
-0.11008741 -0.0087185241 0.56 4293123292
-0.10902237 -0.0087188175 0.56 4293057499
-0.10795743 -0.0087191081 0.56 4293386714
-0.10689252 -0.0087193921 0.56 4293518300
-0.10582766 -0.0087196743 0.56 4293649116
-0.10476286 -0.0087199518 0.56 4293649116
-0.10369813 -0.0087202257 0.56 4293649118
-0.10263345 -0.0087204967 0.56 4293517789
-0.10156883 -0.0087207621 0.56 4293649116
-0.10050427 -0.0087210257 0.56 4293649116
-0.099439748 -0.0087212836 0.56 4293648855
-0.098375306 -0.0087215398 0.56 4293977820
-0.097310908 -0.0087217912 0.56 4293648605
-0.09641844 -0.0087376144 0.56099999 4293582812
-0.095352255 -0.0087378584 0.56099999 4293452509
-0.094286121 -0.0087380996 0.56099999 4293386716
-0.093220063 -0.0087383371 0.56099999 4293386201
-0.091989793 -0.0087229945 0.56 4293451994
-0.090925731 -0.0087232245 0.56 4293714911
-0.089861736 -0.0087234518 0.56 4293649118
-0.0887978 -0.0087236753 0.56 4293452509
-0.087733917 -0.0087238951 0.56 4293584095
-0.086670086 -0.0087241111 0.56 4293584093
-0.085759163 -0.0087399026 0.56099999 4293584093
-0.084693551 -0.0087401122 0.56099999 4293715936
-0.083777055 -0.008755899 0.56199998 4293715936
-0.08270964 -0.0087561021 0.56199998 4293716197
-0.081642292 -0.0087563023 0.56199998 4293716197
-0.080718368 -0.0087720808 0.56300002 4293848037
-0.079790682 -0.0087878555 0.56400001 4294110953
-0.078719698 -0.0087880464 0.56400001 4294110439
-0.077648751 -0.0087882346 0.56400001 4294176233
-0.076577865 -0.008788418 0.56400001 4294110441
-0.07550703 -0.0087885996 0.56400001 4294110441
-0.074568219 -0.0088043604 0.565 4294241509
-0.073365524 -0.0087889545 0.56400001 4294241509
-0.072294846 -0.0087891258 0.56400001 4294109669
-0.071350493 -0.0088048773 0.565 4294570220
-0.070278026 -0.008805044 0.565 4294373607
-0.069205604 -0.008805207 0.565 4294571242
-0.068133228 -0.0088053662 0.565 4294242795
-0.067060903 -0.0088055236 0.565 4294242795
-0.065988623 -0.0088056764 0.565 4294373357
-0.064916395 -0.0088058272 0.565 4294833908
-0.063844204 -0.0088059753 0.565 4294834162
-0.06277208 -0.0088061197 0.565 4294966263
-0.06246442 -0.0089153666 0.57200003 4294834932
-0.061379086 -0.0089155063 0.57200003 4294769139
-0.060293812 -0.0089156451 0.57200003 4294506481
-0.059208583 -0.0089157792 0.57200003 4294506481
-0.058225013 -0.008931498 0.57300001 4294374127
-0.05713797 -0.0089316275 0.57300001 4294374127
-0.056050986 -0.0089317532 0.57300001 4294571504
-0.055251792 -0.0089786397 0.57599998 4294374381
-0.054159198 -0.0089787599 0.57599998 4294505710
-0.053066641 -0.0089788791 0.57599998 4294966261
-0.052515525 -0.0090725264 0.58200002 4294966009
-0.05141167 -0.00907264 0.58200002 4294834680
-0.050307855 -0.0090727508 0.58200002 4294966778
-0.049204081 -0.0090728588 0.58200002 4294768885
-0.048182994 -0.0090885535 0.583 4294768885
-0.047077406 -0.0090886559 0.583 4294966778
-0.045971859 -0.0090887556 0.583 4294966009
-0.044866338 -0.0090888515 0.583 4294834680
-0.038020313 -0.0093077235 0.597 4294966778
-0.036888536 -0.0093078008 0.597 4294966778
-0.035816681 -0.0093234656 0.59799999 4294966267
-0.034683064 -0.0093235364 0.59799999 4294966780
-0.033605583 -0.0093391975 0.59899998 4294967035
-0.03252434 -0.009354854 0.60000002 4294967292
-0.15651435 -0.0079413047 0.58200002 4293584610
-0.15540549 -0.007941816 0.58200002 4293716197
-0.15403156 -0.007928675 0.58099997 4293912806
-0.1526615 -0.0079155276 0.57999998 4293715684
-0.1512953 -0.0079023736 0.579 4293714911
-0.14967355 -0.0078755636 0.57700002 4293912547
-0.14805943 -0.0078487433 0.57499999 4293452509
-0.14670861 -0.0078355661 0.574 4293386716
-0.14561529 -0.0078360355 0.574 4293453538
-0.14427027 -0.0078228451 0.57300001 4293453538
-0.14292908 -0.0078096488 0.57200003 4293256161
-0.14159173 -0.0077964449 0.57099998 4293519334
-0.14050433 -0.007796891 0.57099998 4292927709
-0.13917281 -0.007783676 0.56999999 4293191138
-0.13784514 -0.007770454 0.56900001 4293584608
-0.1367617 -0.0077708834 0.56900001 4293650402
-0.13567829 -0.0077713081 0.56900001 4293780704
-0.13435839 -0.0077580684 0.56800002 4293978340
-0.13304237 -0.0077448222 0.56699997 4293847013
-0.13173018 -0.0077315723 0.56599998 4293715684
-0.1306527 -0.0077319746 0.56599998 4293584097
-0.12934631 -0.0077187116 0.565 4293452255
-0.12804383 -0.0077054435 0.56400001 4293386210
-0.12697031 -0.0077058319 0.56400001 4293518052
-0.12567362 -0.0076925512 0.56300002 4293255644
-0.12438078 -0.0076792655 0.56199998 4293255644
-0.12331122 -0.0076796375 0.56199998 4293321693
-0.12224174 -0.0076800077 0.56199998 4293321693
-0.12117228 -0.0076803714 0.56199998 4293385689
-0.12010287 -0.0076807304 0.56199998 4293582812
-0.11903355 -0.0076810867 0.56199998 4293517019
-0.11796427 -0.0076814387 0.56199998 4293582812
-0.11689504 -0.0076817856 0.56199998 4293123544
-0.11561978 -0.0076684584 0.56099999 4293518302
-0.11455257 -0.0076687969 0.56099999 4293518813
-0.11328313 -0.0076554599 0.56 4293387484
-0.11221793 -0.0076557891 0.56 4293518815
-0.11115278 -0.0076561146 0.56 4293387486
-0.11008772 -0.007656435 0.56 4293057751
-0.10902268 -0.0076567517 0.56 4293189337
-0.10795772 -0.0076570641 0.56 4293518039
-0.10689279 -0.0076573724 0.56 4293518039
-0.10582794 -0.0076576769 0.56 4293649116
-0.10476316 -0.0076579778 0.56 4293780958
-0.10369841 -0.0076582753 0.56 4293714913
-0.10263373 -0.0076585677 0.56 4293517791
-0.10156911 -0.0076588569 0.56 4293517789
-0.10050455 -0.0076591414 0.56 4293386203
-0.099440038 -0.0076594232 0.56 4293320407
-0.098375574 -0.0076597002 0.56 4293715165
-0.097311161 -0.007659974 0.56 4293386716
-0.096246831 -0.0076602441 0.56 4293518302
-0.095352501 -0.0076741884 0.56099999 4293584095
-0.094286375 -0.0076744515 0.56099999 4293452509
-0.093220301 -0.0076747104 0.56099999 4293386716
-0.091990031 -0.0076612849 0.56 4293518302
-0.090925977 -0.0076615368 0.56 4293649888
-0.089861959 -0.0076617836 0.56 4293518302
-0.088798016 -0.0076620281 0.56 4293452509
-0.08773414 -0.0076622688 0.56 4293584095
-0.086670309 -0.0076625058 0.56 4293780958
-0.085606523 -0.0076627387 0.56 4293846752
-0.084542796 -0.0076629678 0.56 4293715936
-0.0836282 -0.0076768785 0.56099999 4293650142
-0.082709849 -0.0076907864 0.56199998 4293518302
-0.081642501 -0.0076910062 0.56199998 4293715682
-0.080718562 -0.0077049085 0.56300002 4293847267
-0.079790883 -0.0077188071 0.56400001 4293913060
-0.078719899 -0.007719018 0.56400001 4293255131
-0.077648945 -0.0077192253 0.56400001 4293518302
-0.076578051 -0.0077194278 0.56400001 4293780191
-0.075507216 -0.0077196285 0.56400001 4293977570
-0.074568413 -0.0077335127 0.565 4293846490
-0.073495798 -0.0077337078 0.565 4294043613
-0.072423205 -0.0077338973 0.565 4294043615
-0.071350679 -0.007734085 0.565 4294240994
-0.070402585 -0.007747957 0.56599998 4294109921
-0.069205768 -0.0077344486 0.565 4294439143
-0.068133384 -0.0077346256 0.565 4294373611
-0.067061059 -0.0077348002 0.565 4294373611
-0.065988779 -0.0077349711 0.565 4294110187
-0.065031439 -0.0077488283 0.56599998 4294307566
-0.063957356 -0.0077489936 0.56599998 4294307564
-0.062883332 -0.0077491552 0.56599998 4294439150
-0.062464569 -0.0078314617 0.57200003 4294374129
-0.061379243 -0.0078316191 0.57200003 4294374129
-0.060293958 -0.0078317719 0.57200003 4294374381
-0.059208725 -0.0078319227 0.57200003 4294571504
-0.058123533 -0.0078320708 0.57200003 4294374381
-0.057237826 -0.0078595988 0.574 4294505710
-0.056246754 -0.0078734346 0.57499999 4294637297
-0.05525193 -0.0078872656 0.57599998 4294571504
-0.054159321 -0.0078874007 0.57599998 4294637038
-0.051500123 -0.0079836491 0.583 4294769139
-0.050394405 -0.007983773 0.583 4294965750
-0.049288742 -0.007983895 0.583 4294965750
-0.048183106 -0.0079840142 0.583 4294374127
-0.047077518 -0.0079841297 0.583 4294768885
-0.045971952 -0.0079842415 0.583 4294834678
-0.044943392 -0.0079980465 0.58399999 4294966263
-0.035816755 -0.0081906514 0.59799999 4294637812
-0.034683142 -0.0081907343 0.59799999 4294769398
-0.033605654 -0.0082045095 0.59899998 4294967292
-0.032524411 -0.0082182828 0.60000002 4294967294
-0.15678377 -0.0068482845 0.583 4293649890
-0.155406 -0.0068370732 0.58200002 4293649890
-0.15403207 -0.0068258545 0.58099997 4293715684
-0.15292522 -0.0068263793 0.58099997 4293847013
-0.15129581 -0.006803399 0.579 4293847267
-0.14993341 -0.0067921598 0.57800001 4294110439
-0.14831741 -0.0067691621 0.57599998 4293715682
-0.14696467 -0.0067579085 0.57499999 4293518302
-0.14561577 -0.0067466488 0.574 4293649636
-0.14427073 -0.0067353812 0.57300001 4293847015
-0.14292954 -0.0067241075 0.57200003 4293649890
-0.1415922 -0.0067128269 0.57099998 4293847013
-0.14025873 -0.0067015393 0.56999999 4293189851
-0.13917325 -0.0067020035 0.56999999 4293518815
-0.13784559 -0.0066907052 0.56900001 4293649890
-0.13652179 -0.0066793989 0.56800002 4293715684
-0.13544028 -0.0066798469 0.56800002 4293451744
-0.13435884 -0.0066802902 0.56800002 4293517537
-0.13304278 -0.0066689658 0.56699997 4293649890
-0.13173062 -0.0066576377 0.56599998 4293649890
-0.1306531 -0.0066580642 0.56599998 4293584097
-0.12934674 -0.006646724 0.565 4293584097
-0.12804422 -0.0066353758 0.56400001 4293386464
-0.12697069 -0.0066357888 0.56400001 4293518050
-0.12545078 -0.0066126636 0.56199998 4293321693
-0.12438117 -0.0066130646 0.56199998 4293321693
-0.12331161 -0.0066134618 0.56199998 4293387232
-0.1222421 -0.0066138553 0.56199998 4293321439
-0.12117264 -0.0066142427 0.56199998 4293518302
-0.12010325 -0.0066146278 0.56199998 4293847267
-0.1190339 -0.0066150064 0.56199998 4293649638
-0.11796463 -0.0066153817 0.56199998 4293715432
-0.11689539 -0.0066157524 0.56199998 4293452509
-0.11562014 -0.0066043469 0.56099999 4293518302
-0.11455292 -0.0066047092 0.56099999 4293518554
-0.11328347 -0.0065932916 0.56 4293584347
-0.11221825 -0.0065936437 0.56 4293584606
-0.11115313 -0.0065939934 0.56 4293518813
-0.11008804 -0.0065943371 0.56 4293123544
-0.10902301 -0.006594677 0.56 4293189337
-0.10795805 -0.0065950127 0.56 4293386451
-0.10689313 -0.0065953447 0.56 4293452244
-0.10582826 -0.0065956716 0.56 4293517787
-0.10495055 -0.0066077737 0.56099999 4293846752
-0.10388389 -0.0066080941 0.56099999 4293714659
-0.10263404 -0.00659663 0.56 4293451744
-0.10156941 -0.006596942 0.56 4293189337
-0.10050483 -0.0065972484 0.56 4293123544
-0.099440299 -0.0065975511 0.56 4293255131
-0.098375857 -0.0065978509 0.56 4293715682
-0.097311459 -0.0065981476 0.56 4293452509
-0.096247107 -0.0065984395 0.56 4293649888
-0.095182829 -0.0065987273 0.56 4293452509
-0.094286643 -0.0066107945 0.56099999 4293255131
-0.093220569 -0.0066110743 0.56099999 4293386716
-0.0919903 -0.0065995664 0.56 4293715682
-0.09092623 -0.0065998388 0.56 4293715163
-0.089862227 -0.0066001071 0.56 4293518041
-0.08879827 -0.0066003716 0.56 4293517789
-0.087734386 -0.0066006337 0.56 4294109669
-0.086670548 -0.0066008908 0.56 4293715163
-0.085606761 -0.006601145 0.56 4293715163
-0.084543049 -0.0066013951 0.56 4293584093
-0.083628431 -0.0066134287 0.56099999 4293452507
-0.082710087 -0.0066254609 0.56199998 4293518554
-0.081642725 -0.0066257012 0.56199998 4293715934
-0.080718793 -0.0066377278 0.56300002 4293847267
-0.079791114 -0.0066497512 0.56400001 4294307818
-0.078859687 -0.0066617713 0.565 4293978851
-0.077649161 -0.0066502071 0.56400001 4293913058
-0.076578274 -0.0066504297 0.56400001 4293518050
-0.075641304 -0.00666244 0.565 4293912808
-0.074568622 -0.006662657 0.565 4293978590
-0.073365904 -0.006651076 0.56400001 4293978590
-0.072295226 -0.0066512846 0.56400001 4293847265
-0.071350865 -0.0066632819 0.565 4293978851
-0.070402771 -0.0066752774 0.56599998 4294109667
-0.06932845 -0.0066754771 0.56599998 4294373096
-0.068254173 -0.0066756723 0.56599998 4294176746
-0.067179933 -0.0066758622 0.56599998 4294308588
-0.066105761 -0.0066760518 0.56599998 4294110187
-0.065146513 -0.0066880314 0.56699997 4294044394
-0.064183541 -0.0067000105 0.56800002 4294110189
-0.063105702 -0.0067001884 0.56800002 4294307312
-0.062464733 -0.0067475485 0.57200003 4294308334
-0.061379403 -0.0067477222 0.57200003 4294374127
-0.060399532 -0.0067596878 0.57300001 4294374381
-0.059415903 -0.0067716516 0.574 4294571504
-0.058326922 -0.0067718164 0.574 4294505710
-0.057237979 -0.0067719757 0.574 4294505710
-0.056246895 -0.0067839297 0.57499999 4294768369
-0.055252075 -0.0067958827 0.57599998 4294636784
-0.054159466 -0.0067960327 0.57599998 4294637036
-0.05371182 -0.0068787723 0.583 4294966000
-0.052606016 -0.0068789171 0.583 4294900207
-0.051500253 -0.0068790591 0.583 4294768365
-0.050394546 -0.0068791988 0.583 4294966259
-0.049288861 -0.0068793334 0.583 4294966774
-0.048183225 -0.0068794661 0.583 4294637299
-0.047158375 -0.006891395 0.58399999 4294703092
-0.046050932 -0.0068915216 0.58399999 4294703092
-0.045020469 -0.0069034435 0.58499998 4294768885
-0.044061322 -0.0069271657 0.58700001 4294899701
-0.042948283 -0.0069272816 0.58700001 4294899701
-0.03587674 -0.0070696333 0.59899998 4294966521
-0.034741223 -0.0070697246 0.59899998 4294966521
-0.033605732 -0.0070698126 0.59899998 4294967289
-0.032524485 -0.0070817019 0.60000002 4294967289
-0.15678433 -0.0057416079 0.583 4293518304
-0.15540658 -0.0057323198 0.58200002 4293584097
-0.1540326 -0.0057230247 0.58099997 4293386716
-0.15292574 -0.0057235742 0.58099997 4293715682
-0.15181893 -0.0057241186 0.58099997 4293585379
-0.14967455 -0.0056852447 0.57700002 4293519586
-0.14831789 -0.0056759198 0.57599998 4293715684
-0.14696519 -0.0056665898 0.57499999 4293649890
-0.14561626 -0.0056572524 0.574 4293385437
-0.14427122 -0.005647907 0.57300001 4293648353
-0.14293003 -0.0056385561 0.57200003 4293582812
-0.14159268 -0.0056291977 0.57099998 4293714398
-0.14025918 -0.0056198318 0.56999999 4293123544
-0.13917373 -0.0056203217 0.56999999 4293584095
-0.13784607 -0.0056109452 0.56900001 4293584095
-0.13652225 -0.0056015607 0.56800002 4293584095
-0.13544074 -0.0056020338 0.56800002 4293452509
-0.13435927 -0.0056025009 0.56800002 4293518302
-0.13304323 -0.0055930996 0.56699997 4293584097
-0.13173103 -0.0055836919 0.56599998 4293584097
-0.13065353 -0.005584144 0.56599998 4293518304
-0.12934716 -0.0055747246 0.565 4293518304
-0.12804466 -0.0055652992 0.56400001 4293386716
-0.12697113 -0.0055657364 0.56400001 4293452509
-0.12545119 -0.0055464292 0.56199998 4293189337
-0.12438157 -0.0055468553 0.56199998 4293386716
-0.12331201 -0.0055472762 0.56199998 4293518302
-0.12224249 -0.005547693 0.56199998 4293518302
-0.12117305 -0.0055481056 0.56199998 4293518302
-0.12010365 -0.005548514 0.56199998 4293649888
-0.1190343 -0.0055489172 0.56199998 4293321693
-0.11796501 -0.0055493163 0.56199998 4293518815
-0.11689578 -0.0055497107 0.56199998 4293321693
-0.1158266 -0.0055501009 0.56199998 4293321693
-0.11455328 -0.0055406103 0.56099999 4293386966
-0.11348613 -0.0055409912 0.56099999 4293518552
-0.11241901 -0.0055413679 0.56099999 4293189851
-0.11135197 -0.00554174 0.56099999 4293189851
-0.1100884 -0.0055322293 0.56 4292991958
-0.10902336 -0.0055325925 0.56 4293255131
-0.10815117 -0.0055428315 0.56099999 4293648855
-0.10708434 -0.0055431868 0.56099999 4293583062
-0.10601758 -0.0055435379 0.56099999 4293320153
-0.10495087 -0.0055438848 0.56099999 4293517789
-0.10369904 -0.0055343444 0.56 4293451996
-0.10263436 -0.0055346834 0.56 4293451996
-0.10156971 -0.0055350168 0.56 4293254360
-0.10050514 -0.0055353465 0.56 4293320153
-0.099440627 -0.005535672 0.56 4293452509
-0.09837617 -0.0055359933 0.56 4293518302
-0.097311758 -0.0055363118 0.56 4293057751
-0.096247405 -0.0055366256 0.56 4293255131
-0.095183112 -0.0055369344 0.56 4293451994
-0.094286956 -0.0055471282 0.56099999 4293451994
-0.093220875 -0.0055474299 0.56099999 4293517017
-0.091990575 -0.0055378387 0.56 4293780445
-0.090926513 -0.0055381316 0.56 4293583064
-0.089862511 -0.0055384221 0.56 4293648857
-0.08879856 -0.0055387081 0.56 4293451996
-0.087734662 -0.0055389893 0.56 4293714911
-0.086670816 -0.0055392683 0.56 4293584347
-0.085607029 -0.0055395421 0.56 4293518554
-0.084694259 -0.0055497042 0.56099999 4293058003
-0.083628692 -0.0055499719 0.56099999 4293584347
-0.082710333 -0.005560128 0.56199998 4293715936
-0.081788249 -0.0055702818 0.56300002 4293584093
-0.080719046 -0.0055705383 0.56300002 4293714911
-0.079791345 -0.0055806856 0.56400001 4294307305
-0.078859925 -0.0055908295 0.565 4293848035
-0.077787071 -0.0055910759 0.565 4293650656
-0.076714262 -0.005591318 0.565 4293057753
-0.075641528 -0.005591556 0.565 4293912806
-0.074568838 -0.0055917902 0.565 4293913060
-0.073366128 -0.005582124 0.56400001 4293847267
-0.072295435 -0.0055823503 0.56400001 4293715934
-0.071351081 -0.0055924715 0.565 4293979105
-0.07040298 -0.0056025898 0.56599998 4293979105
-0.069328643 -0.0056028063 0.56599998 4294110691
-0.068254367 -0.0056030187 0.56599998 4294044646
-0.067180134 -0.0056032273 0.56599998 4294373611
-0.066105947 -0.0056034331 0.56599998 4293978601
-0.065146707 -0.0056135347 0.56699997 4294044394
-0.064183719 -0.0056236344 0.56800002 4293912293
-0.063105889 -0.0056238291 0.56800002 4294372844
-0.062464919 -0.0056636268 0.57200003 4294373357
-0.061379578 -0.0056638164 0.57200003 4294373357
-0.060399696 -0.0056739035 0.57300001 4294045159
-0.059416074 -0.0056839888 0.574 4294242795
-0.058327086 -0.0056841671 0.574 4294373611
-0.057238135 -0.0056843418 0.574 4294439404
-0.056247063 -0.0056944182 0.57499999 4294505712
-0.055252224 -0.0057044891 0.57599998 4294374127
-0.054159623 -0.0057046544 0.57599998 4294505197
-0.053711973 -0.0057741459 0.583 4294899955
-0.052606165 -0.0057743057 0.583 4294637297
-0.051500406 -0.0057744626 0.583 4294637297
-0.050394684 -0.0057746144 0.583 4294966261
-0.049289007 -0.0057747643 0.583 4294966518
-0.048266016 -0.0057848152 0.58399999 4294703090
-0.047158521 -0.0057849572 0.58399999 4294703090
-0.046129908 -0.005795002 0.58499998 4294637812
-0.045097552 -0.005805043 0.58600003 4294506483
-0.044061437 -0.0058150808 0.58700001 4294637299
-0.042948406 -0.0058152098 0.58700001 4294703092
-0.037074182 -0.0059447088 0.60000002 4294967033
-0.03587684 -0.0059349067 0.59899998 4294966519
-0.034741316 -0.0059350091 0.59899998 4294834932
-0.033605833 -0.0059351083 0.59899998 4294835445
-0.032578785 -0.0059550204 0.60100001 4294835445
-0.031491876 -0.0059650214 0.602 4294966261
-0.030401198 -0.0059750187 0.60299999 4294966261
-0.15870823 -0.0046581747 0.58600003 4293715686
-0.1570538 -0.0046428689 0.58399999 4293649890
-0.15567413 -0.0046355049 0.583 4293584097
-0.15456343 -0.0046360865 0.583 4293387486
-0.15345275 -0.0046366621 0.583 4293782244
-0.15077426 -0.0045895083 0.57700002 4293518561
-0.1496751 -0.004590068 0.57700002 4293387232
-0.14831844 -0.0045826659 0.57599998 4293584097
-0.14696571 -0.0045752586 0.57499999 4293912806
-0.1456168 -0.0045678429 0.574 4293715686
-0.14427176 -0.0045604212 0.57300001 4293452257
-0.14293054 -0.0045529921 0.57200003 4293582560
-0.1415932 -0.0045455564 0.57099998 4293977318
-0.14050576 -0.0045460751 0.57099998 4293649888
-0.13917424 -0.0045386273 0.56999999 4293584095
-0.13784654 -0.0045311716 0.56900001 4293517789
-0.13676308 -0.004531675 0.56900001 4293517789
-0.13567969 -0.0045321737 0.56900001 4293582812
-0.13435978 -0.0045247008 0.56800002 4293780191
-0.13304368 -0.0045172204 0.56699997 4293518815
-0.1317315 -0.0045097349 0.56599998 4293321693
-0.13042316 -0.0045022434 0.565 4293387232
-0.12934762 -0.0045027146 0.565 4293387232
-0.12827212 -0.0045031803 0.565 4293518302
-0.12697157 -0.004495672 0.56400001 4293847267
-0.12567486 -0.0044881548 0.56300002 4293452509
-0.12438201 -0.0044806339 0.56199998 4293255131
-0.12331243 -0.0044810791 0.56199998 4293452509
-0.12246045 -0.004489494 0.56300002 4293518302
-0.12138908 -0.0044899313 0.56300002 4293649116
-0.12010406 -0.004482388 0.56199998 4293780958
-0.11903471 -0.004482816 0.56199998 4293452246
-0.1179654 -0.0044832379 0.56199998 4293518039
-0.11689618 -0.004483657 0.56199998 4293452507
-0.11582701 -0.0044840709 0.56199998 4293715936
-0.11455368 -0.0044765011 0.56099999 4293650644
-0.11348651 -0.0044769053 0.56099999 4293716438
-0.1124194 -0.0044773053 0.56099999 4293387484
-0.11135235 -0.0044777011 0.56099999 4293255898
-0.11028533 -0.0044780923 0.56099999 4293123546
-0.1092184 -0.0044784797 0.56099999 4293715684
-0.10815153 -0.004478862 0.56099999 4293648857
-0.10708471 -0.0044792416 0.56099999 4293517271
-0.10601793 -0.0044796146 0.56099999 4293517019
-0.10495123 -0.0044799843 0.56099999 4293780191
-0.10369939 -0.0044723633 0.56 4293714648
-0.1026347 -0.0044727246 0.56 4294109406
-0.10157008 -0.0044730804 0.56 4293649370
-0.10050549 -0.0044734329 0.56 4293715163
-0.099440962 -0.0044737807 0.56 4293715163
-0.09837649 -0.0044741244 0.56 4293649370
-0.09731207 -0.0044744634 0.56 4293189339
-0.096247733 -0.0044748001 0.56 4293386462
-0.095353395 -0.0044831228 0.56099999 4293648855
-0.094287261 -0.0044834493 0.56099999 4293977820
-0.09305501 -0.0044757808 0.56 4293846490
-0.091826625 -0.0044681071 0.55900002 4293977820
-0.090764455 -0.0044684215 0.55900002 4293781210
-0.089862794 -0.0044767256 0.56 4293847004
-0.088798843 -0.004477032 0.56 4293255131
-0.087734945 -0.0044773351 0.56 4293518302
-0.086671099 -0.0044776336 0.56 4293584347
-0.085760184 -0.0044859243 0.56099999 4293913056
-0.084694542 -0.0044862153 0.56099999 4293321691
-0.083628967 -0.0044865026 0.56099999 4293650656
-0.082710601 -0.0044947825 0.56199998 4293650142
-0.08178851 -0.0045030606 0.56300002 4293518300
-0.0807193 -0.0045033372 0.56300002 4293584095
-0.07979162 -0.0045116097 0.56400001 4294176233
-0.078860186 -0.004519877 0.565 4293913056
-0.077787332 -0.0045201425 0.565 4293650140
-0.076714523 -0.0045204037 0.565 4293715684
-0.075641781 -0.0045206607 0.565 4293978599
-0.074569076 -0.0045209136 0.565 4294110441
-0.073496431 -0.0045211627 0.565 4293912806
-0.072423853 -0.0045214081 0.565 4293847263
-0.071477599 -0.0045296527 0.56599998 4293913056
-0.070403218 -0.0045298911 0.56599998 4294109919
-0.069328867 -0.0045301248 0.56599998 4294241761
-0.06825459 -0.0045303553 0.56599998 4294176233
-0.067299038 -0.004538585 0.56699997 4294505197
-0.066222951 -0.004538808 0.56699997 4294110439
-0.065261818 -0.0045470335 0.56800002 4294439404
-0.064183936 -0.0045472486 0.56800002 4294438891
-0.063217193 -0.0045554666 0.56900001 4294373098
-0.062355913 -0.0045716879 0.57099998 4294176746
-0.061379779 -0.0045799003 0.57200003 4294242795
-0.06029449 -0.0045801015 0.57200003 4294176746
-0.059416272 -0.0045963144 0.574 4294176746
-0.058327269 -0.004596509 0.574 4294307818
-0.057238322 -0.004596699 0.574 4294373611
-0.056247234 -0.0046048942 0.57499999 4294504947
-0.055252403 -0.0046130861 0.57599998 4294570740
-0.054159794 -0.0046132668 0.57599998 4294374127
-0.053712137 -0.0046695084 0.583 4294768885
-0.052606337 -0.0046696831 0.583 4294965748
-0.051500559 -0.0046698535 0.583 4294636784
-0.050394844 -0.0046700202 0.583 4294767854
-0.049373701 -0.0046781935 0.58399999 4294833647
-0.048266158 -0.0046783523 0.58399999 4294637297
-0.047239412 -0.0046865195 0.58499998 4294637297
-0.046130061 -0.0046866713 0.58499998 4294703090
-0.045174655 -0.0047028428 0.58700001 4294967033
-0.044061579 -0.0047029871 0.58700001 4294966261
-0.042948544 -0.0047031287 0.58700001 4294966261
-0.037012503 -0.0048000533 0.59899998 4294966263
-0.035876948 -0.0048001711 0.59899998 4294966261
-0.03474142 -0.0048002824 0.59899998 4294769139
-0.03366204 -0.0048084063 0.60000002 4294769135
-0.032578882 -0.0048165261 0.60100001 4294835184
-0.031491969 -0.0048246416 0.602 4294966261
-0.030401289 -0.0048327534 0.60299999 4294966261
-0.15870881 -0.0035457537 0.58600003 4294044648
-0.15705441 -0.0035342693 0.58399999 4293913060
-0.15594177 -0.0035348814 0.58399999 4293847267
-0.15509424 -0.0035415418 0.58499998 4293847267
-0.15397976 -0.0035421443 0.58499998 4293584095
-0.15077484 -0.0034942944 0.57700002 4293452257
-0.1496757 -0.003494879 0.57700002 4293452257
-0.14831905 -0.0034894 0.57599998 4293386716
-0.14696625 -0.0034839141 0.57499999 4293847267
-0.14561735 -0.0034784218 0.574 4293912806
-0.14427228 -0.0034729221 0.57300001 4293649890
-0.14293107 -0.0034674159 0.57200003 4293189339
-0.14159371 -0.0034619025 0.57099998 4293715684
-0.1405063 -0.0034624464 0.57099998 4293847265
-0.13917476 -0.0034569204 0.56999999 4293650142
-0.13808933 -0.0034574538 0.56999999 4293582812
-0.1367636 -0.0034519157 0.56900001 4293714398
-0.13568017 -0.0034524382 0.56900001 4293582812
-0.13436027 -0.0034468879 0.56800002 4293780191
-0.13304418 -0.00344133 0.56699997 4293518815
-0.131732 -0.003435767 0.56599998 4293321693
-0.13042365 -0.0034301968 0.565 4293387486
-0.1293481 -0.003430692 0.565 4293321693
-0.12827261 -0.0034311826 0.565 4293452509
-0.12719716 -0.003431669 0.565 4293649888
-0.12567534 -0.0034200011 0.56300002 4293321693
-0.12460381 -0.0034204761 0.56300002 4293189851
-0.12353233 -0.0034209467 0.56300002 4293452509
-0.12267841 -0.0034274897 0.56400001 4293584095
-0.12138952 -0.0034218733 0.56300002 4293648605
-0.12031823 -0.0034223304 0.56300002 4293582812
-0.11924697 -0.0034227828 0.56300002 4293451994
-0.11817577 -0.00342323 0.56300002 4293451994
-0.11710461 -0.0034236731 0.56300002 4293057751
-0.11582743 -0.00341803 0.56199998 4293255131
-0.11475828 -0.0034184626 0.56199998 4293321689
-0.11368922 -0.0034188917 0.56199998 4293387482
-0.1126202 -0.0034193159 0.56199998 4293518815
-0.11155125 -0.0034197359 0.56199998 4293321693
-0.11048233 -0.0034201511 0.56199998 4293188567
-0.1094135 -0.0034205623 0.56199998 4293649118
-0.1083447 -0.0034209688 0.56199998 4293517017
-0.10708509 -0.0034152833 0.56099999 4293385687
-0.10601833 -0.0034156803 0.56099999 4293517019
-0.10495162 -0.003416073 0.56099999 4293582812
-0.10369977 -0.0034103715 0.56 4293319640
-0.10263507 -0.0034107543 0.56 4293582812
-0.10157044 -0.0034111338 0.56 4293253847
-0.10050584 -0.0034115079 0.56 4293582812
-0.09944132 -0.0034118779 0.56 4293582810
-0.09837684 -0.0034122441 0.56 4293517017
-0.097312428 -0.0034126062 0.56 4293385689
-0.096248068 -0.0034129634 0.56 4293517019
-0.095523708 -0.0034255066 0.56199998 4293778908
-0.094287604 -0.0034197611 0.56099999 4293910750
-0.093055353 -0.0034140102 0.56 4293582812
-0.091826946 -0.0034082532 0.55900002 4293253847
-0.090764761 -0.0034085887 0.55900002 4293123544
-0.089863122 -0.0034150179 0.56 4293452509
-0.088799156 -0.0034153454 0.56 4292992208
-0.087735251 -0.0034156688 0.56 4293518552
-0.08667139 -0.0034159881 0.56 4293716188
-0.085607603 -0.0034163031 0.56 4293650138
-0.084543876 -0.0034166141 0.56 4293125082
-0.083629258 -0.0034230221 0.56099999 4293387997
-0.082710899 -0.0034294273 0.56199998 4293321693
-0.081643522 -0.0034297265 0.56199998 4293387486
-0.080719583 -0.0034361258 0.56300002 4293518302
-0.079791896 -0.0034425214 0.56400001 4293649888
-0.078860462 -0.0034489136 0.565 4293715163
-0.077787608 -0.0034491981 0.565 4293780956
-0.076714791 -0.003449478 0.565 4293912547
-0.075642042 -0.0034497541 0.565 4294109669
-0.074569337 -0.003450026 0.565 4294110439
-0.073496692 -0.0034502936 0.565 4293913060
-0.072424106 -0.0034505574 0.565 4293847265
-0.071477845 -0.003456925 0.56599998 4293913058
-0.070403449 -0.0034571802 0.56599998 4293979103
-0.06932912 -0.0034574326 0.56599998 4293913310
-0.068375409 -0.0034637889 0.56699997 4293978853
-0.067299269 -0.0034640331 0.56699997 4293649888
-0.066223182 -0.0034642734 0.56699997 4293714398
-0.065262049 -0.0034706197 0.56800002 4294438121
-0.064184152 -0.0034708525 0.56800002 4294701806
-0.063217409 -0.0034771913 0.56900001 4294307305
-0.062137719 -0.0034774155 0.56900001 4293848037
-0.061379991 -0.0034959717 0.57200003 4294110953
-0.060294699 -0.0034961896 0.57200003 4294242795
-0.059416469 -0.0035086283 0.574 4294242795
-0.058327477 -0.0035088386 0.574 4294373098
-0.057238523 -0.0035090446 0.574 4294307305
-0.056247428 -0.0035153597 0.57499999 4294307051
-0.055252593 -0.0035216722 0.57599998 4294570222
-0.054254007 -0.0035279817 0.57700002 4294373611
-0.053159539 -0.0035281726 0.57700002 4294768369
-0.05233581 -0.0035467041 0.57999998 4294965748
-0.051589075 -0.0035713487 0.58399999 4294636784
-0.050481454 -0.0035715299 0.58399999 4294571244
-0.049373873 -0.0035717064 0.58399999 4294834160
-0.048266325 -0.0035718791 0.58399999 4294834162
-0.047239568 -0.0035781639 0.58499998 4294768369
-0.046209075 -0.0035844464 0.58600003 4294571504
-0.045174804 -0.003590724 0.58700001 4294637297
-0.044136792 -0.0035969988 0.588 4294703092
-0.043021843 -0.0035971517 0.588 4294834678
-0.040014628 -0.0036281794 0.59299999 4294966261
-0.037012629 -0.0036652954 0.59899998 4294966265
-0.035877068 -0.0036654223 0.59899998 4294637297
-0.03474154 -0.0036655457 0.59899998 4294966261
-0.033662144 -0.0036717842 0.60000002 4294834930
-0.03257899 -0.0036780192 0.60100001 4294834930
-0.031544387 -0.0036903701 0.60299999 4294835445
-0.15705507 -0.0024256564 0.58399999 4293847267
-0.1559424 -0.002426293 0.58399999 4293847267
-0.15482974 -0.0024269246 0.58399999 4293847013
-0.15187465 -0.0023984534 0.57700002 4293518304
-0.15077545 -0.0023990681 0.57700002 4293518052
-0.14967629 -0.0023996769 0.57700002 4293715432
-0.14831963 -0.0023961209 0.57599998 4293584095
-0.14696683 -0.0023925577 0.57499999 4293649888
-0.1456179 -0.0023889877 0.574 4293912547
-0.14427286 -0.0023854109 0.57300001 4294109669
-0.14293164 -0.0023818272 0.57200003 4293846238
-0.14159428 -0.0023782363 0.57099998 4293977568
-0.14050685 -0.0023788051 0.57099998 4294043361
-0.13917531 -0.0023752018 0.56999999 4294043361
-0.13808987 -0.0023757592 0.56999999 4293780958
-0.13676414 -0.0023721438 0.56900001 4293912545
-0.13568072 -0.0023726909 0.56900001 4293715936
-0.13436079 -0.0023690627 0.56800002 4293584093
-0.1330447 -0.0023654273 0.56699997 4293518813
-0.13173249 -0.0023617856 0.56599998 4293518813
-0.13042416 -0.0023581374 0.565 4293452509
-0.12934859 -0.0023586571 0.565 4293452509
-0.12827311 -0.0023591723 0.565 4293649118
-0.12719767 -0.0023596832 0.565 4293714911
-0.12567581 -0.002351834 0.56300002 4293452255
-0.12460428 -0.0023523332 0.56300002 4293386462
-0.1235328 -0.0023528279 0.56300002 4293517789
-0.1226789 -0.0023574978 0.56400001 4293714911
-0.12160561 -0.002357984 0.56400001 4293648355
-0.12053239 -0.0023584659 0.56400001 4293582562
-0.11945924 -0.002358943 0.56400001 4293648605
-0.11838612 -0.0023594154 0.56400001 4293977570
-0.11731306 -0.0023598832 0.56400001 4293255133
-0.11603397 -0.0023561611 0.56300002 4293255133
-0.11475874 -0.002352433 0.56199998 4293452255
-0.11368966 -0.0023528859 0.56199998 4293584097
-0.11262063 -0.0023533334 0.56199998 4293584097
-0.11155167 -0.0023537767 0.56199998 4293649890
-0.11048275 -0.0023542156 0.56199998 4293386716
-0.10941391 -0.0023546496 0.56199998 4293584095
-0.10815234 -0.0023508891 0.56099999 4293582812
-0.10708552 -0.0023513141 0.56099999 4293517019
-0.10582975 -0.002347542 0.56 4293714652
-0.10476493 -0.0023479566 0.56 4293780445
-0.10370017 -0.0023483671 0.56 4293517789
-0.10263547 -0.0023487729 0.56 4293517789
-0.10157083 -0.0023491746 0.56 4293254362
-0.10050622 -0.0023495711 0.56 4293451742
-0.099441685 -0.0023499639 0.56 4293386203
-0.098377228 -0.002350352 0.56 4293386203
-0.097312801 -0.0023507357 0.56 4293320155
-0.09624844 -0.0023511152 0.56 4293385949
-0.09552408 -0.0023598878 0.56199998 4293582560
-0.094456032 -0.0023602599 0.56199998 4293582560
-0.093055695 -0.0023522265 0.56 4293451996
-0.091991559 -0.0023525881 0.56 4293057238
-0.090927482 -0.0023529457 0.56 4293189337
-0.089863464 -0.0023532985 0.56 4293913060
-0.088799499 -0.002353647 0.56 4293517519
-0.087735586 -0.0023539911 0.56 4293780947
-0.086671725 -0.0023543308 0.56 4293650392
-0.085607931 -0.0023546666 0.56 4293650392
-0.084544189 -0.0023549977 0.56 4293321691
-0.083629571 -0.0023595304 0.56099999 4293387484
-0.082711205 -0.0023640599 0.56199998 4293584095
-0.081643835 -0.0023643794 0.56199998 4293913060
-0.080719888 -0.0023689026 0.56300002 4293518302
-0.079792202 -0.0023734216 0.56400001 4293386716
-0.078860745 -0.0023779375 0.565 4293517269
-0.077787898 -0.0023782414 0.565 4293583062
-0.076715089 -0.0023785408 0.565 4293714650
-0.075642318 -0.0023788358 0.565 4293714650
-0.07456962 -0.0023791259 0.565 4293649118
-0.073496975 -0.0023794128 0.565 4293714911
-0.072424375 -0.0023796947 0.565 4293584093
-0.071604386 -0.0023883968 0.56699997 4293386714
-0.070528105 -0.0023886717 0.56699997 4293452509
-0.069451869 -0.0023889418 0.56699997 4293913060
-0.068375669 -0.0023892072 0.56699997 4293913058
-0.067418225 -0.0023936834 0.56800002 4293584093
-0.06634023 -0.0023939412 0.56800002 4293715684
-0.065262288 -0.0023941945 0.56800002 4293847013
-0.06418439 -0.0023944434 0.56800002 4294175462
-0.063217647 -0.0023989042 0.56900001 4294175462
-0.062137943 -0.0023991449 0.56900001 4294044646
-0.061380222 -0.0024120326 0.57200003 4294373611
-0.060294919 -0.0024122661 0.57200003 4294307818
-0.0594167 -0.0024209307 0.574 4294373611
-0.05832769 -0.0024211563 0.574 4294373096
-0.057238732 -0.0024213779 0.574 4294241509
-0.056247637 -0.0024258136 0.57499999 4294176233
-0.055252798 -0.0024302462 0.57599998 4294373611
-0.054254211 -0.0024346753 0.57700002 4294242795
-0.053436127 -0.0024475402 0.57999998 4294308588
-0.052335996 -0.0024477423 0.57999998 4294505197
-0.051589265 -0.0024648223 0.58399999 4294636784
-0.05048164 -0.0024650174 0.58399999 4294636784
-0.049374048 -0.0024652074 0.58399999 4294899955
-0.0482665 -0.0024653941 0.58399999 4294637297
-0.047239743 -0.0024697974 0.58499998 4294703090
-0.046209238 -0.0024741977 0.58600003 4294571504
-0.045174971 -0.0024785937 0.58700001 4294571504
-0.044136945 -0.0024829861 0.588 4294703094
-0.043095168 -0.0024873745 0.58899999 4294966780
-0.04219218 -0.0025002067 0.59200001 4294834932
-0.041139096 -0.0025045881 0.59299999 4294966519
-0.040014774 -0.002504742 0.59299999 4294703092
-0.038956065 -0.002509115 0.59399998 4294637299
-0.037893616 -0.0025134853 0.59500003 4294768633
-0.037012763 -0.0025305245 0.59899998 4294966011
-0.035877194 -0.0025306623 0.59899998 4294899701
-0.034799669 -0.0025350209 0.60000002 4294966522
-0.033662267 -0.0025351497 0.60000002 4294966261
-0.032633316 -0.0025437255 0.602 4294834932
-0.031544499 -0.0025480716 0.60299999 4294966261
-0.030451918 -0.0025524141 0.60399997 4294966519
-0.27498662 -0.0011933815 0.57499999 4294505979
-0.27389926 -0.0011946217 0.57499999 4287795092
-0.27328607 -0.0011979358 0.57599998 4286211168
-0.27219635 -0.0011991665 0.57599998 4282066209
-0.27110639 -0.0012003914 0.57599998 4281215279
-0.26952258 -0.0012177867 0.58200002 4284499780
-0.26842013 -0.001218995 0.58200002 4287328879
-0.15103738 -0.0013060876 0.57800001 4293518050
