# .PCD v0.7 - Point Cloud Data file format
VERSION 0.7
FIELDS x y z rgba
SIZE 4 4 4 4
TYPE F F F U
COUNT 1 1 1 1
WIDTH 1043
HEIGHT 1
VIEWPOINT 0 0 0 1 0 0 0
POINTS 1043
DATA ascii
-0.097353883 0.056477509 0.61155969 4289109911
-0.096349142 0.056465965 0.6114347 4289175706
-0.095325306 0.056442879 0.61118472 4289175706
-0.094340868 0.056442879 0.61118472 4289110683
-0.093222782 0.056362081 0.61030978 4289044890
-0.092145316 0.056304373 0.60968488 4288913304
-0.091125906 0.056281283 0.6094349 4289242269
-0.090144284 0.056281283 0.6094349 4289242269
-0.089162663 0.056281283 0.6094349 4289308062
-0.088199124 0.056292828 0.60955989 4289242269
-0.08727096 0.056327458 0.60993487 4289242269
-0.086306207 0.056338996 0.6100598 4289308062
-0.085306101 0.056327458 0.60993487 4289373855
-0.084323674 0.056327458 0.60993487 4289374368
-0.083341241 0.056327458 0.60993487 4289440161
-0.082358822 0.056327458 0.60993487 4289242782
-0.081426412 0.056362081 0.61030978 4289374368
-0.080443382 0.056362081 0.61030978 4289439907
-0.07954172 0.056419794 0.61093473 4289308321
-0.078605905 0.056454424 0.61130971 4289439394
-0.077637129 0.056465965 0.6114347 4289505187
-0.076652288 0.056465965 0.6114347 4289505187
-0.07585305 0.056604475 0.61293453 4289439394
-0.074850529 0.056592934 0.61280954 4289044636
-0.073863469 0.056592934 0.61280954 4289439394
-0.072876416 0.056592934 0.61280954 4289308321
-0.21575549 0.07198967 0.76616818 4281940532
-0.21424146 0.071895719 0.76516825 4282006325
-0.13590933 0.057521272 0.61218458 4286214769
-0.13492328 0.057521272 0.61218458 4286806906
-0.13393724 0.057521272 0.61218458 4288123784
-0.13276118 0.057439066 0.61130971 4288123784
-0.13139933 0.057274655 0.60955989 4288123784
-0.13041751 0.057274655 0.60955989 4288386956
-0.1290376 0.057098497 0.60768509 4288583567
-0.12774272 0.056957569 0.60618526 4288517774
-0.1267402 0.056945827 0.60606027 4288517774
-0.12576401 0.056945827 0.60606027 4288583567
-0.12465915 0.056887105 0.60543531 4288518544
-0.12360737 0.056851871 0.60506034 4288584337
-0.12263279 0.056851871 0.60506034 4288584335
-0.12135665 0.056710947 0.60356051 4288518542
-0.12006041 0.056558277 0.60193568 4288648845
-0.11909086 0.056558277 0.60193568 4288714638
-0.11819491 0.056593511 0.60231066 4288845710
-0.11722476 0.056593511 0.60231066 4288911503
-0.11651997 0.056722689 0.6036855 4288714892
-0.11549976 0.056699201 0.60343552 4288649099
-0.11452781 0.056699201 0.60343552 4288648845
-0.11320305 0.056523044 0.60156071 4288517259
-0.11214084 0.056476071 0.60106081 4288517261
-0.11117271 0.056476071 0.60106081 4288583054
-0.11057122 0.056663971 0.60306054 4288648847
-0.1099406 0.056840129 0.60493535 4288714640
-0.10896622 0.056840129 0.60493535 4288648847
-0.10812572 0.056910593 0.60568529 4288714640
-0.10721648 0.056945827 0.60606027 4288714638
-0.1062622 0.056957569 0.60618526 4288780431
-0.10528582 0.056957569 0.60618526 4288846224
-0.1045245 0.057075005 0.60743511 4288780431
-0.10380176 0.057215933 0.60893494 4288648845
-0.10303199 0.057333369 0.61018479 4288846224
-0.10221639 0.057427321 0.61118472 4288977810
-0.10123195 0.057427321 0.61118472 4288780431
-0.10028851 0.057450812 0.6114347 4288780431
-0.099344268 0.0574743 0.61168468 4289043603
-0.098359019 0.0574743 0.61168468 4289044116
-0.097353883 0.057462554 0.61155969 4289044116
-0.096349142 0.057450812 0.6114347 4289109911
-0.095325306 0.057427321 0.61118472 4289109911
-0.094340868 0.057427321 0.61118472 4289175704
-0.093222782 0.057345115 0.61030978 4289044118
-0.092145316 0.057286397 0.60968488 4289109911
-0.091125906 0.057262909 0.6094349 4289241497
-0.090144284 0.057262909 0.6094349 4289110681
-0.089162663 0.057262909 0.6094349 4289242267
-0.088199124 0.057274655 0.60955989 4289044888
-0.08727096 0.057309885 0.60993487 4288386958
-0.086306207 0.057321623 0.6100598 4289242267
-0.085306101 0.057309885 0.60993487 4289242267
-0.084323674 0.057309885 0.60993487 4289176987
-0.083341241 0.057309885 0.60993487 4289308573
-0.082358822 0.057309885 0.60993487 4289045403
-0.081426412 0.057345115 0.61030978 4289176989
-0.080443382 0.057345115 0.61030978 4289242782
-0.07954172 0.057403833 0.61093473 4289242782
-0.078605905 0.057439066 0.61130971 4289373855
-0.077637129 0.057450812 0.6114347 4289373855
-0.076652288 0.057450812 0.6114347 4289373855
-0.07585305 0.057591736 0.61293453 4289110683
-0.074850529 0.05757999 0.61280954 4288913563
-0.073863469 0.05757999 0.61280954 4289045149
-0.072876416 0.05757999 0.61280954 4289045670
-0.21575549 0.073223747 0.76616818 4281742896
-0.21424146 0.073128186 0.76516825 4281743153
-0.21266104 0.073008731 0.7639184 4281611567
-0.21143061 0.073008731 0.7639184 4281611567
-0.13511612 0.058590941 0.61305952 4286872697
-0.13412866 0.058590941 0.61305952 4287859329
-0.13286975 0.058471486 0.61180961 4288056708
-0.1315071 0.058304254 0.6100598 4288123014
-0.13052447 0.058304254 0.6100598 4288451979
-0.12909068 0.058101192 0.60793507 4288386188
-0.12776907 0.057945903 0.60631025 4288386188
-0.12679248 0.057945903 0.60631025 4288386188
-0.12584183 0.05795785 0.60643524 4288386188
-0.1248393 0.057945903 0.60631025 4288452751
-0.12386271 0.057945903 0.60631025 4288386958
-0.12286079 0.05793396 0.60618526 4288386958
-0.12188441 0.05793396 0.60618526 4288518544
-0.12090801 0.05793396 0.60618526 4288648847
-0.11993162 0.05793396 0.60618526 4288714640
-0.11895525 0.05793396 0.60618526 4288714638
-0.1181248 0.058005627 0.60693514 4288714638
-0.1171472 0.058005627 0.60693514 4288648845
-0.11616961 0.058005627 0.60693514 4288648845
-0.11500225 0.05791007 0.60593528 4288714638
-0.11402626 0.05791007 0.60593528 4288583052
-0.1128404 0.057802558 0.60481036 4288583054
-0.11186622 0.057802558 0.60481036 4288583054
-0.11091497 0.057814505 0.60493535 4288648847
-0.10998603 0.057838395 0.60518533 4288648847
-0.10901126 0.057838395 0.60518533 4288583054
-0.10812572 0.057886176 0.60568529 4288714640
-0.10728281 0.05795785 0.60643524 4288648845
-0.10648129 0.058053408 0.60743511 4288714638
-0.1055029 0.058053408 0.60743511 4288715151
-0.10478258 0.05819675 0.60893494 4288649358
-0.10401482 0.058316201 0.61018479 4288583567
-0.10320083 0.058411766 0.61118472 4288780946
-0.10232089 0.058471486 0.61180961 4288912530
-0.10133546 0.058471486 0.61180961 4288715151
-0.10035001 0.058471486 0.61180961 4288780431
-0.099364556 0.058471486 0.61180961 4289043603
-0.098399207 0.058483433 0.6119346 4289044116
-0.097373784 0.058459546 0.61168468 4288978323
-0.096388534 0.058459546 0.61168468 4289044118
-0.095364302 0.058435656 0.6114347 4289109911
-0.094379455 0.058435656 0.6114347 4289109911
-0.093356423 0.058411766 0.61118472 4289044118
-0.092296429 0.058363982 0.61068475 4289044116
-0.091312796 0.058363982 0.61068475 4289109909
-0.090329155 0.058363982 0.61068475 4289175702
-0.089345522 0.058363982 0.61068475 4289241495
-0.088416137 0.058399819 0.61105973 4289044888
-0.087574974 0.058495376 0.61205959 4289044888
-0.086730585 0.058590941 0.61305952 4289110681
-0.08577808 0.058614835 0.6133095 4289044888
-0.084790215 0.058614835 0.6133095 4288979608
-0.083819434 0.058626778 0.61343449 4288979608
-0.082797617 0.058602888 0.61318451 4289045403
-0.08180996 0.058602888 0.61318451 4289045403
-0.080822296 0.058602888 0.61318451 4289176735
-0.079834633 0.058602888 0.61318451 4289176735
-0.078814834 0.058578998 0.61293453 4289045149
-0.077827573 0.058578998 0.61293453 4289308321
-0.076840311 0.058578998 0.61293453 4289374114
-0.07585305 0.058578998 0.61293453 4288913563
-0.074865796 0.058578998 0.61293453 4288715933
-0.21266104 0.074239179 0.7639184 4281479981
-0.21143061 0.074239179 0.7639184 4281348395
-0.2100282 0.074178442 0.76329345 4281545774
-0.20862781 0.074117713 0.76266855 4281743150
-0.12782174 0.058946781 0.60656017 4288254602
-0.12684475 0.058946781 0.60656017 4288254602
-0.12591963 0.058971073 0.60681015 4288386188
-0.12494223 0.058971073 0.60681015 4288321165
-0.12399037 0.058983218 0.60693514 4288321165
-0.12313944 0.059043955 0.6075601 4288321165
-0.12223624 0.059080396 0.60793507 4288386958
-0.12125703 0.059080396 0.60793507 4288583567
-0.12032728 0.059104688 0.60818505 4288583567
-0.11939672 0.059128977 0.60843498 4288583567
-0.11846536 0.05915327 0.60868496 4288583567
-0.11746082 0.059141122 0.60855997 4288517774
-0.11645668 0.059128977 0.60843498 4288517774
-0.11523946 0.059007514 0.60718513 4288714640
-0.11426146 0.059007514 0.60718513 4288583054
-0.11314356 0.058934636 0.60643524 4288583056
-0.11191246 0.058801021 0.60506034 4288583056
-0.11093789 0.058801021 0.60506034 4288648849
-0.11003146 0.058837462 0.60543531 4288648849
-0.10905628 0.058837462 0.60543531 4288714642
-0.10830422 0.058958925 0.60668516 4288648849
-0.10752603 0.059068248 0.60781008 4288583569
-0.10678803 0.059201859 0.60918492 4288583569
-0.10598048 0.059299026 0.61018479 4288715155
-0.10499765 0.059299026 0.61018479 4288583569
-0.10418527 0.059396204 0.61118472 4288583567
-0.10330635 0.05945693 0.61180961 4288715153
-0.10238361 0.05949337 0.61218458 4288912530
-0.10139757 0.05949337 0.61218458 4288715151
-0.10041151 0.05949337 0.61218458 4288715151
-0.099405162 0.059481226 0.61205959 4288912530
-0.098419309 0.059481226 0.61205959 4288978325
-0.09741357 0.059469078 0.6119346 4288978325
-0.096408226 0.05945693 0.61180961 4288978325
-0.095403291 0.059444789 0.61168468 4289044118
-0.094418041 0.059444789 0.61168468 4289044118
-0.093394607 0.059420496 0.6114347 4288912532
-0.092409775 0.059420496 0.6114347 4288912530
-0.091424927 0.059420496 0.6114347 4288978323
-0.090440087 0.059420496 0.6114347 4289109911
-0.089564949 0.05949337 0.61218458 4289109911
-0.088578895 0.05949337 0.61218458 4289044888
-0.08771804 0.0595784 0.61305952 4288979095
-0.086854354 0.059663422 0.6139344 4288913302
-0.086092733 0.059821326 0.61555922 4288979095
-0.085101239 0.059821326 0.61555922 4289044888
-0.084195144 0.05988206 0.61618418 4288913302
-0.08320266 0.05988206 0.61618418 4289110683
-0.082210168 0.05988206 0.61618418 4289110683
-0.081168249 0.059845619 0.6158092 4289044890
-0.080062449 0.059760597 0.61493433 4289044890
-0.078991614 0.059699863 0.61430937 4289242528
-0.07800214 0.059699863 0.61430937 4289505700
-0.076934323 0.05963913 0.61368442 4288321179
-0.075945854 0.05963913 0.61368442 4287729042
-0.12782174 0.059923772 0.60656017 4288254089
-0.12684475 0.059923772 0.60656017 4288188296
-0.12591963 0.05994847 0.60681015 4288254089
-0.12494223 0.05994847 0.60681015 4288386188
-0.12399037 0.059960816 0.60693514 4288451981
-0.12313944 0.060022559 0.6075601 4288451981
-0.12223624 0.060059603 0.60793507 4288517774
-0.12125703 0.060059603 0.60793507 4288517774
-0.12032728 0.060084298 0.60818505 4288517774
-0.11939672 0.060108989 0.60843498 4288517774
-0.11846536 0.060133684 0.60868496 4288583567
-0.11746082 0.060121339 0.60855997 4288648847
-0.11645668 0.060108989 0.60843498 4288583054
-0.11523946 0.059985515 0.60718513 4288714642
-0.11426146 0.059985515 0.60718513 4288517263
-0.11314356 0.05991143 0.60643524 4288648335
-0.11191246 0.059775598 0.60506034 4288714128
-0.11093789 0.059775598 0.60506034 4288648849
-0.11003146 0.059812643 0.60543531 4288583056
-0.10905628 0.059812643 0.60543531 4288583569
-0.10830422 0.059936121 0.60668516 4288517776
-0.10752603 0.060047254 0.60781008 4288517776
-0.10678803 0.060183078 0.60918492 4288583569
-0.10619757 0.06040534 0.6114347 4288649362
-0.10521273 0.06040534 0.6114347 4288649362
-0.10429179 0.060442381 0.61180961 4288649362
-0.10336966 0.060479425 0.61218458 4288649362
-0.10240451 0.060491771 0.61230958 4288780946
-0.10141826 0.060491771 0.61230958 4288649360
-0.10043201 0.060491771 0.61230958 4288649360
-0.09944576 0.060491771 0.61230958 4288912532
-0.098459505 0.060491771 0.61230958 4288978325
-0.097473256 0.060491771 0.61230958 4288912532
-0.096487008 0.060491771 0.61230958 4288978325
-0.095500752 0.060491771 0.61230958 4288978325
-0.094514497 0.060491771 0.61230958 4288912532
-0.093509153 0.060479425 0.61218458 4288780946
-0.092523105 0.060479425 0.61218458 4288780944
-0.091537058 0.060479425 0.61218458 4288978323
-0.090587981 0.06050412 0.61243457 4289044118
-0.089711241 0.060578208 0.61318451 4289044118
-0.088723578 0.060578208 0.61318451 4288913302
-0.087878987 0.060676988 0.61418438 4288847509
-0.087066539 0.060800467 0.61543423 4288650130
-0.086389907 0.061022729 0.61768401 4288650130
-0.085533224 0.061121508 0.61868387 4288847509
-0.084536701 0.061121508 0.61868387 4288913302
-0.083573945 0.061146203 0.61893386 4288979095
-0.08251033 0.061096817 0.61843395 4288781716
-0.08151421 0.061096817 0.61843395 4288781718
-0.080518089 0.061096817 0.61843395 4289044890
-0.14977999 0.067250609 0.66980344 4285029468
-0.14870113 0.067250609 0.66980344 4287859079
-0.14729171 0.067100018 0.66830361 4287332735
-0.14531288 0.066685893 0.66417903 4287398782
-0.14424308 0.066685893 0.66417903 4287398782
-0.1419878 0.066133738 0.6586796 4287661440
-0.14092685 0.066133738 0.6586796 4287990405
-0.12427124 0.061076447 0.60830998 4288319882
-0.12329143 0.061076447 0.60830998 4288319882
-0.12236188 0.061101548 0.60855997 4288451468
-0.12138166 0.061101548 0.60855997 4288583054
-0.12042618 0.061114099 0.60868496 4288517261
-0.11949483 0.061139196 0.60893494 4288517261
-0.11863564 0.061201945 0.60955989 4288583054
-0.11765382 0.061201945 0.60955989 4288648847
-0.11686337 0.061302334 0.61055976 4288517261
-0.11585622 0.061289784 0.61043477 4288779919
-0.11487299 0.061289784 0.61043477 4288714126
-0.11347002 0.061063904 0.60818505 4288714126
-0.11225922 0.06093841 0.60693514 4288714126
-0.11121288 0.060900763 0.60656017 4288779919
-0.11023589 0.060900763 0.60656017 4288779919
-0.1092589 0.060900763 0.60656017 4288583056
-0.10857198 0.061063904 0.60818505 4288583056
-0.10783558 0.061201945 0.60955989 4288583569
-0.10698521 0.061277237 0.61030978 4288649362
-0.10619757 0.06139018 0.6114347 4288649362
-0.10521273 0.06139018 0.6114347 4288649362
-0.10429179 0.061427824 0.61180961 4288715153
-0.10336966 0.061465472 0.61218458 4288715153
-0.10240451 0.061478022 0.61230958 4288780946
-0.10141826 0.061478022 0.61230958 4288649360
-0.10043201 0.061478022 0.61230958 4288649360
-0.09944576 0.061478022 0.61230958 4288780946
-0.098459505 0.061478022 0.61230958 4288715153
-0.097473256 0.061478022 0.61230958 4288912532
-0.096487008 0.061478022 0.61230958 4288912532
-0.095500752 0.061478022 0.61230958 4288978325
-0.094514497 0.061478022 0.61230958 4288650130
-0.093509153 0.061465472 0.61218458 4288650130
-0.092523105 0.061465472 0.61218458 4288650130
-0.091537058 0.061465472 0.61218458 4288781716
-0.090587981 0.061490569 0.61243457 4288847509
-0.089711241 0.061565869 0.61318451 4288847509
-0.088723578 0.061565869 0.61318451 4288452751
-0.087878987 0.061666258 0.61418438 4288584337
-0.087066539 0.061791748 0.61543423 4288650130
-0.086389907 0.062017635 0.61768401 4288518544
-0.085533224 0.062118024 0.61868387 4288518544
-0.084536701 0.062118024 0.61868387 4288518544
-0.083573945 0.062143121 0.61893386 4287926409
-0.08251033 0.06209293 0.61843395 4288386960
-0.08151421 0.06209293 0.61843395 4289439907
-0.080518089 0.06209293 0.61843395 4290821560
-0.14977999 0.068329468 0.66980344 4285029468
-0.14870113 0.068329468 0.66980344 4288121991
-0.14729171 0.068176463 0.66830361 4287529854
-0.14531288 0.067755699 0.66417903 4287661440
-0.14424308 0.067755699 0.66417903 4287464061
-0.1419878 0.067194678 0.6586796 4287464061
-0.14076641 0.067118175 0.65792972 4287924612
-0.13893703 0.066748418 0.6543051 4288252807
-0.13788313 0.066748418 0.6543051 4288318600
-0.13682923 0.066748418 0.6543051 4288384391
-0.12344342 0.062132765 0.60905993 4288188296
-0.12246241 0.062132765 0.60905993 4288188296
-0.12148139 0.062132765 0.60905993 4288319882
-0.1205251 0.062145516 0.60918492 4288319882
-0.11966652 0.062209271 0.60980988 4288451468
-0.11089463 0.062247518 0.61018479 4288779919
-0.1099118 0.062247518 0.61018479 4288714126
-0.10892896 0.062247518 0.61018479 4288714126
-0.10821148 0.062400527 0.61168468 4288583054
-0.10722623 0.062400527 0.61168468 4288648847
-0.1062844 0.062426023 0.6119346 4288583567
-0.10529875 0.062426023 0.6119346 4288583567
-0.10441963 0.062489778 0.61255956 4288715153
-0.10343298 0.062489778 0.61255956 4288715153
-0.10244632 0.062489778 0.61255956 4288912532
-0.10145967 0.062489778 0.61255956 4288715153
-0.10047302 0.062489778 0.61255956 4288715153
-0.099486358 0.062489778 0.61255956 4288780946
-0.098519802 0.062502526 0.61268455 4288649360
-0.09753295 0.062502526 0.61268455 4288780946
-0.096546091 0.062502526 0.61268455 4288781716
-0.09557873 0.062515281 0.61280954 4288781716
-0.09459167 0.062515281 0.61280954 4288650130
-0.093604609 0.062515281 0.61280954 4288584337
-0.092617564 0.062515281 0.61280954 4288781718
-0.09164919 0.062528029 0.61293453 4288584339
-0.090698905 0.062553532 0.61318451 4288781716
-0.089802667 0.06261728 0.61380941 4288781716
-0.088813998 0.06261728 0.61380941 4288518544
-0.088039935 0.062770285 0.61530924 4289110681
-0.087349452 0.062987044 0.61743402 4287926155
-0.086494796 0.06308905 0.61843395 4288518292
-0.085913375 0.063395061 0.62143362 4288387219
-0.084912427 0.063395061 0.62143362 4289966251
-0.08396212 0.063433312 0.62180859 4290952633
-0.082993917 0.063458808 0.62205857 4292071114
-0.081991963 0.063458808 0.62205857 4291546055
-0.080990002 0.063458808 0.62205857 4291809227
-0.15099961 0.069473088 0.6704284 4281871404
-0.14986384 0.069447182 0.67017841 4285621605
-0.14878437 0.069447182 0.67017841 4287727747
-0.14745699 0.06933061 0.66905349 4287332989
-0.14558634 0.068955019 0.66542894 4287398782
-0.14451453 0.068955019 0.66542894 4287398782
-0.14225723 0.068385139 0.65992951 4287529854
-0.14076641 0.068177916 0.65792972 4287858819
-0.13893703 0.06780231 0.6543051 4287924612
-0.13788313 0.06780231 0.6543051 4288187784
-0.13682923 0.06780231 0.6543051 4288253577
-0.1084547 0.06352824 0.61305952 4288583054
-0.10744532 0.063515291 0.61293453 4288714640
-0.10645808 0.063515291 0.61293453 4288714640
-0.1054493 0.063502342 0.61280954 4288714640
-0.10444093 0.063489385 0.61268455 4288780433
-0.10345408 0.063489385 0.61268455 4288846226
-0.10248812 0.063502342 0.61280954 4288978325
-0.10150108 0.063502342 0.61280954 4288715153
-0.10051402 0.063502342 0.61280954 4288649360
-0.09954726 0.063515291 0.61293453 4288912532
-0.098559998 0.063515291 0.61293453 4288715155
-0.097572744 0.063515291 0.61293453 4288649362
-0.09468814 0.063567102 0.61343449 4288650132
-0.093700074 0.063567102 0.61343449 4288781718
-0.092712015 0.063567102 0.61343449 4287794569
-0.091723949 0.063567102 0.61343449 4288913050
-0.09080983 0.063618898 0.6139344 4288254350
-0.089875817 0.063657761 0.61430937 4288188557
-0.088886343 0.063657761 0.61430937 4287136121
-0.088093586 0.063800223 0.61568421 4286675570
-0.087455548 0.064059265 0.61818397 4284833114
-0.086809441 0.064318292 0.62068367 4285030493
-0.086086169 0.064525522 0.62268347 4289242277
-0.085083209 0.064525522 0.62268347 4291939790
-0.084114008 0.064551428 0.62293345 4291546055
-0.083160669 0.064590283 0.62330842 4291151297
-0.082156703 0.064590283 0.62330842 4291085504
-0.15099961 0.070552945 0.6704284 4282199599
-0.14986384 0.070526645 0.67017841 4286278765
-0.14867337 0.070474029 0.66967845 4287596161
-0.14745699 0.070408262 0.66905349 4287398782
-0.14558634 0.07002683 0.66542894 4287398780
-0.14418879 0.069868989 0.66392905 4287530366
-0.14225723 0.069448091 0.65992951 4287530366
-0.14076641 0.069237642 0.65792972 4287727745
-0.13893703 0.068856202 0.6543051 4287793538
-0.13788313 0.068856202 0.6543051 4288056710
-0.13651559 0.068698369 0.65280527 4288122503
-0.1342451 0.068080172 0.64693087 4288188296
-0.13320309 0.068080172 0.64693087 4288122503
-0.13216108 0.068080172 0.64693087 4287990917
-0.13132173 0.068185404 0.6479308 4288318598
-0.13055453 0.068330079 0.64930564 4288384391
-0.12683333 0.068579987 0.65168035 4288253575
-0.12578367 0.068579987 0.65168035 4288187782
-0.12494931 0.068698369 0.65280527 4288319368
-0.12389784 0.068698369 0.65280527 4288385159
-0.12303452 0.068803586 0.65380514 4287727229
-0.10755487 0.064568311 0.61355942 4288912534
-0.10656661 0.064568311 0.61355942 4288977812
-0.10557834 0.064568311 0.61355942 4288846226
-0.092787571 0.064607769 0.6139344 4286543734
-0.0917987 0.064607769 0.6139344 4286083183
-0.15108405 0.071672872 0.67080331 4282265392
-0.14994769 0.071646169 0.67055339 4286936695
-0.14867337 0.071552686 0.66967845 4287858819
-0.14759472 0.071552686 0.66967845 4287727233
-0.14613323 0.071365722 0.66792864 4287530366
-0.14418879 0.070938386 0.66392905 4287596159
-0.14311938 0.070938386 0.66392905 4287596159
-0.14114079 0.07048434 0.65967953 4287596159
-0.1395209 0.070203893 0.65705478 4287793538
-0.13846257 0.070203893 0.65705478 4288056710
-0.13651559 0.069749847 0.65280527 4288056710
-0.1342451 0.069122188 0.64693087 4288122503
-0.13320309 0.069122188 0.64693087 4288056710
-0.13216108 0.069122188 0.64693087 4288056710
-0.13132173 0.069229029 0.6479308 4288318598
-0.13055453 0.069375925 0.64930564 4288318598
-0.13053079 0.069923453 0.65443009 4288383878
-0.12952615 0.069950163 0.65468007 4288318085
-0.12847166 0.069950163 0.65468007 4288121219
-0.12683333 0.069629654 0.65168035 4288318598
-0.12578367 0.069629654 0.65168035 4288187780
-0.12494931 0.069749847 0.65280527 4288187780
-0.12389784 0.069749847 0.65280527 4288187780
-0.12303452 0.069856681 0.65380514 4287924608
-0.12228458 0.070030287 0.65542996 4287990915
-0.12146005 0.070163839 0.65667987 4288254087
-0.12040233 0.070163839 0.65667987 4288188296
-0.10755487 0.065556571 0.61355942 4288714901
-0.10656661 0.065556571 0.61355942 4288977812
-0.10557834 0.065556571 0.61355942 4288977812
-0.11296325 0.070804842 0.6626792 4289438361
-0.11189587 0.070804842 0.6626792 4289240982
-0.11107931 0.070965096 0.66417903 4289438876
-0.11034076 0.071178764 0.66617882 4289570462
-0.10980075 0.071525976 0.66942847 4289308062
-0.092787571 0.06559664 0.6139344 4286806906
-0.0917987 0.06559664 0.6139344 4286609527
-0.15114035 0.072780453 0.67105329 4283318080
-0.15000357 0.07275334 0.67080331 4287594625
-0.14881212 0.072699122 0.6703034 4288121737
-0.14773245 0.072699122 0.6703034 4287792772
-0.14640668 0.072577119 0.66917849 4287596161
-0.14470452 0.072265334 0.66630381 4287661954
-0.14363131 0.072265334 0.66630381 4287793538
-0.14191629 0.071940005 0.66330415 4287793538
-0.13970669 0.071357109 0.65792972 4287727745
-0.13864695 0.071357109 0.65792972 4287793538
-0.13654172 0.070814878 0.65293026 4287990401
-0.13455634 0.070326872 0.64843071 4288187780
-0.1335119 0.070326872 0.64843071 4288121989
-0.13246748 0.070326872 0.64843071 4288121989
-0.13160037 0.070421763 0.64930564 4288384391
-0.13113253 0.070733547 0.65218031 4288318598
-0.13038121 0.070896208 0.65368015 4288383878
-0.1294767 0.070977546 0.65443009 4288318085
-0.1284226 0.070977546 0.65443009 4288252805
-0.12744148 0.071018219 0.65480506 4288318598
-0.12638679 0.071018219 0.65480506 4288318598
-0.125356 0.071031772 0.65493006 4288318598
-0.12430111 0.071031772 0.65493006 4288187780
-0.12324621 0.071031772 0.65493006 4288187780
-0.12228458 0.071085989 0.65542996 4288122501
-0.12146005 0.071221553 0.65667987 4288254087
-0.12040233 0.071221553 0.65667987 4288254089
-0.11939004 0.071248658 0.65692979 4287990917
-0.11866962 0.071451992 0.6588046 4287859079
-0.1176531 0.071479104 0.65905458 4288056458
-0.11663578 0.071506217 0.65930456 4288319370
-0.11557383 0.071506217 0.65930456 4289569437
-0.11462044 0.071574003 0.65992951 4289306263
-0.11379406 0.071723111 0.66130435 4289372056
-0.11296325 0.071872219 0.6626792 4290293156
-0.11189587 0.071872219 0.6626792 4289701019
-0.11107931 0.072034888 0.66417903 4289570462
-0.11034076 0.072251782 0.66617882 4289636255
-0.10965725 0.072509341 0.66855359 4289505441
-0.1085804 0.072509341 0.66855359 4289439648
-0.10750356 0.072509341 0.66855359 4289373603
-0.10783938 0.073471792 0.67742765 4289242017
-0.10696488 0.073620908 0.67880249 4289373603
-0.1511685 0.073875085 0.67117828 4284042573
-0.15003152 0.07384757 0.6709283 4288187532
-0.14889537 0.073820062 0.67067838 4288122251
-0.14781509 0.073820062 0.67067838 4287727493
-0.14657076 0.073737517 0.66992843 4287793540
-0.14516598 0.073572427 0.6684286 4288056712
-0.14408933 0.073572427 0.6684286 4288056710
-0.14266504 0.073393591 0.66680378 4287859331
-0.14068866 0.072925851 0.6625542 4287989631
-0.13962148 0.072925851 0.6625542 4287989631
-0.13714288 0.072182968 0.65580493 4288121217
-0.13520475 0.071715236 0.65155542 4288252803
-0.13415527 0.071715236 0.65155542 4288318083
-0.13320795 0.071770258 0.65205532 4288449669
-0.13215767 0.071770258 0.65205532 4288449669
-0.13113253 0.071784019 0.65218031 4288449669
-0.13038121 0.071949102 0.65368015 4288449669
-0.1294767 0.072031647 0.65443009 4288383876
-0.1284226 0.072031647 0.65443009 4288318598
-0.12744148 0.072072916 0.65480506 4288318598
-0.12638679 0.072072916 0.65480506 4288384393
-0.125356 0.072086677 0.65493006 4288384393
-0.12430111 0.072086677 0.65493006 4288319370
-0.12336381 0.072155453 0.65555495 4288385163
-0.12242449 0.072224244 0.6561799 4288582540
-0.12150628 0.072306782 0.65692979 4289306263
-0.12044815 0.072306782 0.65692979 4288319884
-0.11939004 0.072306782 0.65692979 4288056712
-0.11866962 0.072513141 0.6588046 4287859079
-0.1176531 0.072540656 0.65905458 4287793286
-0.11663578 0.072568171 0.65930456 4288910737
-0.11557383 0.072568171 0.65930456 4289437081
-0.11462044 0.072636954 0.65992951 4289437851
-0.11379406 0.072788283 0.66130435 4289898402
-0.11296325 0.072939605 0.6626792 4290095781
-0.11189587 0.072939605 0.6626792 4290095781
-0.11107931 0.073104687 0.66417903 4289964709
-0.11036146 0.073338561 0.66630381 4289898916
-0.10965725 0.073586188 0.66855359 4289833382
-0.1085804 0.073586188 0.66855359 4289570210
-0.10750356 0.073586188 0.66855359 4289504417
-0.10781948 0.074549176 0.67730266 4289504417
-0.10694519 0.074700505 0.6786775 4289373603
-0.10593001 0.074755535 0.67917746 4289965740
-0.15114035 0.074942194 0.67105329 4284898656
-0.15000357 0.074914277 0.67080331 4288056720
-0.14889537 0.074900322 0.67067838 4287990665
-0.14781509 0.074900322 0.67067838 4288056458
-0.14657076 0.07481657 0.66992843 4288714642
-0.14516598 0.074649073 0.6684286 4288254091
-0.14408933 0.074649073 0.6684286 4288188296
-0.14266504 0.074467614 0.66680378 4288122503
-0.14068866 0.073993027 0.6625542 4288252805
-0.13962148 0.073993027 0.6625542 4288318598
-0.13714288 0.073239282 0.65580493 4288186497
-0.13520475 0.072764702 0.65155542 4288318083
-0.13415527 0.072764702 0.65155542 4288186497
-0.13320795 0.072820529 0.65205532 4288318083
-0.13215767 0.072820529 0.65205532 4288449669
-0.13113253 0.072834484 0.65218031 4288449669
-0.13035628 0.072988026 0.65355515 4288449671
-0.12945196 0.073071778 0.6543051 4288515464
-0.12839808 0.073071778 0.6543051 4288384391
-0.12741716 0.073113658 0.65468007 4288450184
-0.12638679 0.073127612 0.65480506 4288319370
-0.125356 0.073141575 0.65493006 4288385163
-0.12430111 0.073141575 0.65493006 4288582288
-0.12336381 0.073211364 0.65555495 4288648081
-0.12242449 0.073281154 0.6561799 4288977300
-0.12150628 0.073364899 0.65692979 4289306265
-0.12044815 0.073364899 0.65692979 4287859333
-0.11939004 0.073364899 0.65692979 4287661954
-0.11864711 0.07356032 0.6586796 4287596420
-0.11767542 0.073616154 0.65917957 4288254350
-0.11668 0.073658027 0.65955454 4289568667
-0.11561766 0.073658027 0.65955454 4289766046
-0.11466385 0.073727824 0.6601795 4289897380
-0.11381557 0.073867403 0.66142935 4290028966
-0.11302717 0.074048862 0.66305417 4290161322
-0.11195918 0.074048862 0.66305417 4290227115
-0.11112113 0.074202403 0.66442901 4290030250
-0.11038216 0.074425735 0.6664288 4289898664
-0.10978024 0.074746773 0.66930348 4289898664
-0.10945327 0.075263239 0.67392802 4289701285
-0.1089104 0.075640112 0.67730266 4289636003
-0.10781948 0.075640112 0.67730266 4289504417
-0.10694519 0.075793654 0.6786775 4289570212
-0.10593001 0.075849488 0.67917746 4290359728
-0.15108405 0.075994745 0.67080331 4285820528
-0.14997564 0.075980589 0.67067838 4287860111
-0.14881212 0.075938113 0.6703034 4287925387
-0.14773245 0.075938113 0.6703034 4287991180
-0.14657076 0.07589563 0.66992843 4288385936
-0.14522026 0.075754039 0.66867858 4288254350
-0.14414322 0.075754039 0.66867858 4288254091
-0.14285223 0.075640753 0.66767865 4288188298
-0.14071521 0.075074375 0.6626792 4288515979
-0.13964783 0.075074375 0.6626792 4288713358
-0.13716902 0.074309751 0.65592992 4288779149
-0.13528255 0.073856644 0.65193033 4288713356
-0.13423248 0.073856644 0.65193033 4288055426
-0.13323349 0.073884964 0.65218031 4288121219
-0.132183 0.073884964 0.65218031 4288318598
-0.13113253 0.073884964 0.65218031 4288318598
-0.13035628 0.074040718 0.65355515 4288384391
-0.12942724 0.074111514 0.65418011 4288515977
-0.12837355 0.074111514 0.65418011 4288450184
-0.12736851 0.074139833 0.65443009 4288581770
-0.12636267 0.074168161 0.65468007 4288450956
-0.12537993 0.074210636 0.65505505 4288714128
-0.12432484 0.074210636 0.65505505 4288780181
-0.12338733 0.074281432 0.65567994 4288845974
-0.12244781 0.074352235 0.6563049 4289109148
-0.12152939 0.074437186 0.65705478 4289306527
-0.12063149 0.074536309 0.65792972 4289636005
-0.11957177 0.074536309 0.65792972 4289570212
-0.11864711 0.07462126 0.6586796 4288780694
-0.11767542 0.074677899 0.65917957 4288649108
-0.11668 0.074720383 0.65955454 4289701023
-0.11561766 0.074720383 0.65955454 4289766816
-0.11466385 0.074791186 0.6601795 4289832355
-0.11381557 0.074932776 0.66142935 4290029734
-0.11302717 0.07511685 0.66305417 4290161322
-0.11195918 0.07511685 0.66305417 4290227115
-0.11112113 0.075272605 0.66442901 4290161322
-0.11038216 0.075499162 0.6664288 4290029736
-0.10973924 0.075796507 0.66905349 4290095529
-0.10933147 0.076263778 0.67317808 4290029736
-0.10874962 0.07661777 0.67630273 4289767078
-0.1076603 0.07661777 0.67630273 4289635492
-0.10692549 0.076872647 0.67855251 4289570212
-0.10591052 0.076929286 0.67905247 4289899177
-0.1510559 0.077060863 0.67067838 4286741630
-0.14991973 0.077032141 0.6704284 4287662732
-0.14878437 0.077003412 0.67017841 4287794318
-0.14770491 0.077003412 0.67017841 4287860111
-0.14651607 0.076945968 0.66967845 4288254099
-0.14516598 0.076802358 0.6684286 4288254099
-0.14408933 0.076802358 0.6684286 4288253837
-0.14263831 0.076601312 0.66667879 4288253837
-0.14071521 0.076141752 0.6626792 4288581772
-0.13964783 0.076141752 0.6626792 4288910737
-0.1372997 0.075438075 0.65655488 4288976528
-0.13549004 0.075021602 0.65293026 4289108114
-0.13438688 0.07499288 0.65268028 4289239700
-0.13333562 0.07499288 0.65268028 4288910735
-0.13228434 0.07499288 0.65268028 4288581770
-0.13123307 0.07499288 0.65268028 4288318598
-0.13035628 0.075093403 0.65355515 4288187782
-0.1294025 0.075150847 0.65405512 4288450954
-0.12834902 0.075150847 0.65405512 4288582542
-0.12736851 0.075193934 0.65443009 4288582542
-0.12633854 0.075208299 0.65455508 4288582542
-0.125356 0.075251378 0.65493006 4288779921
-0.12430111 0.075251378 0.65493006 4288845974
-0.12338733 0.075337544 0.65567994 4289043353
-0.12244781 0.075409353 0.6563049 4289174941
-0.12152939 0.075495511 0.65705478 4289306527
-0.12063149 0.075596042 0.65792972 4289438626
-0.11957177 0.075596042 0.65792972 4289372833
-0.11864711 0.0756822 0.6586796 4289372831
-0.11767542 0.075739652 0.65917957 4289241245
-0.11674634 0.075825818 0.65992951 4289504158
-0.11568338 0.075825818 0.65992951 4289767330
-0.1147941 0.075940706 0.66092938 4289767330
-0.1139446 0.076084308 0.66217923 4289898916
-0.11306978 0.076213561 0.66330415 4289898664
-0.11223353 0.076371536 0.66467899 4290030250
-0.11116293 0.076371536 0.66467899 4290030250
-0.11040286 0.076586947 0.6665538 4289964457
-0.10967775 0.076831087 0.66867858 4290161322
-0.10910818 0.077190109 0.67180324 4290095529
-0.10858884 0.077592216 0.67530286 4290029736
-0.10750113 0.077592216 0.67530286 4289898150
-0.10690579 0.077951238 0.67842752 4289767078
-0.10591052 0.078023046 0.67905247 4288977562
-0.1510559 0.078141123 0.67067838 4287794318
-0.14991973 0.078111999 0.6704284 4287596939
-0.14878437 0.078082874 0.67017841 4287925906
-0.14770491 0.078082874 0.67017841 4287991699
-0.14651607 0.078024626 0.66967845 4288188306
-0.14516598 0.077879004 0.6684286 4288188306
-0.14408933 0.077879004 0.6684286 4288450451
-0.14263831 0.077675134 0.66667879 4288450451
-0.14074175 0.077223696 0.66280419 4288713104
-0.13967416 0.077223696 0.66280419 4288976276
-0.13737811 0.076539271 0.65692979 4289042323
-0.13564566 0.076160654 0.65368015 4289305495
-0.13448983 0.076102406 0.65318024 4289108114
-0.13343775 0.076102406 0.65318024 4289371286
-0.13238567 0.076102406 0.65318024 4289305493
-0.13138384 0.076131523 0.65343016 4289700251
-0.13038121 0.076160654 0.65368015 4289437851
-0.1294025 0.076204337 0.65405512 4288319370
-0.12834902 0.076204337 0.65405512 4289569183
-0.12736851 0.076248027 0.65443009 4288384909
-0.12633854 0.076262593 0.65455508 4288582288
-0.125356 0.076306276 0.65493006 4288845460
-0.12430111 0.076306276 0.65493006 4288845976
-0.12338733 0.076393649 0.65567994 4289174941
-0.12244781 0.076466464 0.6563049 4289240481
-0.12155251 0.076568395 0.65717977 4289240481
-0.12063149 0.076655768 0.65792972 4289437860
-0.11957177 0.076655768 0.65792972 4289437860
-0.11864711 0.076743141 0.6586796 4289503906
-0.11772005 0.076830521 0.65942955 4289503906
-0.11685689 0.076961577 0.66055441 4289503904
-0.11579292 0.076961577 0.66055441 4289701283
-0.11490265 0.077078074 0.66155434 4289767076
-0.11403064 0.077209137 0.6626792 4289767076
-0.1131763 0.077354759 0.66392905 4289701285
-0.11231796 0.077500381 0.66517895 4290030250
-0.11124655 0.077500381 0.66517895 4290030250
-0.11046497 0.077704258 0.66692877 4290030250
-0.10963675 0.077879004 0.6684286 4290030250
-0.10908788 0.07825762 0.67167825 4290030250
-0.10858884 0.078679927 0.67530286 4289964457
-0.10750113 0.078679927 0.67530286 4289898664
-0.10690579 0.079043984 0.67842752 4290359475
-0.15099961 0.079191864 0.6704284 4288057490
-0.14989179 0.079177104 0.6703034 4287662732
-0.14870113 0.079118043 0.66980344 4288122513
-0.14762227 0.079118043 0.66980344 4288254099
-0.14640668 0.079044223 0.66917849 4288188308
-0.14494881 0.078837536 0.66742867 4288188308
-0.14387378 0.078837536 0.66742867 4288319381
-0.14226393 0.07854227 0.66492897 4288319381
-0.14044981 0.078128889 0.66142935 4288712855
-0.13938443 0.078128889 0.66142935 4288844441
-0.13737811 0.077597395 0.65692979 4289107351
-0.13564566 0.077213541 0.65368015 4289173144
-0.13448983 0.077154495 0.65318024 4289107862
-0.13343775 0.077154495 0.65318024 4289436827
-0.13238567 0.077154495 0.65318024 4289372058
-0.13138384 0.077184014 0.65343016 4289437851
-0.13038121 0.077213541 0.65368015 4289634976
-0.1294025 0.077257834 0.65405512 4289766562
-0.12834902 0.077257834 0.65405512 4289569183
-0.12734418 0.077287361 0.6543051 4289437597
-0.12631442 0.077302128 0.65443009 4290227113
-0.125356 0.077361181 0.65493006 4289240218
-0.12430111 0.077361181 0.65493006 4289174941
-0.12338733 0.077449761 0.65567994 4289240734
-0.12244781 0.077523582 0.6563049 4289437860
-0.12155251 0.077626921 0.65717977 4289437860
-0.12063149 0.077715509 0.65792972 4289437860
-0.11957177 0.077715509 0.65792972 4289437860
-0.11866962 0.077818848 0.6588046 4289569446
-0.11776467 0.077922195 0.65967953 4289569446
-0.116879 0.078040302 0.6606794 4289701285
-0.11581483 0.078040302 0.6606794 4289898664
-0.11492436 0.078158416 0.66167933 4289833384
-0.11407365 0.078306049 0.66292918 4289899177
-0.1131763 0.078424156 0.66392905 4290096303
-0.11236016 0.078601323 0.66542894 4290030510
-0.11128835 0.078601323 0.66542894 4290162096
-0.11050638 0.078808017 0.66717875 4289964717
-0.10963675 0.07895565 0.6684286 4290030510
-0.10908788 0.079339497 0.67167825 4290162096
-0.24120963 0.085045531 0.71029913 4290033590
-0.24006554 0.085045531 0.71029913 4290691253
-0.23887943 0.085030563 0.71017414 4290559667
-0.23773554 0.085030563 0.71017414 4290298037
-0.23659165 0.085030563 0.71017414 4287468938
-0.15094329 0.080241799 0.67017841 4288385685
-0.14983588 0.080226831 0.67005342 4287925134
-0.14867337 0.080181934 0.66967845 4288188306
-0.14759472 0.080181934 0.66967845 4288254099
-0.14626996 0.08004725 0.66855359 4288254101
-0.14473167 0.07979285 0.6664288 4288254101
-0.14365825 0.07979285 0.6664288 4288253588
-0.14188954 0.079403765 0.66317916 4288253588
-0.14021096 0.079059571 0.66030449 4288581269
-0.13914739 0.079059571 0.66030449 4288712855
-0.13743038 0.07868544 0.65717977 4288778648
-0.13580127 0.078356221 0.65443009 4288712855
-0.13461849 0.078281395 0.65380514 4289041818
-0.13356541 0.078281395 0.65380514 4289304990
-0.13248698 0.078266427 0.65368015 4289306013
-0.1314341 0.078266427 0.65368015 4289371806
-0.13043107 0.078296356 0.65393013 4289700771
-0.1294025 0.078311324 0.65405512 4289766564
-0.12834902 0.078311324 0.65405512 4289831585
-0.12731986 0.078326285 0.65418011 4289897378
-0.12631442 0.078356221 0.65443009 4290226345
-0.12533209 0.078401119 0.65480506 4289831587
-0.12427739 0.078401119 0.65480506 4290095529
-0.12336381 0.078490898 0.65555495 4289700771
-0.12244781 0.078580692 0.6563049 4289701285
-0.12155251 0.07868544 0.65717977 4289635492
-0.12063149 0.078775235 0.65792972 4289701032
-0.11957177 0.078775235 0.65792972 4289766825
-0.11866962 0.07887999 0.6588046 4289766825
-0.11776467 0.078984745 0.65967953 4289766825
-0.116879 0.079104461 0.6606794 4289964457
-0.11581483 0.079104461 0.6606794 4290030250
-0.11492436 0.079224184 0.66167933 4290030510
-0.11407365 0.079373829 0.66292918 4290096303
-0.1131763 0.079493545 0.66392905 4290162096
-0.11236016 0.079673134 0.66542894 4290030510
-0.11128835 0.079673134 0.66542894 4290030510
-0.11050638 0.079882644 0.66717875 4290096303
-0.10963675 0.080032289 0.6684286 4290293682
-0.10904728 0.080391444 0.67142826 4290491061
-0.24231108 0.086174451 0.71017414 4283783009
-0.24116717 0.086174451 0.71017414 4285625213
-0.2400233 0.086174451 0.71017414 4287137671
-0.23879534 0.08614412 0.70992416 4287729808
-0.23761001 0.08612895 0.70979917 4287336847
-0.23625854 0.086053118 0.70917422 4285099885
-0.23511626 0.086053118 0.70917422 4281349684
-0.23397398 0.086053118 0.70917422 4280954926
-0.15094329 0.081321262 0.67017841 4288253072
-0.14980793 0.081290931 0.66992843 4288187279
-0.14856239 0.081199929 0.66917849 4288319379
-0.14748453 0.081199929 0.66917849 4288450965
-0.14607854 0.081017934 0.66767865 4288319379
-0.14446023 0.080714613 0.66517895 4288450965
-0.14338882 0.080714613 0.66517895 4288253586
-0.14167561 0.080350615 0.66217923 4288187793
-0.14013132 0.080077633 0.65992951 4288253072
-0.13906838 0.080077633 0.65992951 4288384658
-0.13743038 0.079743974 0.65717977 4288450451
-0.13587908 0.079455815 0.65480506 4288450451
-0.13469571 0.079379983 0.65418011 4288778646
-0.13364202 0.079379983 0.65418011 4288910232
-0.13253766 0.079349652 0.65393013 4288977562
-0.13148436 0.079349652 0.65393013 4288977562
-0.130456 0.079364814 0.65405512 4289437597
-0.1294025 0.079364814 0.65405512 4289700769
-0.12834902 0.079364814 0.65405512 4289962658
-0.12731986 0.079379983 0.65418011 4289896865
-0.12631442 0.079410315 0.65443009 4289963173
-0.12530816 0.079440653 0.65468007 4289963173
-0.12425367 0.079440653 0.65468007 4290028966
-0.12336381 0.079546809 0.65555495 4290028966
-0.12244781 0.079637811 0.6563049 4289898150
-0.12155251 0.079743974 0.65717977 4290029736
-0.12063149 0.079834968 0.65792972 4290030250
-0.11957177 0.079834968 0.65792972 4290030250
-0.11866962 0.079941131 0.6588046 4289964204
-0.11776467 0.080047294 0.65967953 4289964204
-0.116879 0.080168627 0.6606794 4290095790
-0.11581483 0.080168627 0.6606794 4290227376
-0.11494607 0.080305122 0.66180432 4290162096
-0.11407365 0.080441616 0.66292918 4290162096
-0.1131763 0.080562942 0.66392905 4290228661
-0.11240236 0.080775276 0.66567886 4290031282
-0.11133015 0.080775276 0.66567886 4290294452
-0.11056847 0.081002764 0.66755366 4290426038
-0.10988275 0.081290931 0.66992843 4290491831
-0.10904728 0.081472918 0.67142826 4290426038
-0.10473876 0.095259018 0.78504115 4281545519
-0.24222578 0.087287597 0.70992416 4281282105
-0.2409974 0.087256856 0.70967418 4281216312
-0.23985432 0.087256856 0.70967418 4281807422
-0.23850104 0.087180018 0.70904922 4281939008
-0.23719162 0.087118551 0.70854932 4281546293
-0.23605035 0.087118551 0.70854932 4281085742
-0.23461901 0.08701098 0.70767438 4281612086
-0.15094329 0.082400717 0.67017841 4288055176
-0.14980793 0.082369983 0.66992843 4288713106
-0.14856239 0.082277775 0.66917849 4288319379
-0.14748453 0.082277775 0.66917849 4288450965
-0.14607854 0.082093365 0.66767865 4288450965
-0.14446023 0.081786022 0.66517895 4288450965
-0.14338882 0.081786022 0.66517895 4288253586
-0.14167561 0.081417195 0.66217923 4288187793
-0.14013132 0.081140585 0.65992951 4288187793
-0.13906838 0.081140585 0.65992951 4288187793
-0.13743038 0.080802493 0.65717977 4288384658
-0.13593096 0.080541253 0.65505505 4288384658
-0.13469571 0.080433674 0.65418011 4288319118
-0.13364202 0.080433674 0.65418011 4288713876
-0.13253766 0.080402941 0.65393013 4288845460
-0.13148436 0.080402941 0.65393013 4288779667
-0.130456 0.080418304 0.65405512 4289239448
-0.12942724 0.080433674 0.65418011 4289371034
-0.12837355 0.080433674 0.65418011 4289831072
-0.12731986 0.080433674 0.65418011 4289633693
-0.12626617 0.080433674 0.65418011 4289765794
-0.12530816 0.080495149 0.65468007 4289963173
-0.12425367 0.080495149 0.65468007 4289832357
-0.12336381 0.080602713 0.65555495 4289898150
-0.12244781 0.080694921 0.6563049 4289767078
-0.12155251 0.080802493 0.65717977 4289964457
-0.12063149 0.080894701 0.65792972 4290096043
-0.11957177 0.080894701 0.65792972 4290096043
-0.11869214 0.081017636 0.65892959 4290030250
-0.11776467 0.081109844 0.65967953 4290096043
-0.116879 0.081232786 0.6606794 4290293684
-0.11581483 0.081232786 0.6606794 4290491063
-0.11492436 0.081355728 0.66167933 4290623419
-0.11405214 0.081494033 0.66280419 4290886591
-0.113155 0.081616968 0.66380405 4290558139
-0.11238126 0.081832118 0.66555387 4290558139
-0.11130925 0.081832118 0.66555387 4290558139
-0.11071339 0.082185574 0.6684286 4290426553
-0.11025176 0.082646601 0.67217821 4290623932
-0.10955476 0.082938582 0.67455292 4290426553
-0.10905109 0.083384238 0.67817754 4290229176
-0.094954401 0.096861571 0.78779083 4281347887
-0.24222578 0.088431075 0.70992416 4281217078
-0.2409974 0.088399939 0.70967418 4281217078
-0.23985432 0.088399939 0.70967418 4281742399
-0.23850104 0.088322088 0.70904922 4281676606
-0.23719162 0.088259824 0.70854932 4281348148
-0.23605035 0.088259824 0.70854932 4281677113
-0.23461901 0.088150837 0.70767438 4281611316
-0.23286061 0.087917306 0.70579958 4281282351
-0.23172379 0.087917306 0.70579958 4281084974
-0.15094329 0.083480187 0.67017841 4288779930
-0.14980793 0.083449043 0.66992843 4288714137
-0.14842366 0.083277792 0.66855359 4288319379
-0.14734681 0.083277792 0.66855359 4288450965
-0.14588714 0.083059825 0.66680378 4288450967
-0.14418879 0.082701735 0.66392905 4288450967
-0.14311938 0.082701735 0.66392905 4288253586
-0.14167561 0.082483776 0.66217923 4288253586
-0.14013132 0.082203537 0.65992951 4288253586
-0.13848892 0.081861019 0.65717977 4288187793
-0.13743038 0.081861019 0.65717977 4288187793
-0.13593096 0.081596352 0.65505505 4288187793
-0.13469571 0.081487373 0.65418011 4288253325
-0.13364202 0.081487373 0.65418011 4288187532
-0.13253766 0.081456229 0.65393013 4288384909
-0.13145924 0.081440657 0.65380514 4288648081
-0.13040614 0.081440657 0.65380514 4288648595
-0.12935305 0.081440657 0.65380514 4288845974
-0.12829997 0.081440657 0.65380514 4289240220
-0.12729552 0.081471801 0.65405512 4289306013
-0.12626617 0.081487373 0.65418011 4289306274
-0.12530816 0.081549644 0.65468007 4289503653
-0.12425367 0.081549644 0.65468007 4289438373
-0.12336381 0.081658624 0.65555495 4289635752
-0.12247113 0.081767611 0.65642989 4289833131
-0.12157563 0.081876591 0.65730476 4289964717
-0.1206544 0.081970006 0.65805471 4290096303
-0.11959448 0.081970006 0.65805471 4290096303
-0.11869214 0.082078986 0.65892959 4290030510
-0.11778698 0.082187966 0.65980452 4290359475
-0.11690111 0.082312517 0.66080439 4290425270
-0.11583675 0.082312517 0.66080439 4290622649
-0.11492436 0.082421504 0.66167933 4290689727
-0.11405214 0.08256162 0.66280419 4290755520
-0.113155 0.082686163 0.66380405 4290558911
-0.11238126 0.08290413 0.66555387 4290493118
-0.11130925 0.08290413 0.66555387 4290558141
-0.11071339 0.08326222 0.6684286 4290558141
-0.11029276 0.083760425 0.67242819 4290623934
-0.10983895 0.084243052 0.67630273 4290558141
-0.10905109 0.08447659 0.67817754 4290360762
-0.24222578 0.089574553 0.70992416 4281019699
-0.23963918 0.089038365 0.70567459 4281085492
-0.23850255 0.089038365 0.70567459 4281347896
-0.23694551 0.088880666 0.70442474 4281282103
-0.23514144 0.088628344 0.70242494 4281150515
-0.23401004 0.088628344 0.70242494 4281545273
-0.14980793 0.084528103 0.66992843 4288583066
-0.14814617 0.084196925 0.66730368 4288385687
-0.14707133 0.084196925 0.66730368 4288385687
-0.14566836 0.08400768 0.66580385 4288385687
-0.14418879 0.083771132 0.66392905 4288385687
-0.14311938 0.083771132 0.66392905 4288253588
-0.14170235 0.083566114 0.66230422 4288253588
-0.14013132 0.083266489 0.65992951 4288187793
-0.13848892 0.082919538 0.65717977 4288187793
-0.13743038 0.082919538 0.65717977 4288188046
-0.13595688 0.082667217 0.65517998 4288188046
-0.13469571 0.082541056 0.65418011 4288188046
-0.13364202 0.082541056 0.65418011 4288122253
-0.13253766 0.082509518 0.65393013 4288253839
-0.1314341 0.082477979 0.65368015 4288451218
-0.13038121 0.082477979 0.65368015 4288516758
-0.12935305 0.082493745 0.65380514 4288714137
-0.12829997 0.082493745 0.65380514 4288912029
-0.12724687 0.082493745 0.65380514 4289043615
-0.12624204 0.082525291 0.65405512 4289044387
-0.12530816 0.08260414 0.65468007 4289110180
-0.12425367 0.08260414 0.65468007 4289176484
-0.12334029 0.082698762 0.65542996 4289242277
-0.12247113 0.082824923 0.65642989 4289570729
-0.12157563 0.082935311 0.65730476 4289768108
-0.1206544 0.083029933 0.65805471 4290096303
-0.11959448 0.083029933 0.65805471 4290096303
-0.11869214 0.083140321 0.65892959 4290096305
-0.11778698 0.083250716 0.65980452 4290425270
-0.11690111 0.083376877 0.66080439 4290360247
-0.11583675 0.083376877 0.66080439 4290623419
-0.11492436 0.083487272 0.66167933 4290624704
-0.11403064 0.083613433 0.6626792 4290624704
-0.1131124 0.083723828 0.66355413 4290558911
-0.11236016 0.083960377 0.66542894 4290558911
-0.11128835 0.083960377 0.66542894 4290427325
-0.11071339 0.084338859 0.6684286 4290427325
-0.11029276 0.084843509 0.67242819 4290427325
-0.10969686 0.085221991 0.67542785 4290427325
-0.10905109 0.085568927 0.67817754 4290295485
-0.23963918 0.090175003 0.70567459 4281019953
-0.23850255 0.090175003 0.70567459 4281151285
-0.14789644 0.085128017 0.66617882 4288451480
-0.14682342 0.085128017 0.66617882 4288385687
-0.14566836 0.085080102 0.66580385 4288451478
-0.14424308 0.084872469 0.66417903 4288254099
-0.14317328 0.084872469 0.66417903 4288122513
-0.1417291 0.08464887 0.66242921 4288254099
-0.14018442 0.084361389 0.6601795 4288122000
-0.13846257 0.083962098 0.65705478 4288122000
-0.13740425 0.083962098 0.65705478 4288122253
-0.13595688 0.083722524 0.65517998 4288122253
-0.13464423 0.083562814 0.65393013 4288122253
-0.13359095 0.083562814 0.65393013 4288122253
-0.13248698 0.083530866 0.65368015 4288253839
-0.13140897 0.083514892 0.65355515 4288451218
-0.13035628 0.083514892 0.65355515 4288451478
-0.12932833 0.083530866 0.65368015 4288648857
-0.12827544 0.083530866 0.65368015 4288780445
-0.12724687 0.08354684 0.65380514 4289043617
-0.12624204 0.08357878 0.65405512 4288978594
-0.12530816 0.083658643 0.65468007 4289044387
-0.12425367 0.083658643 0.65468007 4289176484
-0.12334029 0.083754465 0.65542996 4289308070
-0.12247113 0.083882242 0.65642989 4289439656
-0.12157563 0.083994038 0.65730476 4289637035
-0.12067732 0.084105842 0.6581797 4289833901
-0.11961719 0.084105842 0.6581797 4289965487
-0.11871465 0.084217638 0.65905458 4290031284
-0.1178093 0.084329449 0.65992951 4290360249
