# .PCD v0.7 - Point Cloud Data file format
VERSION 0.7
FIELDS x y z rgba
SIZE 4 4 4 4
TYPE F F F U
COUNT 1 1 1 1
WIDTH 1041
HEIGHT 1
VIEWPOINT 0 0 0 1 0 0 0
POINTS 1041
DATA ascii
-0.082335956 0.090926707 0.42657942 4287794835
-0.080955103 0.090154119 0.42295483 4288715937
-0.080273852 0.090154119 0.42295483 4289834418
-0.07954555 0.090100832 0.42270485 4289702832
-0.078864694 0.090100832 0.42270485 4289769395
-0.078183837 0.090100832 0.42270485 4290098360
-0.077502981 0.090100832 0.42270485 4289966772
-0.076822132 0.090100832 0.42270485 4289835186
-0.07611876 0.090074189 0.42257985 4289703600
-0.075415798 0.090047546 0.42245486 4289835186
-0.074735343 0.090047546 0.42245486 4289637807
-0.074011073 0.089994267 0.42220488 4289703600
-0.073331028 0.089994267 0.42220488 4289702830
-0.072672486 0.09002091 0.42232987 4289439658
-0.072034843 0.090074189 0.42257985 4289373350
-0.071354188 0.090074189 0.42257985 4289570729
-0.070736252 0.090154119 0.42295483 4289241247
-0.070137799 0.090260677 0.42345476 4288780696
-0.06951724 0.090340607 0.42382973 4288518294
-0.068875171 0.090393886 0.42407969 4288255122
-0.068192102 0.090393886 0.42407969 4288123536
-0.067528933 0.090420529 0.42420468 4288057743
-0.066865355 0.090447173 0.42432967 4288320662
-0.066181883 0.090447173 0.42432967 4288452248
-0.065498412 0.090447173 0.42432967 4288583834
0.026826151 0.065537564 0.30746716 4290559936
0.027376922 0.065670773 0.30809209 4290559936
0.027941013 0.065830618 0.308842 4290691522
0.028438468 0.065830618 0.308842 4290691522
0.029006181 0.065990463 0.30959192 4290559936
0.029564401 0.066123672 0.31021684 4290559936
0.030136751 0.066283524 0.31096679 4290559936
0.030686881 0.06639009 0.31146672 4290559936
0.03125114 0.066523291 0.31209165 4290559936
0.031753827 0.066523291 0.31209165 4290559936
0.03232111 0.0666565 0.3127166 4290822338
0.032929759 0.066869624 0.31371647 4290690752
0.033568274 0.067136042 0.31496635 4290690752
0.034210816 0.06740246 0.31621623 4290690752
0.034857377 0.06766887 0.31746608 4290822338
0.035494048 0.067908645 0.31859097 4290888131
0.036106084 0.068095133 0.31946588 4290822338
0.03662065 0.068095133 0.31946588 4290822338
0.037178803 0.068175048 0.31984082 4290624959
0.037738163 0.068254977 0.32021579 4290624959
0.038343526 0.068414822 0.32096571 4290494143
0.039011832 0.06868124 0.32221559 4290494143
0.039776169 0.069107495 0.32421535 4290428350
0.040578023 0.069587044 0.32646513 4290494143
0.04119828 0.069746889 0.32721505 4290954694
0.04172533 0.069746889 0.32721505 4289967799
0.042381492 0.06996002 0.32821494 4288585376
0.042926487 0.069986664 0.32833993 4291019717
0.043488432 0.070039943 0.32858989 4291218636
-0.16647163 0.081655204 0.38020939 4291020235
-0.16585922 0.081655204 0.38020939 4291283407
-0.16530114 0.081682049 0.38033438 4291153358
-0.16468854 0.081682049 0.38033438 4291219151
-0.16434553 0.081816256 0.3809593 4291219149
-0.16389306 0.081896789 0.38133428 4290824391
-0.16354643 0.082030997 0.3819592 4291153354
-0.1629312 0.082030997 0.3819592 4288390048
-0.16263466 0.082192056 0.38270912 4284835173
-0.16238862 0.082379952 0.38358402 4282861383
-0.16177078 0.082379952 0.38358402 4282270536
-0.16141547 0.082514167 0.38420895 4281744192
-0.16105817 0.082648374 0.38483387 4281481533
-0.16069886 0.082782596 0.38545883 4281349947
-0.160078 0.082782596 0.38545883 4281283893
-0.15966396 0.082889959 0.38595876 4281283893
-0.1591453 0.082943648 0.38620874 4281349937
-0.15872844 0.083051018 0.38670868 4281415730
-0.15810555 0.083051018 0.38670868 4281480751
-0.15763538 0.083131544 0.38708365 4281414958
-0.15716399 0.08321207 0.38745859 4281349165
-0.1565399 0.08321207 0.38745859 4281414958
-0.15606672 0.083292603 0.38783357 4281414958
-0.15559231 0.083373129 0.38820854 4281480751
-0.1550668 0.083426811 0.38845849 4281480751
-0.15444112 0.083426811 0.38845849 4281612337
-0.15396389 0.083507344 0.38883346 4281414960
-0.15343618 0.083561033 0.38908345 4281546546
-0.15271129 0.083507344 0.38883346 4281547316
-0.15208501 0.083507344 0.38883346 4281415730
-0.15155607 0.083561033 0.38908345 4281349167
-0.15107481 0.083641551 0.38945839 4281480753
-0.15044752 0.083641551 0.38945839 4281612086
-0.14991638 0.08369524 0.38970837 4281677879
-0.14938444 0.083748929 0.38995835 4281677879
-0.14875633 0.083748929 0.38995835 4281612086
-0.14822316 0.083802611 0.3902083 4281548100
-0.14768921 0.083856292 0.39045829 4281219135
-0.14720151 0.083936825 0.39083326 4285232004
-0.14657199 0.083936825 0.39083326 4290034893
-0.14608249 0.084017351 0.3912082 4291021009
-0.14559178 0.084097885 0.39158317 4291218388
-0.14514613 0.084205247 0.39208311 4291284177
-0.14451461 0.084205247 0.39208311 4291547349
-0.14406654 0.084312625 0.39258307 4291416530
-0.14361686 0.084419988 0.39308301 4291416530
-0.14298372 0.084419988 0.39308301 4291285714
-0.14253162 0.084527358 0.39358294 4291285714
-0.14203286 0.084607892 0.39395791 4291417300
-0.1415329 0.084688418 0.39433289 4291417300
-0.14089774 0.084688418 0.39433289 4291351507
-0.14039594 0.084768943 0.39470783 4291351507
-0.13989297 0.084849477 0.3950828 4291416276
-0.13938877 0.084929995 0.39545774 4291482069
-0.13875179 0.084929995 0.39545774 4291416276
-0.13820213 0.084983684 0.39570773 4291284690
-0.13765167 0.085037373 0.39595771 4291481040
-0.13718688 0.085144743 0.39645764 4291810005
-0.13654831 0.085144743 0.39645764 4287861647
-0.13603827 0.085225269 0.39683262 4283321930
-0.13556968 0.08533264 0.39733255 4283190091
-0.13509946 0.08544001 0.39783251 4282597954
-0.13445868 0.08544001 0.39783251 4282269246
-0.133944 0.085520536 0.39820746 4282137660
-0.13342813 0.085601069 0.39858243 4281876030
-0.13278612 0.085601069 0.39858243 4281876030
-0.13222699 0.08565475 0.39883238 4281942604
-0.13166708 0.085708432 0.39908236 4282271569
-0.13106531 0.085735276 0.39920735 4286415247
-0.13042229 0.085735276 0.39920735 4290691792
-0.12981993 0.085762121 0.39933234 4290889673
-0.12921715 0.085788965 0.39945734 4291021259
-0.12865418 0.085842647 0.39970729 4290889669
-0.12801038 0.085842647 0.39970729 4290823876
-0.12744622 0.085896336 0.39995727 4291218369
-0.12711902 0.086111076 0.40095717 4286678652
-0.12698571 0.086460032 0.40258199 4283584332
-0.12633726 0.086460032 0.40258199 4282860609
-0.12892762 0.088687964 0.41295588 4282269499
-0.12907769 0.08925166 0.4155806 4281808948
-0.12844694 0.089278504 0.41570559 4281480231
-0.12777737 0.089278504 0.41570559 4281546024
-0.084037296 0.090486415 0.42132998 4281414707
-0.083358653 0.090486415 0.42132998 4281414707
-0.082802661 0.090620637 0.42195493 4282201147
-0.082123011 0.090620637 0.42195493 4286609278
-0.081491612 0.090674311 0.42220488 4287794835
-0.080859408 0.090728 0.42245486 4288584351
-0.080178961 0.090728 0.42245486 4289703602
-0.079498507 0.090728 0.42245486 4289637809
-0.078794733 0.090701155 0.42232987 4289835188
-0.07811448 0.090701155 0.42232987 4290098360
-0.077457145 0.090728 0.42245486 4290032565
-0.076776698 0.090728 0.42245486 4289835186
-0.07605122 0.090674311 0.42220488 4289703600
-0.075326547 0.090620637 0.42195493 4289835186
-0.074646905 0.090620637 0.42195493 4289769393
-0.073945343 0.090593792 0.42182994 4289769393
-0.073265903 0.090593792 0.42182994 4289637807
-0.072586454 0.090593792 0.42182994 4289506221
-0.071949624 0.090647474 0.42207992 4289439658
-0.071269773 0.090647474 0.42207992 4289439658
-0.070610829 0.090674311 0.42220488 4289307810
-0.07001359 0.090781689 0.42270485 4288978845
-0.069414735 0.090889059 0.42320478 4288584087
-0.068814278 0.090996429 0.42370474 4288386708
-0.068131812 0.090996429 0.42370474 4288255122
-0.06748914 0.091050111 0.4239547 4288123536
-0.066825964 0.091076955 0.42407969 4288254869
-0.066142894 0.091076955 0.42407969 4288320662
-0.065440536 0.091050111 0.4239547 4288452248
-0.064757667 0.091050111 0.4239547 4288518041
0.024855291 0.066059649 0.30759215 4290494143
0.025381634 0.066140175 0.3079671 4290559936
0.025909187 0.066220708 0.30834207 4290559936
0.026405837 0.066220708 0.30834207 4290559936
0.026935199 0.066301234 0.30871701 4290494143
0.027487984 0.066435441 0.30934194 4290691522
0.028054088 0.066596501 0.31009188 4290559936
0.02863412 0.066784404 0.31096679 4290494143
0.029240385 0.067025982 0.31209165 4290494143
0.029743075 0.067025982 0.31209165 4290559936
0.030354781 0.067267567 0.31321654 4290559936
0.030957794 0.067482308 0.31421643 4290559936
0.031538997 0.067643359 0.31496635 4290494143
0.032122616 0.067804419 0.31571627 4290494143
0.032708652 0.06796547 0.31646618 4290691522
0.033297103 0.068126529 0.3172161 4290559936
0.033808045 0.068126529 0.3172161 4290690752
0.034346033 0.068180211 0.31746608 4290690752
0.034857377 0.068180211 0.31746608 4290690752
0.035494048 0.068421796 0.31859097 4290888131
0.036106084 0.0686097 0.31946588 4290690752
0.03662065 0.0686097 0.31946588 4290624959
0.037178803 0.068690225 0.31984082 4290624959
0.037738163 0.068770751 0.32021579 4290559166
0.038343526 0.068931811 0.32096571 4290296764
0.039011832 0.069200233 0.32221559 4290362557
0.039776169 0.069629714 0.32421535 4290493373
0.040578023 0.070112884 0.32646513 4290361787
0.04119828 0.070273936 0.32721505 4289834418
0.04172533 0.070273936 0.32721505 4287005319
0.042381492 0.070488684 0.32821494 4286544766
0.042926487 0.070515521 0.32833993 4290294967
0.043488432 0.070569202 0.32858989 4291482059
-0.16608857 0.0820783 0.37933448 4291611595
-0.16547757 0.0820783 0.37933448 4291677388
-0.1651925 0.082240559 0.3800844 4291481036
-0.16458029 0.082240559 0.3800844 4291481036
-0.16418377 0.082348734 0.38058433 4291284427
-0.1637319 0.082429871 0.3809593 4291021255
-0.16338587 0.082565084 0.38158423 4291152071
-0.16277125 0.082565084 0.38158423 4287007112
-0.16242221 0.082700312 0.38220918 4284109910
-0.16212405 0.082862571 0.3829591 4283188808
-0.16150723 0.082862571 0.3829591 4282007616
-0.16120544 0.083024837 0.38370901 4281678651
-0.16079663 0.083133005 0.38420895 4281219385
-0.16043831 0.083268225 0.38483387 4281153592
-0.15981846 0.083268225 0.38483387 4281218613
-0.15935373 0.083349362 0.38520885 4281152820
-0.15893927 0.083457537 0.38570878 4281349684
-0.15842062 0.083511621 0.38595876 4281349684
-0.15779895 0.083511621 0.38595876 4281218349
-0.15738089 0.083619803 0.38645872 4281218349
-0.15691051 0.083700933 0.38683367 4281218349
-0.15628743 0.083700933 0.38683367 4281284142
-0.15581524 0.083782062 0.38720864 4281153069
-0.15534183 0.083863191 0.38758358 4281218862
-0.15486723 0.083944328 0.38795856 4281349935
-0.15424235 0.083944328 0.38795856 4281415728
-0.15371644 0.083998419 0.38820854 4281284144
-0.15318972 0.084052503 0.38845849 4281284144
-0.15256402 0.084052503 0.38845849 4281284404
-0.15208501 0.084133632 0.38883346 4281350197
-0.15155607 0.084187724 0.38908345 4281218098
-0.15107481 0.084268853 0.38945839 4281283891
-0.15044752 0.084268853 0.38945839 4281415477
-0.14991638 0.084322944 0.38970837 4281481270
-0.14938444 0.084377035 0.38995835 4281481272
-0.14875633 0.084377035 0.38995835 4281415479
-0.14822316 0.084431119 0.3902083 4281285187
-0.14768921 0.084485203 0.39045829 4281548359
-0.14720151 0.08456634 0.39083326 4286745756
-0.14647825 0.084512249 0.39058328 4290824922
-0.14584914 0.084512249 0.39058328 4290889421
-0.14535943 0.084593378 0.39095822 4291218386
-0.14491479 0.08470156 0.39145818 4291284177
-0.14428426 0.08470156 0.39145818 4291349970
-0.1438372 0.084809728 0.39195812 4291285714
-0.14338854 0.08491791 0.39245808 4291285714
-0.1427564 0.08491791 0.39245808 4291154128
-0.14230531 0.085026085 0.39295802 4291351507
-0.14185263 0.08513426 0.39345798 4291417300
-0.14135344 0.08521539 0.39383292 4291417300
-0.1407191 0.08521539 0.39383292 4291351507
-0.14021812 0.085296527 0.39420789 4291285714
-0.13971594 0.085377656 0.39458284 4291416530
-0.13921255 0.085458785 0.39495781 4291416530
-0.13857637 0.085458785 0.39495781 4291416276
-0.13802753 0.085512877 0.39520779 4291284690
-0.13747786 0.08556696 0.39545774 4291350224
-0.13697064 0.085648097 0.39583272 4291087052
-0.13633308 0.085648097 0.39583272 4286479998
-0.13582404 0.085729226 0.39620766 4282664004
-0.13535646 0.085837401 0.39670762 4283124300
-0.13488723 0.085945576 0.39720756 4282532163
-0.13424745 0.085945576 0.39720756 4282138432
-0.13377585 0.086053751 0.39770752 4282072639
-0.13321891 0.086107835 0.39795747 4281876032
-0.13257793 0.086107835 0.39795747 4282007618
-0.1320198 0.086161926 0.39820746 4282073422
-0.13146089 0.086216018 0.39845744 4282797145
-0.13090117 0.086270109 0.39870742 4288124323
-0.13025896 0.086270109 0.39870742 4290953422
-0.12961677 0.086270109 0.39870742 4291087052
-0.12905541 0.086324193 0.39895737 4291087052
-0.12849328 0.086378284 0.39920735 4291021508
-0.12785028 0.086378284 0.39920735 4290758336
-0.12744622 0.086540543 0.39995727 4290757818
-0.12711902 0.086756893 0.40095717 4285691757
-0.12698571 0.087108463 0.40258199 4282861636
-0.12633726 0.087108463 0.40258199 4282664257
-0.12892762 0.089353107 0.41295588 4282007867
-0.12907769 0.089921035 0.4155806 4281481523
-0.084037296 0.091165051 0.42132998 4281414707
-0.083358653 0.091165051 0.42132998 4281414707
-0.082802661 0.091300271 0.42195493 4282003255
-0.082123011 0.091300271 0.42195493 4286279800
-0.081491612 0.091354355 0.42220488 4287729040
-0.080691949 0.091219142 0.42157996 4287597454
-0.08001291 0.091219142 0.42157996 4289506223
-0.079333864 0.091219142 0.42157996 4289637809
-0.078701459 0.091273233 0.42182994 4289769650
-0.078022018 0.091273233 0.42182994 4289967029
-0.077388406 0.091327317 0.42207992 4290032565
-0.076708563 0.091327317 0.42207992 4289966772
-0.075983681 0.091273233 0.42182994 4289703600
-0.075259611 0.091219142 0.42157996 4289835186
-0.074580565 0.091219142 0.42157996 4289769650
-0.073879614 0.091192096 0.42145497 4289769650
-0.073179066 0.091165051 0.42132998 4289638064
-0.072500423 0.091165051 0.42132998 4289638064
-0.071843095 0.091192096 0.42145497 4289572014
-0.07116425 0.091192096 0.42145497 4289572014
-0.070527218 0.091246188 0.42170495 4289373863
-0.069910087 0.091327317 0.42207992 4289308070
-0.069332734 0.091462538 0.42270485 4288518807
-0.068733074 0.091570713 0.42320478 4288518807
-0.068051413 0.091570713 0.42320478 4288321428
-0.067429453 0.091651842 0.42357975 4288058256
-0.06678658 0.091705933 0.42382973 4288189589
-0.066103913 0.091705933 0.42382973 4288189589
-0.065401949 0.091678888 0.42370474 4287926419
-0.064719483 0.091678888 0.42370474 4288321177
-0.064037025 0.091678888 0.42370474 4288518043
0.025381634 0.06663622 0.3079671 4290691522
0.025909187 0.066717349 0.30834207 4290691522
0.026405837 0.066717349 0.30834207 4290494143
0.026935199 0.066798478 0.30871701 4290428350
0.027487984 0.066933699 0.30934194 4290494143
0.028054088 0.067095965 0.31009188 4290494143
0.02863412 0.067285277 0.31096679 4290428350
0.029240385 0.067528665 0.31209165 4290494143
0.029743075 0.067528665 0.31209165 4290559936
0.030354781 0.067772061 0.31321654 4290690752
0.030957794 0.067988418 0.31421643 4290690752
0.031538997 0.068150677 0.31496635 4290559166
0.032122616 0.068312943 0.31571627 4290624959
0.032708652 0.068475202 0.31646618 4290690752
0.033297103 0.068637468 0.3172161 4290624959
0.033808045 0.068637468 0.3172161 4290624959
0.034427166 0.068853818 0.318216 4290822338
0.035022058 0.069016084 0.31896591 4290624959
0.035605446 0.069151305 0.31959087 4290690752
0.036176715 0.06925948 0.3200908 4290690752
0.036778249 0.069421738 0.32084072 4290624959
0.037295032 0.069421738 0.32084072 4290559166
0.037900191 0.069584005 0.32159063 4290493373
0.038552564 0.0698274 0.32271552 4290361787
0.03929935 0.070233062 0.32459033 4290624959
0.040052183 0.070638724 0.32646513 4290755516
0.040919796 0.07123369 0.32921484 4288321175
0.041497275 0.071314819 0.32958978 4286281079
0.042075962 0.071395949 0.32996476 4284109910
-0.16608857 0.082689293 0.37933448 4291677390
-0.16547757 0.082689293 0.37933448 4291940562
-0.1651925 0.082852766 0.3800844 4291743691
-0.16458029 0.082852766 0.3800844 4291743691
-0.16418377 0.082961746 0.38058433 4291284680
-0.1637319 0.083043486 0.3809593 4291218887
-0.16338587 0.083179705 0.38158423 4289638062
-0.16277125 0.083179705 0.38158423 4285756275
-0.16242221 0.083315939 0.38220918 4282859075
-0.16212405 0.083479412 0.3829591 4282990661
-0.16150723 0.083479412 0.3829591 4281744444
-0.16089039 0.083479412 0.3829591 4281547065
-0.1605351 0.083615631 0.38358402 4281087799
-0.16012567 0.083724611 0.38408396 4281087799
-0.15950702 0.083724611 0.38408396 4281087797
-0.15909521 0.083833598 0.38458392 4281022004
-0.15863025 0.08391533 0.38495886 4281415477
-0.15811281 0.083969824 0.38520885 4281283891
-0.15749234 0.083969824 0.38520885 4281020972
-0.15707548 0.084078796 0.38570878 4281086765
-0.15665703 0.084187783 0.38620874 4281021483
-0.15603495 0.084187783 0.38620874 4281153069
-0.15556376 0.084269516 0.38658369 4280890667
-0.15509136 0.084351256 0.38695866 4281022253
-0.15456788 0.08440575 0.38720864 4281218862
-0.15394421 0.08440575 0.38720864 4281284655
-0.15341949 0.084460229 0.38745859 4281153071
-0.15294328 0.084541969 0.38783357 4281153071
-0.1523186 0.084541969 0.38783357 4281284404
-0.15179169 0.084596463 0.38808355 4281284404
-0.15131265 0.084678195 0.38845849 4281021232
-0.15078391 0.084732689 0.38870847 4281152818
-0.15015782 0.084732689 0.38870847 4281350197
-0.14962789 0.084787183 0.38895845 4281415990
-0.14909714 0.084841669 0.38920841 4281415990
-0.14847025 0.084841669 0.38920841 4281350197
-0.1479383 0.084896155 0.38945839 4280824636
-0.14745283 0.084977895 0.38983336 4283324770
-0.14696613 0.085059628 0.3902083 4287995821
-0.14633763 0.085059628 0.3902083 4290759127
-0.14584914 0.085141368 0.39058328 4291021007
-0.14535943 0.085223101 0.39095822 4291152593
-0.14491479 0.085332081 0.39145818 4291284177
-0.14428426 0.085332081 0.39145818 4291349970
-0.1438372 0.08544106 0.39195812 4291482323
-0.14338854 0.085550047 0.39245808 4291482323
-0.1427564 0.085550047 0.39245808 4291284944
-0.14230531 0.085659027 0.39295802 4291416530
-0.14185263 0.085768007 0.39345798 4291548116
-0.14135344 0.08584974 0.39383292 4291613909
-0.14067444 0.085822493 0.39370793 4291482323
-0.14004029 0.085822493 0.39370793 4291416530
-0.13949466 0.085876986 0.39395791 4291547603
-0.13899228 0.085958727 0.39433289 4291481810
-0.13835712 0.085958727 0.39433289 4291481810
-0.13785292 0.08604046 0.39470783 4291350224
-0.13730405 0.086094953 0.39495781 4291350220
-0.13675439 0.086149447 0.39520779 4289639602
-0.13611785 0.086149447 0.39520779 4284900966
-0.13565265 0.086258419 0.39570773 4283058762
-0.13518587 0.086367399 0.39620766 4283123530
-0.13454768 0.086367399 0.39620766 4282597186
-0.13403624 0.086449139 0.39658263 4282269248
-0.13356563 0.086558118 0.39708257 4282203455
-0.13305156 0.086639851 0.39745754 4282072389
-0.13241138 0.086639851 0.39745754 4282401354
-0.13185406 0.086694345 0.39770752 4282400334
-0.13129595 0.086748831 0.39795747 4284571503
-0.13069598 0.086776078 0.39808246 4289703609
-0.13005479 0.086776078 0.39808246 4290887883
-0.12945423 0.086803325 0.39820746 4291218636
-0.12885326 0.086830571 0.39833245 4291087050
-0.12829213 0.086885065 0.39858243 4290824129
-0.12765014 0.086885065 0.39858243 4290824129
-0.12720726 0.087021291 0.39920735 4289704106
-0.12688127 0.087239251 0.40020725 4285032803
-0.12670974 0.087566189 0.40170708 4282730567
-0.12606271 0.087566189 0.40170708 4282467395
-0.12658633 0.088383548 0.40545669 4281876541
-0.12709785 0.089200906 0.40920627 4281350197
-0.084012374 0.091816455 0.42120501 4281348914
-0.083333932 0.091816455 0.42120501 4281348914
-0.082851708 0.092034407 0.42220488 4281476911
-0.082171656 0.092034407 0.42220488 4285095526
-0.081539862 0.092088901 0.42245486 4287203468
-0.080691949 0.091898181 0.42157996 4287795605
-0.08001291 0.091898181 0.42157996 4288585378
-0.079333864 0.091898181 0.42157996 4289243308
-0.078701459 0.091952674 0.42182994 4289638834
-0.078022018 0.091952674 0.42182994 4289836213
-0.077388406 0.092007168 0.42207992 4290032565
-0.076708563 0.092007168 0.42207992 4289966772
-0.075983681 0.091952674 0.42182994 4289769650
-0.075259611 0.091898181 0.42157996 4289901236
-0.074580565 0.091898181 0.42157996 4289769650
-0.073879614 0.091870941 0.42145497 4289703857
-0.073179066 0.091843694 0.42132998 4289638064
-0.072500423 0.091843694 0.42132998 4289638064
-0.071843095 0.091870941 0.42145497 4289572273
-0.07116425 0.091870941 0.42145497 4289506480
-0.070527218 0.091925427 0.42170495 4289308844
-0.069910087 0.092007168 0.42207992 4289177258
-0.069332734 0.092143394 0.42270485 4289243049
-0.068733074 0.092252374 0.42320478 4288387740
-0.068051413 0.092252374 0.42320478 4288979105
-0.067369759 0.092252374 0.42320478 4288058003
-0.066747189 0.092334107 0.42357975 4288189593
-0.066064924 0.092334107 0.42357975 4288189593
-0.065382659 0.092334107 0.42357975 4288058005
-0.064681299 0.092306867 0.42345476 4288452763
-0.063961461 0.092252374 0.42320478 4288649629
-0.0632798 0.092252374 0.42320478 4288583836
-0.062598139 0.092252374 0.42320478 4288123285
0.023416447 0.067186758 0.30821708 4290494141
0.023912895 0.067186758 0.30821708 4290428348
0.024439035 0.067268491 0.30859202 4290362555
0.024966387 0.067350224 0.30896699 4290494143
0.025484644 0.067404717 0.30921698 4290559936
0.026014209 0.06748645 0.30959192 4290428350
0.02653428 0.067540944 0.3098419 4290494143
0.027033344 0.067540944 0.3098419 4290494143
0.027565727 0.067622676 0.31021684 4290428350
0.028133241 0.06778615 0.31096679 4290494143
0.028726188 0.068004109 0.31196666 4290428350
0.029357489 0.068303809 0.31334153 4290428350
0.030052777 0.068739735 0.31534132 4290559936
0.030669713 0.068984941 0.31646618 4290624959
0.031179447 0.068984941 0.31646618 4290690752
0.031764276 0.069148406 0.3172161 4290559166
0.032326084 0.069257393 0.31771606 4290690752
0.032889504 0.069366373 0.318216 4290690495
0.033454537 0.06947536 0.31871596 4290690495
0.034021176 0.069584332 0.31921589 4290690495
0.034535341 0.069584332 0.31921589 4290558909
0.035118122 0.069720559 0.31984082 4290559166
0.035702918 0.069856793 0.32046577 4290624959
0.036289722 0.069993012 0.3210907 4290624959
0.036950182 0.070265472 0.32234058 4290559166
0.037672777 0.070646897 0.32409036 4290559166
0.038386282 0.07100109 0.32571521 4290493373
0.038910914 0.07100109 0.32571521 4290493373
0.039556604 0.071219049 0.32671508 4290098615
0.040374193 0.071736708 0.32908985 4287004802
0.041044075 0.071981914 0.33021471 4284833633
0.041859217 0.072472334 0.33246449 4283386187
-0.16703492 0.08316306 0.37870955 4290823110
-0.16642494 0.08316306 0.37870955 4291217868
-0.16581494 0.08316306 0.37870955 4291611597
-0.16536851 0.083245397 0.3790845 4291808976
-0.16481225 0.083272845 0.37920949 4291611852
-0.16420145 0.083272845 0.37920949 4291743438
-0.16391417 0.083437525 0.3799594 4291349450
-0.16351704 0.083547316 0.38045937 4291941587
-0.16317181 0.083684549 0.38108429 4288256152
-0.162558 0.083684549 0.38108429 4284637537
-0.16220975 0.083821774 0.38170922 4282924616
-0.16185948 0.083959006 0.38233414 4282793030
-0.16124366 0.083959006 0.38233414 4281546813
-0.16089039 0.084096245 0.3829591 4281481020
-0.1605351 0.084233478 0.38358402 4281022006
-0.16012567 0.084343262 0.38408396 4281022006
-0.15950702 0.084343262 0.38408396 4281022004
-0.15909521 0.084453046 0.38458392 4281087797
-0.15863025 0.084535383 0.38495886 4281415479
-0.15811281 0.084590279 0.38520885 4281283893
-0.15749234 0.084590279 0.38520885 4281086512
-0.15692279 0.084617727 0.38533384 4281086512
-0.15630214 0.084617727 0.38533384 4280955692
-0.15568146 0.084617727 0.38533384 4281021485
-0.15526199 0.084727511 0.38583377 4280890669
-0.1547908 0.084809855 0.38620874 4281088048
-0.15431841 0.084892191 0.38658369 4281349935
-0.15369575 0.084892191 0.38658369 4281349935
-0.15322153 0.084974535 0.38695866 4281218351
-0.15269685 0.085029431 0.38720864 4281086765
-0.15207316 0.085029431 0.38720864 4281152818
-0.15154724 0.085084319 0.38745859 4281284404
-0.15102054 0.085139208 0.38770857 4281021232
-0.15049303 0.085194103 0.38795856 4281152818
-0.14986813 0.085194103 0.38795856 4281350197
-0.14933941 0.085248999 0.38820854 4281350197
-0.14880987 0.085303888 0.38845849 4281415990
-0.14818418 0.085303888 0.38845849 4281481783
-0.14765345 0.085358784 0.38870847 4281022015
-0.14721644 0.085468568 0.38920841 4284377458
-0.14668369 0.085523464 0.38945839 4289574853
-0.14605638 0.085523464 0.38945839 4290890713
-0.14561579 0.085633256 0.38995835 4291021520
-0.14517355 0.08574304 0.39045829 4291153106
-0.1447297 0.085852817 0.39095822 4291284177
-0.1441 0.085852817 0.39095822 4291481556
-0.14365374 0.085962608 0.39145818 4291547349
-0.14320587 0.086072393 0.39195812 4291613142
-0.14257453 0.086072393 0.39195812 4291481810
-0.14212427 0.086182185 0.39245808 4291350224
-0.14167237 0.086291969 0.39295802 4291481810
-0.14112915 0.086346865 0.393208 4291613396
-0.14049581 0.086346865 0.393208 4291678419
-0.14004029 0.086456642 0.39370793 4291612626
-0.13949466 0.086511537 0.39395791 4291547603
-0.13899228 0.086593881 0.39433289 4291547603
-0.13835712 0.086593881 0.39433289 4291481810
-0.13785292 0.086676218 0.39470783 4291284431
-0.13730405 0.086731113 0.39495781 4291743438
-0.13675439 0.086786009 0.39520779 4288519581
-0.13611785 0.086786009 0.39520779 4284703330
-0.13565265 0.086895794 0.39570773 4283453263
-0.13518587 0.087005578 0.39620766 4282729544
-0.13454768 0.087005578 0.39620766 4282268993
-0.133994 0.087060474 0.39645764 4282203457
-0.13335542 0.087060474 0.39645764 4282137664
-0.13280052 0.087115362 0.39670762 4282138182
-0.13216154 0.087115362 0.39670762 4282401354
-0.13164687 0.087197699 0.39708257 4282531661
-0.13108976 0.087252595 0.39733255 4286216069
-0.13049082 0.087280042 0.39745754 4291019467
-0.12985063 0.087280042 0.39745754 4291019467
-0.12929171 0.087334938 0.39770752 4291152843
-0.12865111 0.087334938 0.39770752 4291087050
-0.12809098 0.087389827 0.39795747 4290954943
-0.12744999 0.087389827 0.39795747 4291152322
-0.12692846 0.087472171 0.39833245 4287796111
-0.12652463 0.087636851 0.39908236 4283914324
-0.12631549 0.087938756 0.4004572 4282468165
-0.12567046 0.087938756 0.4004572 4282204993
-0.12549372 0.088268124 0.40195706 4281350967
-0.12562267 0.088817053 0.40445679 4281219381
-0.084012374 0.09249489 0.42120501 4281348916
-0.083333932 0.09249489 0.42120501 4281217330
-0.082851708 0.092714459 0.42220488 4281542963
-0.082171656 0.092714459 0.42220488 4283845718
-0.081491612 0.092714459 0.42220488 4286940553
-0.080691949 0.092577226 0.42157996 4287993241
-0.08001291 0.092577226 0.42157996 4288716964
-0.079333864 0.092577226 0.42157996 4289440687
-0.078631498 0.092549779 0.42145497 4289507248
-0.077952661 0.092549779 0.42145497 4289770420
-0.077319652 0.092604674 0.42170495 4290032565
-0.076617695 0.092577226 0.42157996 4290032565
-0.075893626 0.092522331 0.42132998 4289966772
-0.075170361 0.092467442 0.42108002 4290032565
-0.074492127 0.092467442 0.42108002 4289769650
-0.073791973 0.092439994 0.42095503 4289901236
-0.073070526 0.092385098 0.42070505 4289769652
-0.072392888 0.092385098 0.42070505 4289638066
-0.071736567 0.092412546 0.42083004 4289703859
-0.071058728 0.092412546 0.42083004 4289703859
-0.070401795 0.092439994 0.42095503 4289506226
-0.069806568 0.092549779 0.42145497 4289440433
-0.069230236 0.092687018 0.42207992 4289308847
-0.068550386 0.092687018 0.42207992 4288848296
-0.067971028 0.09282425 0.42270485 4288781728
-0.067369759 0.092934035 0.42320478 4288189591
-0.066747189 0.093016371 0.42357975 4288321177
-0.066064924 0.093016371 0.42357975 4288189591
-0.065382659 0.093016371 0.42357975 4288058007
-0.064681299 0.092988931 0.42345476 4288386972
-0.063961461 0.092934035 0.42320478 4289044387
-0.0632798 0.092934035 0.42320478 4288649629
-0.062598139 0.092934035 0.42320478 4288254871
0.020985141 0.067847885 0.30896699 4290362557
0.021482797 0.067847885 0.30896699 4290428350
0.021980453 0.067847885 0.30896699 4290428348
0.022478109 0.067847885 0.30896699 4290428348
0.02298506 0.067875333 0.30909199 4290624957
0.023492413 0.067902781 0.30921698 4290624957
0.024009863 0.067957669 0.30946693 4290428348
0.024508324 0.067957669 0.30946693 4290362555
0.025026985 0.068012565 0.30971691 4290362557
0.02554645 0.068067454 0.30996689 4290428350
0.02606672 0.068122342 0.31021684 4290559166
0.026609207 0.068232134 0.31071681 4290624959
0.027109679 0.068232134 0.31071681 4290690752
0.027654577 0.068341918 0.31121674 4290559166
0.028246317 0.068561494 0.31221664 4290559166
0.028887313 0.068890847 0.31371647 4290493373
0.029533142 0.069220215 0.31521633 4290559166
0.030148067 0.069467224 0.31634119 4290624959
0.03074239 0.069659352 0.3172161 4290559164
0.031327218 0.06982404 0.31796604 4290624957
0.031839371 0.06982404 0.31796604 4290559164
0.032415103 0.069961272 0.31859097 4290624957
0.032979932 0.070071049 0.3190909 4290690493
0.033546373 0.070180841 0.31959087 4290558907
0.034101103 0.070263177 0.31996581 4290624700
0.034616474 0.070263177 0.31996581 4290493114
0.035186738 0.070372969 0.32046577 4290493373
0.035786465 0.070537649 0.32121569 4290559166
0.036529865 0.070976794 0.32321548 4290493373
0.037394326 0.071635507 0.32621515 4290559166
0.038152225 0.072074652 0.32821494 4290493373
0.03876926 0.072239332 0.32896486 4290427580
0.039299127 0.072239332 0.32896486 4291085251
0.03987439 0.072321668 0.3293398 4287006085
0.04040486 0.072321668 0.3293398 4284175705
0.041168358 0.072733365 0.33121461 4283517775
-0.16697979 0.083745405 0.37858456 4291020489
-0.16637 0.083745405 0.37858456 4291283661
-0.16576022 0.083745405 0.37858456 4291481038
-0.16520496 0.083773054 0.37870955 4291612624
-0.16464928 0.083800696 0.37883452 4291611854
-0.16403908 0.083800696 0.37883452 4291743440
-0.16364458 0.083911292 0.37933448 4291349452
-0.16324843 0.084021881 0.37983441 4291283659
-0.16290423 0.084160127 0.38045937 4286939524
-0.16229142 0.084160127 0.38045937 4283255116
-0.16194418 0.084298365 0.38108429 4283122767
-0.16159493 0.084436603 0.38170922 4282530630
-0.16098011 0.084436603 0.38170922 4281677631
-0.16062783 0.084574841 0.38233414 4281677631
-0.16027355 0.084713079 0.3829591 4281481020
-0.15981303 0.084796019 0.38333404 4281415227
-0.15919559 0.084796019 0.38333404 4281152822
-0.15873328 0.084878966 0.38370901 4281218615
-0.15821823 0.084934264 0.383959 4281349686
-0.15759979 0.084934264 0.383959 4281349686
-0.15713464 0.085017204 0.38433394 4281218100
-0.15671919 0.085127793 0.38483387 4281086514
-0.15630214 0.08523839 0.38533384 4281086512
-0.15568146 0.08523839 0.38533384 4281086512
-0.15526199 0.085348979 0.38583377 4280955692
-0.1547908 0.085431926 0.38620874 4281218864
-0.15431841 0.085514866 0.38658369 4281480751
-0.15369575 0.085514866 0.38658369 4281414958
-0.15322153 0.085597813 0.38695866 4281349165
-0.15269685 0.085653111 0.38720864 4281217579
-0.15207316 0.085653111 0.38720864 4281218351
-0.15154724 0.085708402 0.38745859 4281218351
-0.1508745 0.08568076 0.38733363 4280955439
-0.1502506 0.08568076 0.38733363 4281021232
-0.14962673 0.08568076 0.38733363 4281284404
-0.14909899 0.085736051 0.38758358 4281350197
-0.14857048 0.085791349 0.38783357 4281547063
-0.14794579 0.085791349 0.38783357 4281941821
-0.14746353 0.085874289 0.38820854 4281744709
-0.1469328 0.085929587 0.38845849 4285100152
-0.14644831 0.086012527 0.38883346 4289642445
-0.14582203 0.086012527 0.38883346 4290892512
-0.14538242 0.086123116 0.3893334 4290759633
-0.14489472 0.086206064 0.38970837 4290825426
-0.14426702 0.086206064 0.38970837 4291153358
-0.14382359 0.086316653 0.3902083 4291219151
-0.14342441 0.086454898 0.39083326 4291416530
-0.14297755 0.086565487 0.39133319 4291482323
-0.14234722 0.086565487 0.39133319 4291481810
-0.14189795 0.086676076 0.39183313 4291350224
-0.14144707 0.086786672 0.39233309 4291481810
-0.14094971 0.086869612 0.39270803 4291613396
-0.14031717 0.086869612 0.39270803 4291547603
-0.139818 0.08695256 0.39308301 4291547603
-0.13931763 0.087035507 0.39345798 4291547603
-0.138772 0.087090798 0.39370793 4291481810
-0.13813785 0.087090798 0.39370793 4291350224
-0.137591 0.087146096 0.39395791 4291152845
-0.13708681 0.087229036 0.39433289 4291481036
-0.13658139 0.087311976 0.39470783 4286941319
-0.13594565 0.087311976 0.39470783 4283519060
-0.13543841 0.087394923 0.3950828 4282663751
-0.13492998 0.087477863 0.39545774 4282400582
-0.13429302 0.087477863 0.39545774 4282137410
-0.13382503 0.087588459 0.39595771 4282072641
-0.13335542 0.087699048 0.39645764 4282006848
-0.13280052 0.087754346 0.39670762 4282269768
-0.13216154 0.087754346 0.39670762 4282269768
-0.13164687 0.087837286 0.39708257 4283584606
-0.13108976 0.087892585 0.39733255 4287532186
-0.13049082 0.087920234 0.39745754 4291545809
-0.12985063 0.087920234 0.39745754 4291085258
-0.12929171 0.087975532 0.39770752 4291283659
-0.12865111 0.087975532 0.39770752 4291217866
-0.12809098 0.088030823 0.39795747 4290954943
-0.12744999 0.088030823 0.39795747 4291152322
-0.12684882 0.088058472 0.39808246 4286480251
-0.12620762 0.088058472 0.39808246 4283124808
-0.12556644 0.088058472 0.39808246 4282730567
-0.12519979 0.088252008 0.39895737 4282270016
-0.12514251 0.088666722 0.40083218 4281482553
-0.12492391 0.088970847 0.40220702 4281219381
-0.084236734 0.09342216 0.42232987 4281348916
-0.083556481 0.09342216 0.42232987 4281217330
-0.082900763 0.093449809 0.42245486 4281807159
-0.082220308 0.093449809 0.42245486 4282662468
-0.081491612 0.09339451 0.42220488 4286348162
-0.080739796 0.093311571 0.42182994 4287664022
-0.080060355 0.093311571 0.42182994 4288059034
-0.079333864 0.093256272 0.42157996 4289243308
-0.078608185 0.093200974 0.42132998 4289572014
-0.077929541 0.093200974 0.42132998 4289769393
-0.077250898 0.093200974 0.42132998 4290097588
-0.076549552 0.093173333 0.42120501 4290163381
-0.07580357 0.093090385 0.42083004 4290097588
-0.075058796 0.093007438 0.42045507 4289966002
-0.074381568 0.093007438 0.42045507 4289769393
-0.073660515 0.092952147 0.42020512 4289835186
-0.072940275 0.092896849 0.41995513 4289769652
-0.072263852 0.092896849 0.41995513 4289638066
-0.071587421 0.092896849 0.41995513 4289703605
-0.070910998 0.092896849 0.41995513 4289703605
-0.070318185 0.093007438 0.42045507 4289637812
-0.069723763 0.093118034 0.42095503 4289506226
-0.069127731 0.093228623 0.42145497 4289308847
-0.068448886 0.093228623 0.42145497 4288979882
-0.067930825 0.093449809 0.42245486 4289111463
-0.067369759 0.093615696 0.42320478 4288848291
-0.066727489 0.093670994 0.42345476 4288386970
-0.066045426 0.093670994 0.42345476 4288058005
-0.065363362 0.093670994 0.42345476 4288058007
-0.064643115 0.093615696 0.42320478 4288255386
-0.063923687 0.093560405 0.42295483 4288518556
-0.063242428 0.093560405 0.42295483 4288452763
-0.062524192 0.093505107 0.42270485 4288320664
-0.061788481 0.09342216 0.42232987 4288518043
-0.061108228 0.09342216 0.42232987 4287464583
0.019523716 0.068456128 0.30946693 4290296766
0.02003835 0.068511426 0.30971691 4290230973
0.020537214 0.068511426 0.30971691 4290428352
0.021044565 0.068539076 0.3098419 4290362557
0.02153494 0.068511426 0.30971691 4290362557
0.022033803 0.068511426 0.30971691 4290428348
0.022532668 0.068511426 0.30971691 4290428348
0.023031533 0.068511426 0.30971691 4290494141
0.023530394 0.068511426 0.30971691 4290428348
0.024048652 0.068566725 0.30996689 4290428350
0.024547918 0.068566725 0.30996689 4290428350
0.025097683 0.068704963 0.31059182 4290362557
0.025618557 0.068760261 0.3108418 4290362557
0.026140235 0.068815552 0.31109175 4290428350
0.026652019 0.068843201 0.31121674 4290428350
0.027153296 0.068843201 0.31121674 4290494143
0.027732322 0.069036737 0.31209165 4290362557
0.028382007 0.069396153 0.31371647 4290559166
0.029025422 0.069727935 0.31521633 4290493373
0.029650243 0.070004411 0.31646618 4290559166
0.030255271 0.070225596 0.31746608 4290624959
0.030839294 0.070391484 0.318216 4290493371
0.031413417 0.070529722 0.31884095 4290559164
0.031977039 0.070640311 0.31934088 4290493371
0.032491405 0.070640311 0.31934088 4290493371
0.033031605 0.070695609 0.31959087 4290559164
0.033546373 0.070695609 0.31959087 4290427578
0.034101103 0.070778549 0.31996581 4290559164
0.034616474 0.070778549 0.31996581 4290493371
0.035186738 0.070889145 0.32046577 4290493371
0.035786465 0.071055032 0.32121569 4290559164
0.036529865 0.071497403 0.32321548 4290427578
0.037394326 0.072160944 0.32621515 4290361785
0.038152225 0.072603315 0.32821494 4290230199
0.03876926 0.072769202 0.32896486 4290690750
0.039299127 0.072769202 0.32896486 4291019715
0.03987439 0.072852142 0.3293398 4285953654
0.04040486 0.072852142 0.3293398 4282992973
0.041168358 0.073266856 0.33121461 4283387731
-0.16697979 0.084355198 0.37858456 4291151821
-0.16637 0.084355198 0.37858456 4291349200
-0.16576022 0.084355198 0.37858456 4291481040
-0.16520496 0.084383048 0.37870955 4291678419
-0.16464928 0.084410891 0.37883452 4291744212
-0.16403908 0.084410891 0.37883452 4291744212
-0.16342889 0.084410891 0.37883452 4291677388
-0.16297986 0.084494442 0.37920949 4289703598
-0.16269016 0.084661536 0.3799594 4286083700
-0.16207816 0.084661536 0.3799594 4282530878
-0.16173172 0.08480078 0.38058433 4283188558
-0.16138329 0.084940031 0.38120928 4282728007
-0.16076927 0.084940031 0.38120928 4282202948
-0.16036528 0.085051425 0.38170922 4282268741
-0.1599597 0.085162826 0.38220918 4281940801
-0.1595525 0.08527422 0.38270912 4281677629
-0.15893607 0.08527422 0.38270912 4281349688
-0.15842305 0.08532992 0.3829591 4281415481
-0.15796071 0.085413463 0.38333404 4281547067
-0.15734328 0.085413463 0.38333404 4281415481
-0.15687914 0.085497014 0.38370901 4281283895
-0.1564647 0.085608408 0.38420895 4281283895
-0.15599795 0.085691959 0.38458392 4281349686
-0.15537849 0.085691959 0.38458392 4281283893
-0.15496022 0.085803352 0.38508385 4281349167
-0.15449023 0.085886903 0.38545883 4281414960
-0.15401906 0.085970446 0.38583377 4281677103
-0.15339759 0.085970446 0.38583377 4281677103
-0.1529246 0.086053997 0.38620874 4281545774
-0.15240112 0.086109698 0.38645872 4281348395
-0.15177864 0.086109698 0.38645872 4281349167
-0.15125392 0.086165391 0.38670868 4281217581
-0.15072843 0.086221091 0.38695866 4280954926
-0.1502506 0.086304642 0.38733363 4281086512
-0.14962673 0.086304642 0.38733363 4281218611
-0.14909899 0.086360335 0.38758358 4281350197
-0.14857048 0.086416036 0.38783357 4281677879
-0.14794579 0.086416036 0.38783357 4282072637
-0.14746353 0.086499587 0.38820854 4282532688
-0.1469328 0.08655528 0.38845849 4284967029
-0.14644831 0.086638831 0.38883346 4287142061
-0.14582203 0.086638831 0.38883346 4288655300
-0.14538242 0.086750224 0.3893334 4290299344
-0.14489472 0.086833775 0.38970837 4290496723
-0.14426702 0.086833775 0.38970837 4291153104
-0.14363933 0.086833775 0.38970837 4291218897
-0.14319506 0.086945169 0.3902083 4291219149
-0.14274924 0.08705657 0.39070827 4291416528
-0.1421199 0.08705657 0.39070827 4291284942
-0.14167164 0.087167963 0.3912082 4291219149
-0.14122178 0.087279364 0.39170817 4291284942
-0.1407254 0.087362908 0.39208311 4291284942
-0.14009388 0.087362908 0.39208311 4291219151
-0.13959572 0.087446459 0.39245808 4291284944
-0.13905209 0.087502152 0.39270803 4291416530
-0.13855173 0.087585703 0.39308301 4291284944
-0.13791858 0.087585703 0.39308301 4291153358
-0.13737275 0.087641403 0.39333299 4291087565
-0.13686955 0.087724946 0.39370793 4290231739
-0.1362354 0.087724946 0.39370793 4284968299
-0.13568735 0.087780647 0.39395791 4283058509
-0.13522418 0.087892041 0.39445785 4282597958
-0.13471676 0.087975591 0.39483282 4282137664
-0.1340808 0.087975591 0.39483282 4282071871
-0.13361381 0.088086985 0.39533275 4282006848
-0.13310318 0.088170536 0.39570773 4282072641
-0.13259132 0.088254087 0.3960827 4282335561
-0.13195336 0.088254087 0.3960827 4282072389
-0.13143969 0.08833763 0.39645764 4284045927
-0.13088359 0.088393331 0.39670762 4288980402
-0.13028565 0.088421181 0.39683262 4291282637
-0.12964647 0.088421181 0.39683262 4291151051
-0.12904792 0.088449031 0.39695761 4291348682
-0.12848938 0.088504724 0.39720756 4291348682
-0.12788983 0.088532574 0.39733255 4291151552
-0.12724985 0.088532574 0.39733255 4290493622
-0.12668951 0.088588275 0.39758253 4285953132
-0.12620762 0.088699669 0.39808246 4283387205
-0.12556644 0.088699669 0.39808246 4282664000
-0.12519979 0.088894613 0.39895737 4282269242
-0.12514251 0.089312352 0.40083218 4281678132
-0.12492391 0.08961869 0.40220702 4281546546
-0.083630666 0.094185956 0.42270485 4281151535
-0.082949817 0.094185956 0.42270485 4281676086
-0.082268961 0.094185956 0.42270485 4281873465
-0.081419237 0.093991011 0.42182994 4285558389
-0.080620177 0.093851767 0.42120501 4287663765
-0.07994175 0.093851767 0.42120501 4288058777
-0.079263307 0.093851767 0.42120501 4289703602
-0.078538232 0.093796074 0.42095503 4289702828
-0.077860191 0.093796074 0.42095503 4289900207
-0.077182151 0.093796074 0.42095503 4289966002
-0.076458693 0.093740374 0.42070505 4290097588
-0.075713523 0.093656823 0.42033011 4290097590
-0.074924923 0.093517579 0.41970515 4290097590
-0.074248902 0.093517579 0.41970515 4289900209
-0.073507152 0.093434036 0.41933021 4290163381
-0.072810024 0.093406186 0.41920522 4289901236
-0.072134808 0.093406186 0.41920522 4289703857
-0.071480893 0.093434036 0.41933021 4289703859
-0.070805475 0.093434036 0.41933021 4289703859
-0.070234574 0.09357328 0.41995513 4289638066
-0.069620259 0.093656823 0.42033011 4289506480
-0.06908673 0.093851767 0.42120501 4289440433
-0.068408288 0.093851767 0.42120501 4289177261
-0.067910731 0.094102412 0.42232987 4289111465
-0.067349866 0.094269507 0.42307979 4288782500
-0.066727489 0.09435305 0.42345476 4288321947
-0.066045426 0.09435305 0.42345476 4287927189
-0.065324776 0.094297357 0.42320478 4288058007
-0.06458585 0.094213806 0.42282984 4288255386
-0.063848123 0.094130263 0.42245486 4288452765
-0.063167669 0.094130263 0.42245486 4288452765
-0.06243176 0.094046712 0.42207992 4288386972
-0.061697051 0.093963169 0.42170495 4288386972
-0.061017804 0.093963169 0.42170495 4287990929
-0.060284916 0.093879618 0.42132998 4287727757
-0.059606273 0.093879618 0.42132998 4287728006
-0.02860105 0.072157249 0.32384041 4288650132
-0.028079437 0.072157249 0.32384041 4288584339
0.019523716 0.068954587 0.30946693 4290296766
0.02003835 0.069010288 0.30971691 4290296766
0.020537214 0.069010288 0.30971691 4290362559
0.021044565 0.069038138 0.3098419 4290362557
0.02153494 0.069010288 0.30971691 4290362557
0.022033803 0.069010288 0.30971691 4290362557
0.022532668 0.069010288 0.30971691 4290362557
0.023031533 0.069010288 0.30971691 4290428350
0.023530394 0.069010288 0.30971691 4290428350
0.024048652 0.069065988 0.30996689 4290428350
0.024547918 0.069065988 0.30996689 4290428350
0.025097683 0.069205232 0.31059182 4290362557
0.025618557 0.069260933 0.3108418 4290296764
0.026140235 0.069316626 0.31109175 4290362557
0.026652019 0.069344476 0.31121674 4290428350
0.027153296 0.069344476 0.31121674 4290428350
0.027732322 0.06953942 0.31209165 4290362557
0.028382007 0.069901459 0.31371647 4290296764
0.029025422 0.070235655 0.31521633 4290033592
0.029650243 0.070514143 0.31646618 4290428350
0.030255271 0.070736937 0.31746608 4290428350
0.030839294 0.070904031 0.318216 4290493373
0.031413417 0.071043283 0.31884095 4290427580
0.031977039 0.071154676 0.31934088 4290493371
0.032491405 0.071154676 0.31934088 4290361785
0.033044524 0.071238227 0.31971586 4290493371
0.033598851 0.071321771 0.3200908 4290427578
0.034154385 0.071405321 0.32046577 4290427578
0.03477874 0.071628116 0.32146567 4290427578
0.035296526 0.071628116 0.32146567 4290427578
0.035981409 0.071962304 0.3229655 4290493371
0.037320919 0.073577553 0.33021471 4290230199
0.037881456 0.073633254 0.33046469 4290098613
0.038413737 0.073633254 0.33046469 4291152324
0.038901832 0.07354971 0.33008975 4290954945
0.039433509 0.07354971 0.33008975 4291349450
0.040101379 0.073800348 0.33121461 4286020217
-0.16747893 0.08490888 0.37833458 4291414227
-0.16686954 0.08490888 0.37833458 4291217616
-0.16631508 0.084936932 0.37845957 4291480788
-0.16570549 0.084936932 0.37845957 4291678937
-0.16509591 0.084936932 0.37845957 4291613144
-0.16454065 0.084964983 0.37858456 4291679189
-0.16393085 0.084964983 0.37858456 4291613396
-0.16342889 0.085021079 0.37883452 4291677388
-0.16297986 0.085105233 0.37920949 4288914082
-0.16269016 0.085273534 0.3799594 4285163362
-0.16207816 0.085273534 0.3799594 4283123779
-0.16173172 0.085413784 0.38058433 4283253835
-0.16138329 0.085554041 0.38120928 4282990663
-0.16076927 0.085554041 0.38120928 4282136383
-0.16036528 0.085666239 0.38170922 4282596934
-0.1599074 0.085750394 0.38208419 4282400582
-0.15929197 0.085750394 0.38208419 4282071617
-0.15867653 0.085750394 0.38208419 4281678653
-0.15821622 0.08583454 0.38245913 4281547067
-0.1577547 0.085918695 0.38283411 4281679166
-0.15713808 0.085918695 0.38283411 4281481787
-0.15667473 0.086002849 0.38320905 4281349686
-0.1561593 0.086058952 0.38345903 4281415479
-0.15574446 0.086171158 0.383959 4281677879
-0.15512601 0.086171158 0.383959 4281546293
-0.15465845 0.086255305 0.38433394 4281742898
-0.15418968 0.086339459 0.38470891 4281742898
-0.15357003 0.086339459 0.38470891 4281807919
-0.15314914 0.086451657 0.38520885 4281873712
-0.15262766 0.08650776 0.38545883 4281677103
-0.15210538 0.086563855 0.38570878 4281413931
-0.1514841 0.086563855 0.38570878 4281479983
-0.1510095 0.08664801 0.38608375 4281348397
-0.15053369 0.086732164 0.38645872 4281085995
-0.15000817 0.086788259 0.38670868 4281349167
-0.1493853 0.086788259 0.38670868 4281284144
-0.14890668 0.086872414 0.38708365 4281481523
-0.14837897 0.086928517 0.38733363 4281677879
-0.14775509 0.086928517 0.38733363 4282006844
-0.14722614 0.086984612 0.38758358 4282663247
-0.1467437 0.087068766 0.38795856 4282268489
-0.14626002 0.087152913 0.3883335 4282995305
-0.14563453 0.087152913 0.3883335 4284376958
-0.14514907 0.087237068 0.38870847 4285889162
-0.14470884 0.087349266 0.38920841 4286941850
-0.14408194 0.087349266 0.38920841 4288520105
-0.14363933 0.087461472 0.38970837 4289835965
-0.14319506 0.087573677 0.3902083 4290626760
-0.14274924 0.087685883 0.39070827 4290824139
-0.1421199 0.087685883 0.39070827 4291154128
-0.14167164 0.087798081 0.3912082 4291154128
-0.14122178 0.087910287 0.39170817 4291284431
-0.1407254 0.087994434 0.39208311 4291218638
-0.14009388 0.087994434 0.39208311 4291086798
-0.13959572 0.088078588 0.39245808 4291086798
-0.13887507 0.088022485 0.3922081 4291152845
-0.13824335 0.088022485 0.3922081 4291218638
-0.13761161 0.088022485 0.3922081 4291087565
-0.13711084 0.08810664 0.39258307 4291416530
-0.13660884 0.088190787 0.39295802 4288521121
-0.13597591 0.088190787 0.39295802 4283849818
-0.13547212 0.088274941 0.39333299 4283124305
-0.1349671 0.088359088 0.39370793 4282466375
-0.13450354 0.088471293 0.39420789 4281941055
-0.13386858 0.088471293 0.39420789 4281941055
-0.1334026 0.088583492 0.39470783 4282072639
-0.13289298 0.088667646 0.3950828 4282270018
-0.13238212 0.088751793 0.39545774 4282401352
-0.13174516 0.088751793 0.39545774 4281940801
-0.13119106 0.088807896 0.39570773 4285494143
-0.13063617 0.088863999 0.39595771 4290362825
-0.13008046 0.088920102 0.39620766 4290954442
-0.12944229 0.088920102 0.39620766 4291151821
-0.12884475 0.088948153 0.39633265 4291348682
-0.1282468 0.088976204 0.39645764 4291348682
-0.12768869 0.089032307 0.39670762 4291414978
-0.12704971 0.089032307 0.39670762 4288717465
-0.12645055 0.089060359 0.39683262 4284440661
-0.12593025 0.089144506 0.39720756 4282730043
-0.12529047 0.089144506 0.39720756 4282663230
-0.12484679 0.089284763 0.39783251 4282268472
-0.12447916 0.089481115 0.39870742 4281808948
-0.12492391 0.090266518 0.40220702 4281611569
-0.083630666 0.094866812 0.42270485 4281151788
-0.082949817 0.094866812 0.42270485 4281807159
-0.082268961 0.094866812 0.42270485 4281609780
-0.081419237 0.094670452 0.42182994 4284374115
-0.080620177 0.094530202 0.42120501 4286940042
-0.07994175 0.094530202 0.42120501 4287466386
-0.079263307 0.094530202 0.42120501 4289045418
-0.078538232 0.0944741 0.42095503 4289570729
-0.077860191 0.0944741 0.42095503 4289965487
-0.077182151 0.0944741 0.42095503 4289900207
