# .PCD v0.7 - Point Cloud Data file format
VERSION 0.7
FIELDS x y z rgba
SIZE 4 4 4 4
TYPE F F F U
COUNT 1 1 1 1
WIDTH 1001
HEIGHT 1
VIEWPOINT 0 0 0 1 0 0 0
POINTS 1001
DATA ascii
-0.024259206 -0.053943995 0.56131506 4291280567
-0.023355091 -0.053943995 0.56131506 4291148981
-0.022475971 -0.054004051 0.56193995 4291280567
-0.021594839 -0.05406411 0.56256491 4291148979
-0.020716287 -0.054136176 0.5633148 4291083186
-0.019839719 -0.054220263 0.56418973 4291215285
-0.018930975 -0.054220263 0.56418973 4291346871
-0.018054171 -0.054316353 0.5651896 4291281078
-0.054999106 -0.053039882 0.56131506 4290491051
-0.053986583 -0.052933585 0.56019014 4290425256
-0.052989528 -0.052839104 0.55919027 4290622635
-0.052088834 -0.052839104 0.55919027 4290557355
-0.05107373 -0.052720997 0.55794036 4290425769
-0.050175048 -0.052720997 0.55794036 4290425769
-0.051737983 -0.055354688 0.58581239 4290557355
-0.050794408 -0.055354688 0.58581239 4290623148
-0.049712569 -0.055201154 0.58418757 4290623148
-0.048395965 -0.054775987 0.57968807 4290623150
-0.047462258 -0.054775987 0.57968807 4290491564
-0.04178524 -0.052343074 0.55394083 4291017395
-0.040893007 -0.052343074 0.55394083 4290951602
-0.04000077 -0.052343074 0.55394083 4290951602
-0.039135002 -0.052378505 0.55431581 4291017395
-0.038242165 -0.052378505 0.55431581 4291017395
-0.037425116 -0.052484795 0.55544066 4291083190
-0.036645547 -0.052650139 0.55719048 4291083190
-0.035748072 -0.052650139 0.55719048 4291083190
-0.034881871 -0.052697383 0.55769044 4291148983
-0.034059759 -0.052815482 0.55894029 4291148983
-0.033166885 -0.052827295 0.55906528 4291148983
-0.032273605 -0.052839104 0.55919027 4291280567
-0.031372912 -0.052839104 0.55919027 4291346360
-0.030479033 -0.052850917 0.55931526 4291346360
-0.029591359 -0.052874535 0.55956525 4291346360
-0.028709285 -0.052909963 0.55994016 4291280567
-0.027807387 -0.052909963 0.55994016 4291346360
-0.026917499 -0.052933585 0.56019014 4291412153
-0.026026802 -0.052957207 0.56044012 4291280567
-0.02514651 -0.053004447 0.56094009 4291280567
-0.024259206 -0.053039882 0.56131506 4291346360
-0.023355091 -0.053039882 0.56131506 4291280567
-0.022475971 -0.053098928 0.56193995 4291346360
-0.021594839 -0.053157981 0.56256491 4291215285
-0.020716287 -0.05322884 0.5633148 4291215285
-0.019839719 -0.053311516 0.56418973 4291215285
-0.018930975 -0.053311516 0.56418973 4291281078
-0.018054171 -0.053405993 0.5651896 4291215285
-0.056718785 -0.052054502 0.56044012 4290227877
-0.055816084 -0.052054502 0.56044012 4290425256
-0.054888882 -0.052031286 0.56019014 4290425256
-0.053950444 -0.051996455 0.55981517 4290425256
-0.052942153 -0.051891979 0.55869031 4290491049
-0.052042264 -0.051891979 0.55869031 4290688428
-0.051027969 -0.051775891 0.55744046 4290688428
-0.050130092 -0.051775891 0.55744046 4290623148
-0.051163975 -0.053807452 0.5793131 4290754734
-0.050230868 -0.053807452 0.5793131 4290623920
-0.049191408 -0.053691365 0.57806325 4290492334
-0.047926407 -0.053319879 0.57406366 4290754736
-0.047001757 -0.053319879 0.57406366 4290754736
-0.045655765 -0.052832302 0.56881422 4290754736
-0.044739567 -0.052832302 0.56881422 4290886322
-0.04178524 -0.051450841 0.55394083 4291017908
-0.040893007 -0.051450841 0.55394083 4290952115
-0.04000077 -0.051450841 0.55394083 4290952115
-0.039135002 -0.051485669 0.55431581 4290952115
-0.038242165 -0.051485669 0.55431581 4291017908
-0.03740827 -0.051566929 0.55519068 4291083190
-0.036596224 -0.051683016 0.55644053 4291083190
-0.03569996 -0.051683016 0.55644053 4291280569
-0.034850601 -0.051752672 0.55719048 4291280569
-0.033998828 -0.051822323 0.55794036 4291280569
-0.033122394 -0.051857151 0.55831534 4291280569
-0.032244749 -0.051891979 0.55869031 4291148983
-0.031344865 -0.051891979 0.55869031 4291412155
-0.030458599 -0.051915195 0.55894029 4291412155
-0.02957814 -0.051950026 0.55931526 4291346362
-0.028690062 -0.051973242 0.55956525 4291346362
-0.027788768 -0.051973242 0.55956525 4291412155
-0.026905486 -0.052008066 0.55994016 4291412155
-0.026015194 -0.052031286 0.56019014 4291412155
-0.0251297 -0.052066114 0.56056511 4291346875
-0.024248403 -0.05211255 0.56106508 4291346875
-0.02334469 -0.05211255 0.56106508 4291346873
-0.022460973 -0.052158982 0.56156498 4291281080
-0.021580447 -0.052217029 0.56218994 4291281080
-0.0207025 -0.052286685 0.56293988 4291346873
-0.019826533 -0.052367944 0.56381476 4291346873
-0.018918393 -0.052367944 0.56381476 4291346873
-0.018046185 -0.052472424 0.56493962 4291346873
-0.017174145 -0.052588515 0.56618953 4291346873
-0.016290898 -0.052681386 0.5671894 4291412151
-0.058684729 -0.050512969 0.55344087 4290227877
-0.057793297 -0.050512969 0.55344087 4290359463
-0.056693487 -0.05112898 0.56019014 4290425256
-0.055791188 -0.05112898 0.56019014 4290491049
-0.054888882 -0.05112898 0.56019014 4290491049
-0.053878177 -0.051026314 0.55906528 4290491049
-0.052823715 -0.050878014 0.55744046 4290556842
-0.051925838 -0.050878014 0.55744046 4290688428
-0.050993644 -0.05084379 0.55706549 4290820014
-0.05009637 -0.05084379 0.55706549 4290754736
-0.04945299 -0.051106162 0.55994016 4290820529
-0.04898458 -0.051562469 0.56493962 4290754736
-0.048457526 -0.051973145 0.56943917 4290820529
-0.047592498 -0.052030187 0.57006413 4290886322
-0.046674293 -0.052030187 0.57006413 4290886322
-0.04514413 -0.051334318 0.56243992 4290820529
-0.044238202 -0.051334318 0.56243992 4290952115
-0.042937472 -0.050866608 0.55731547 4291017908
-0.041822955 -0.050604232 0.5544408 4291017908
-0.040929917 -0.050604232 0.5544408 4291017908
-0.040036872 -0.050604232 0.5544408 4291017908
-0.039143827 -0.050604232 0.5544408 4290952115
-0.038250789 -0.050604232 0.5544408 4290952115
-0.037357744 -0.050604232 0.5544408 4290952117
-0.036514021 -0.050672676 0.55519068 4291083703
-0.035619769 -0.050672676 0.55519068 4291215289
-0.034788061 -0.050763939 0.55619061 4291281082
-0.03395313 -0.050855197 0.55719048 4291281082
-0.033077907 -0.050889421 0.55756545 4291215289
-0.032208681 -0.050935049 0.55806535 4291215289
-0.031309802 -0.050935049 0.55806535 4291346875
-0.030431354 -0.050969273 0.55844033 4291346875
-0.02955831 -0.051014904 0.55894029 4291281082
-0.028670838 -0.051037721 0.55919027 4291346875
-0.027770145 -0.051037721 0.55919027 4291346875
-0.026893474 -0.051083349 0.55969018 4291412668
-0.026003584 -0.051106162 0.55994016 4291478461
-0.025118494 -0.051140387 0.56031513 4291346875
-0.024232196 -0.051174611 0.5606901 4291346875
-0.023329088 -0.051174611 0.5606901 4291346875
-0.022445979 -0.051220246 0.56119007 4291412668
-0.021566052 -0.05127728 0.56181496 4291346875
-0.020693308 -0.051357135 0.5626899 4291346875
-0.019813348 -0.051425576 0.56343979 4291346873
-0.018905811 -0.051425576 0.56343979 4291346873
-0.018034209 -0.051528249 0.5645647 4291412666
-0.017166562 -0.051653732 0.56593955 4291544252
-0.016280128 -0.051733583 0.56681442 4291609532
-0.015387487 -0.051802032 0.56756437 4291477946
-0.014473307 -0.051802032 0.56756437 4291346358
-0.013577043 -0.05187048 0.56831431 4291412151
-0.062956512 -0.049475856 0.55181605 4289965218
-0.062067699 -0.049475856 0.55181605 4290096804
-0.061220456 -0.049509477 0.55219102 4290096804
-0.060385663 -0.049554303 0.55269098 4290294183
-0.059522346 -0.049576711 0.55294091 4290359976
-0.058631714 -0.049576711 0.55294091 4290359976
-0.057780243 -0.049610332 0.55331588 4290425769
-0.056927569 -0.049643952 0.55369085 4290425769
-0.056174874 -0.049767222 0.55506569 4290491562
-0.055280827 -0.049767222 0.55506569 4290622635
-0.05454598 -0.049912903 0.55669051 4290556842
-0.053685453 -0.049946524 0.55706549 4290556842
-0.052776337 -0.049935315 0.5569405 4290622635
-0.051879268 -0.049935315 0.5569405 4290820014
-0.0509822 -0.049935315 0.5569405 4290885807
-0.05009637 -0.049946524 0.55706549 4290885809
-0.04922118 -0.049968936 0.55731547 4290951602
-0.048442718 -0.050092205 0.55869031 4290754736
-0.047691736 -0.050249092 0.56044012 4290820529
-0.046789028 -0.050249092 0.56044012 4290886322
-0.04590679 -0.050271507 0.5606901 4290952115
-0.045023747 -0.050293919 0.56094009 4290952115
-0.043766327 -0.049890488 0.55644053 4291017908
-0.042716 -0.049711194 0.5544408 4291017908
-0.041756958 -0.049632747 0.55356586 4291017908
-0.040865324 -0.049632747 0.55356586 4291017908
-0.039964665 -0.049621541 0.55344087 4291083701
-0.039073233 -0.049621541 0.55344087 4291083703
-0.038199048 -0.049643952 0.55369085 4291017910
-0.037307214 -0.049643952 0.55369085 4291017910
-0.036456484 -0.049699984 0.55431581 4291215289
-0.03556364 -0.049699984 0.55431581 4291215289
-0.034717701 -0.049767222 0.55506569 4291346875
-0.033869352 -0.04983446 0.55581564 4291281082
-0.033025999 -0.049912903 0.55669051 4291281082
-0.032158189 -0.04995773 0.55719048 4291281082
-0.031260718 -0.04995773 0.55719048 4291412668
-0.030397302 -0.050013762 0.55781543 4291346875
-0.029525261 -0.050058585 0.55831534 4291412668
-0.028651612 -0.050103411 0.5588153 4291346875
-0.027751524 -0.050103411 0.5588153 4291346875
-0.026875461 -0.050148237 0.55931526 4291412414
-0.025991974 -0.050181851 0.55969018 4291478207
-0.025112892 -0.050226681 0.56019014 4291412668
-0.024226794 -0.050260298 0.56056511 4291412668
-0.023323888 -0.050260298 0.56056511 4291412668
-0.022440979 -0.050305128 0.56106508 4291544254
-0.021561254 -0.050361153 0.56168997 4291412668
-0.020679517 -0.050417189 0.56231493 4291412668
-0.019773792 -0.050417189 0.56231493 4291412668
-0.018897424 -0.050495628 0.5631898 4291412668
-0.01802223 -0.050585281 0.56418973 4291478461
-0.017147606 -0.05068614 0.56531459 4291544254
-0.016262179 -0.050764583 0.56618953 4291741120
-0.015350213 -0.050764583 0.56618953 4291543741
-0.014460557 -0.050843026 0.5670644 4291477946
-0.013562112 -0.050899059 0.56768936 4291477946
-0.012658869 -0.050943885 0.56818932 4291477946
-0.011751431 -0.050977502 0.56856424 4291477946
-0.01083564 -0.050977502 0.56856424 4291346873
-0.0099263908 -0.051011123 0.56893921 4291215287
-0.062956512 -0.048587043 0.55181605 4290030500
-0.062067699 -0.048587043 0.55181605 4290096804
-0.061220456 -0.048620056 0.55219102 4290294183
-0.060385663 -0.048664078 0.55269098 4290359976
-0.059522346 -0.048686083 0.55294091 4290359976
-0.058631714 -0.048686083 0.55294091 4290359976
-0.057780243 -0.048719101 0.55331588 4290425769
-0.056927569 -0.048752118 0.55369085 4290557355
-0.056174874 -0.048873171 0.55506569 4290754734
-0.055280827 -0.048873171 0.55506569 4290623148
-0.05454598 -0.049016234 0.55669051 4290557355
-0.053685453 -0.049049251 0.55706549 4290688428
-0.052776337 -0.049038246 0.5569405 4290688428
-0.051879268 -0.049038246 0.5569405 4290885807
-0.0509822 -0.049038246 0.5569405 4290885807
-0.050107609 -0.049060255 0.55719048 4290951602
-0.04922118 -0.049071264 0.55731547 4291017395
-0.048442718 -0.049192317 0.55869031 4290885809
-0.047691736 -0.049346387 0.56044012 4290885809
-0.046789028 -0.049346387 0.56044012 4290886322
-0.04590679 -0.049368396 0.5606901 4291017908
-0.045023747 -0.049390405 0.56094009 4291017908
-0.043766327 -0.048994225 0.55644053 4291083701
-0.042716 -0.048818149 0.5544408 4291083701
-0.041756958 -0.04874111 0.55356586 4291083701
-0.040865324 -0.04874111 0.55356586 4291017908
-0.039964665 -0.048730105 0.55344087 4291215287
-0.039073233 -0.048730105 0.55344087 4291215289
-0.038199048 -0.048752118 0.55369085 4291083703
-0.037307214 -0.048752118 0.55369085 4291215289
-0.036456484 -0.048807144 0.55431581 4291215289
-0.03556364 -0.048807144 0.55431581 4291215289
-0.034717701 -0.048873171 0.55506569 4291346875
-0.033869352 -0.048939202 0.55581564 4291346875
-0.033025999 -0.049016234 0.55669051 4291346875
-0.032158189 -0.049060255 0.55719048 4291412668
-0.031260718 -0.049060255 0.55719048 4291412668
-0.030397302 -0.049115282 0.55781543 4291478461
-0.029525261 -0.0491593 0.55831534 4291478461
-0.028651612 -0.049203321 0.5588153 4291412668
-0.027751524 -0.049203321 0.5588153 4291412668
-0.026875461 -0.049247343 0.55931526 4291412414
-0.025991974 -0.049280353 0.55969018 4291412414
-0.025112892 -0.049324375 0.56019014 4291478207
-0.024226794 -0.049357392 0.56056511 4291478207
-0.023323888 -0.049357392 0.56056511 4291478461
-0.022440979 -0.049401414 0.56106508 4291544254
-0.021561254 -0.049456432 0.56168997 4291478461
-0.020679517 -0.049511462 0.56231493 4291478461
-0.019773792 -0.049511462 0.56231493 4291544254
-0.018897424 -0.049588494 0.5631898 4291478461
-0.01802223 -0.049676538 0.56418973 4291478461
-0.017147606 -0.049775578 0.56531459 4291478461
-0.016262179 -0.049852617 0.56618953 4291675840
-0.015350213 -0.049852617 0.56618953 4291544254
-0.014460557 -0.049929649 0.5670644 4291478461
-0.013562112 -0.049984675 0.56768936 4291478461
-0.012658869 -0.050028697 0.56818932 4291412666
-0.011751431 -0.05006171 0.56856424 4291478459
-0.01083564 -0.05006171 0.56856424 4291675838
-0.0099263908 -0.050094724 0.56893921 4291478459
-0.065548636 -0.047644209 0.55119109 4289964709
-0.064660825 -0.047644209 0.55119109 4290096295
-0.063787483 -0.047655012 0.55131608 4290227881
-0.06289947 -0.047655012 0.55131608 4290359467
-0.062025521 -0.047665816 0.55144107 4290359465
-0.061206602 -0.047719836 0.55206603 4290425258
-0.060358349 -0.04775225 0.552441 4290359976
-0.059522346 -0.04779546 0.55294091 4290359976
-0.058631714 -0.04779546 0.55294091 4290425771
-0.057767194 -0.04781707 0.55319089 4290491564
-0.056876164 -0.04781707 0.55319089 4290557357
-0.055985134 -0.04781707 0.55319089 4290754736
-0.055094108 -0.04781707 0.55319089 4290623150
-0.054350033 -0.04794671 0.55469072 4290754736
-0.053528868 -0.048011538 0.55544066 4290688430
-0.052669745 -0.048043948 0.55581564 4290820016
-0.051797774 -0.048065558 0.55606562 4290885809
-0.050902113 -0.048065558 0.55606562 4290885809
-0.050017696 -0.048076361 0.55619061 4291017395
-0.049121834 -0.048076361 0.55619061 4291017395
-0.048225973 -0.048076361 0.55619061 4291017395
-0.047330115 -0.048076361 0.55619061 4290885809
-0.046413384 -0.048054751 0.55594063 4291017395
-0.045497455 -0.048033144 0.55569065 4291083188
-0.044602402 -0.048033144 0.55569065 4291083188
-0.043589376 -0.0479035 0.55419081 4291148981
-0.042581189 -0.047773857 0.55269098 4291280567
-0.041587248 -0.047655012 0.55131608 4291148981
-0.040699244 -0.047655012 0.55131608 4291148983
-0.039811231 -0.047655012 0.55131608 4291148983
-0.038940869 -0.047676619 0.55156606 4291215289
-0.038069706 -0.04769823 0.55181605 4291215289
-0.037206154 -0.04773064 0.55219102 4291215289
-0.036316741 -0.04773064 0.55219102 4291281082
-0.035467412 -0.047784656 0.55281591 4291281082
-0.03463171 -0.047860283 0.55369085 4291281082
-0.033800807 -0.04794671 0.55469072 4291281082
-0.032959267 -0.048022341 0.55556566 4291412668
-0.032064412 -0.048022341 0.55556566 4291412668
-0.03121163 -0.048087161 0.55631554 4291412668
-0.030349623 -0.048141178 0.5569405 4291478461
-0.029492214 -0.048206005 0.55769044 4291478461
-0.028619569 -0.048249215 0.55819035 4291412668
-0.027720489 -0.048249215 0.55819035 4291412668
-0.026851436 -0.048303235 0.5588153 4291412668
-0.025974564 -0.048346452 0.55931526 4291412668
-0.025096081 -0.048389662 0.55981517 4291478461
-0.024215991 -0.048432879 0.56031513 4291544254
-0.023313487 -0.048432879 0.56031513 4291478461
-0.022430981 -0.048476096 0.5608151 4291544254
-0.021542065 -0.048508506 0.56119007 4291544254
-0.020665728 -0.048573326 0.56193995 4291675840
-0.019760607 -0.048573326 0.56193995 4291741633
-0.018880649 -0.04863815 0.5626899 4291544254
-0.017998274 -0.04870297 0.56343979 4291544254
-0.017117277 -0.048778597 0.56431472 4291741633
-0.016229868 -0.048843417 0.56506461 4291675840
-0.015319714 -0.048843417 0.56506461 4291544254
-0.014444622 -0.048962262 0.56643951 4291544254
-0.013547182 -0.049016278 0.5670644 4291675840
-0.01264216 -0.049048688 0.56743938 4291544254
-0.011738515 -0.049091905 0.56793934 4291675840
-0.010823731 -0.049091905 0.56793934 4291741633
-0.0099133076 -0.049113512 0.56818932 4291544254
-0.0090040574 -0.049145918 0.56856424 4291413436
-0.068490475 -0.046947245 0.55344087 4289702050
-0.067599051 -0.046947245 0.55344087 4289833636
-0.066466577 -0.046777606 0.55144107 4290031015
-0.065533772 -0.046745796 0.5510661 4290162088
-0.064631507 -0.046735197 0.55094117 4290227881
-0.063744105 -0.046735197 0.55094117 4290491053
-0.062856697 -0.046735197 0.55094117 4290556846
-0.061983343 -0.046745796 0.5510661 4290425258
-0.061151169 -0.046788208 0.55156606 4290425258
-0.060317382 -0.046830617 0.55206603 4290359978
-0.05946853 -0.046862427 0.552441 4290425771
-0.058578707 -0.046862427 0.552441 4290425771
-0.05775414 -0.046915434 0.5530659 4290491564
-0.056863315 -0.046915434 0.5530659 4290557357
-0.055972487 -0.046915434 0.5530659 4290623150
-0.055069212 -0.046904832 0.55294091 4290754736
-0.054178584 -0.046904832 0.55294091 4290754736
-0.053420462 -0.047021464 0.55431581 4290688430
-0.052586835 -0.047074471 0.5549407 4290820016
-0.051727913 -0.047106277 0.55531567 4290885809
-0.050833464 -0.047106277 0.55531567 4290885809
-0.04993901 -0.047106277 0.55531567 4291017395
-0.048967294 -0.047032066 0.5544408 4291017395
-0.048074253 -0.047032066 0.5544408 4291411639
-0.047096122 -0.046947245 0.55344087 4291148467
-0.046152513 -0.04689423 0.55281591 4291017395
-0.045159753 -0.046788208 0.55156606 4291083188
-0.044271342 -0.046788208 0.55156606 4291083188
-0.043284625 -0.046682186 0.55031621 4291148981
-0.042301934 -0.046576165 0.54906636 4291280569
-0.041417547 -0.046576165 0.54906636 4291148983
-0.04054239 -0.046586767 0.54919136 4291280569
-0.039657801 -0.046586767 0.54919136 4291280569
-0.038790859 -0.046607967 0.54944128 4291280569
-0.037940364 -0.046650376 0.54994124 4291280569
-0.037096675 -0.046703391 0.5505662 4291281082
-0.036209878 -0.046703391 0.5505662 4291281082
-0.035371184 -0.046767 0.55131608 4291281082
-0.034553535 -0.046862427 0.552441 4291281082
-0.033724643 -0.046947245 0.55344087 4291346875
-0.032885119 -0.047021464 0.55431581 4291478461
-0.031992275 -0.047021464 0.55431581 4291412668
-0.031148519 -0.047095675 0.55519068 4291478461
-0.030295137 -0.047159292 0.55594063 4291478461
-0.029439336 -0.047222905 0.55669051 4291478461
-0.028581122 -0.047286522 0.55744046 4291478461
-0.027683247 -0.047286522 0.55744046 4291478461
-0.026815401 -0.047339529 0.55806535 4291478461
-0.025945541 -0.047392543 0.55869031 4291478461
-0.025073672 -0.047445554 0.55931526 4291478461
-0.024194382 -0.047487963 0.55981517 4291544254
-0.023292685 -0.047487963 0.55981517 4291544254
-0.022410983 -0.047530372 0.56031513 4291675840
-0.02152767 -0.047572784 0.5608151 4291544254
-0.020642746 -0.047615193 0.56131506 4291544254
-0.019738631 -0.047615193 0.56131506 4291675840
-0.018855486 -0.047668204 0.56193995 4291544254
-0.017966336 -0.047710612 0.56243992 4291675840
-0.017098321 -0.047816638 0.56368977 4291807426
-0.01620833 -0.047869649 0.56431472 4291806913
-0.015299384 -0.047869649 0.56431472 4291741120
-0.014400001 -0.047901459 0.5646897 4291675840
-0.013502393 -0.047943864 0.5651896 4291675840
-0.012603176 -0.047986273 0.56568956 4291675840
-0.011707515 -0.04804989 0.56643951 4291807426
-0.010795147 -0.04804989 0.56643951 4291807426
-0.0098871384 -0.04807109 0.56668943 4291675840
-0.0089585334 -0.047986273 0.56568956 4291544252
-0.0080473721 -0.047986273 0.56568956 4291478459
-0.0071157143 -0.047848444 0.56406474 4291412666
-0.0062030442 -0.047816638 0.56368977 4291478459
-0.0052951048 -0.047816638 0.56368977 4291347643
-0.073318362 -0.047449548 0.57018906 4289504671
-0.071447745 -0.046825487 0.5626899 4289965222
-0.070541412 -0.046825487 0.5626899 4289833636
-0.068490475 -0.046055809 0.55344087 4289899429
-0.067599051 -0.046055809 0.55344087 4290031015
-0.066451512 -0.045878991 0.55131608 4290162601
-0.065489188 -0.04582699 0.55069119 4290359467
-0.064602181 -0.04582699 0.55069119 4290359467
-0.063715182 -0.04582699 0.55069119 4290622125
-0.062799655 -0.045806184 0.55044121 4290753711
-0.061913058 -0.045806184 0.55044121 4290491051
-0.061095741 -0.045858189 0.5510661 4290556844
-0.060249101 -0.045889392 0.55144107 4290556844
-0.059360892 -0.045889392 0.55144107 4290491051
-0.058552202 -0.045951802 0.55219102 4290556844
-0.057662781 -0.045951802 0.55219102 4290622637
-0.056773365 -0.045951802 0.55219102 4290688430
-0.055883944 -0.045951802 0.55219102 4290688430
-0.054994527 -0.045951802 0.55219102 4290820016
-0.054105107 -0.045951802 0.55219102 4290820016
-0.053275913 -0.046003804 0.55281591 4290885811
-0.052492086 -0.046097416 0.55394083 4290885811
-0.051599845 -0.046097416 0.55394083 4290885811
-0.050753377 -0.04613902 0.5544408 4290951604
-0.049849093 -0.046128619 0.55431581 4291017395
-0.048856907 -0.046035007 0.55319089 4290951602
-0.047965873 -0.046035007 0.55319089 4291148981
-0.046979126 -0.045941398 0.55206603 4290951602
-0.045985561 -0.045837391 0.55081618 4291017395
-0.045098357 -0.045837391 0.55081618 4291346360
-0.044080738 -0.045702178 0.54919136 4291148983
-0.043078177 -0.045577358 0.54769146 4291148983
-0.042176753 -0.045556564 0.54744154 4291280569
-0.041294985 -0.045556564 0.54744154 4291148983
-0.040394764 -0.045535758 0.54719156 4291280569
-0.039513394 -0.045535758 0.54719156 4291280569
-0.038684972 -0.045598164 0.54794145 4291280315
-0.037854139 -0.04566057 0.54869139 4291346108
-0.037029304 -0.045733377 0.54956627 4291346108
-0.036144115 -0.045733377 0.54956627 4291411901
-0.035315055 -0.045806184 0.55044121 4291280828
-0.034483176 -0.045878991 0.55131608 4291280828
-0.033648483 -0.045951802 0.55219102 4291346875
-0.032810967 -0.046024606 0.5530659 4291412668
-0.031920139 -0.046024606 0.5530659 4291412668
-0.031085411 -0.046107817 0.55406582 4291478461
-0.030240647 -0.046180621 0.5549407 4291478461
-0.029386459 -0.046243031 0.55569065 4291478461
-0.028529853 -0.046305433 0.55644053 4291478461
-0.027633591 -0.046305433 0.55644053 4291478461
-0.026773361 -0.046367843 0.55719048 4291543741
-0.025910715 -0.046430245 0.55794036 4291609534
-0.025045654 -0.046492655 0.55869031 4291543741
-0.024178179 -0.046555061 0.55944026 4291609534
-0.023277085 -0.046555061 0.55944026 4291544254
-0.022395985 -0.046596661 0.55994016 4291675840
-0.021508479 -0.046627868 0.56031513 4291544254
-0.020619763 -0.046659071 0.5606901 4291675840
-0.019716656 -0.046659071 0.5606901 4291544254
-0.018830324 -0.046700675 0.56119007 4291544254
-0.017946372 -0.04675268 0.56181496 4291675840
-0.017052826 -0.046783883 0.56218994 4291741633
-0.016158072 -0.046815086 0.56256491 4291806913
-0.015251944 -0.046815086 0.56256491 4291806913
-0.014352191 -0.046835888 0.56281489 4291741633
-0.013448647 -0.046846293 0.56293988 4291807426
-0.012547483 -0.046867087 0.5631898 4291807424
-0.011640348 -0.046867087 0.5631898 4291873217
-0.010745125 -0.046919096 0.56381476 4291938497
-0.0098413453 -0.046939898 0.56406474 4291741118
-0.0089308219 -0.046929497 0.56393975 4291609532
-0.0080224797 -0.046929497 0.56393975 4291609532
-0.0071109841 -0.046908695 0.56368977 4291544252
-0.0062030442 -0.046908695 0.56368977 4291675838
-0.0052951048 -0.046908695 0.56368977 4291544252
-0.0043891105 -0.046929497 0.56393975 4291741631
-0.0034807685 -0.046929497 0.56393975 4291675838
-0.0025747065 -0.046971101 0.56443971 4291478459
-0.074204221 -0.046510745 0.56993914 4289636255
-0.073189795 -0.046449546 0.56918919 4289767330
-0.071447745 -0.045919161 0.5626899 4290030502
-0.070416056 -0.045837563 0.56168997 4290096295
-0.068505943 -0.04517458 0.55356586 4290162088
-0.067614317 -0.04517458 0.55356586 4290162088
-0.06643644 -0.044980783 0.55119109 4290359467
-0.065474324 -0.044929788 0.5505662 4290359467
-0.06454353 -0.044899188 0.55019122 4290425260
-0.063657336 -0.044899188 0.55019122 4290622125
-0.062742621 -0.044878788 0.54994124 4290687918
-0.061856821 -0.044878788 0.54994124 4290753711
-0.060998745 -0.044899188 0.55019122 4290687918
-0.060194481 -0.044960387 0.55094117 4290556846
-0.05930708 -0.044960387 0.55094117 4290556846
-0.058419671 -0.044960387 0.55094117 4290622637
-0.057506159 -0.044939987 0.55069119 4290688430
-0.056606308 -0.044929788 0.5505662 4290688432
-0.055719506 -0.044929788 0.5505662 4290688432
-0.054832708 -0.044929788 0.5505662 4290820018
-0.053945903 -0.044929788 0.5505662 4290820018
-0.053167511 -0.045021582 0.55169106 4290820018
-0.052385487 -0.045113381 0.55281591 4290820018
-0.05149506 -0.045113381 0.55281591 4290951604
-0.050638963 -0.045143981 0.55319089 4291017397
-0.049725451 -0.045123581 0.55294091 4291083190
-0.048834827 -0.045123581 0.55294091 4291017397
-0.047857504 -0.045041986 0.55194104 4291083188
-0.046862133 -0.044939987 0.55069119 4291083188
-0.045829043 -0.044797193 0.54894137 4291083190
-0.044944856 -0.044797193 0.54894137 4291280569
-0.043970384 -0.044705391 0.54781646 4291280569
-0.043019194 -0.044633996 0.54694158 4291280569
-0.042138234 -0.044633996 0.54694158 4291280569
-0.04125727 -0.044633996 0.54694158 4291280569
-0.040367082 -0.044623796 0.54681659 4291280569
-0.039486319 -0.044623796 0.54681659 4291346362
-0.038632028 -0.044654395 0.54719156 4291346108
-0.037785154 -0.044695191 0.54769146 4291411901
-0.036961932 -0.044766594 0.5485664 4291411901
-0.036078352 -0.044766594 0.5485664 4291411901
-0.035242882 -0.044827789 0.54931629 4291346621
-0.034412816 -0.044899188 0.55019122 4291280828
-0.033579934 -0.044970583 0.5510661 4291346875
-0.032744233 -0.045041986 0.55194104 4291412668
-0.031855218 -0.045041986 0.55194104 4291412668
-0.031015286 -0.045113381 0.55281591 4291478461
-0.030165728 -0.04517458 0.55356586 4291478461
-0.029307144 -0.045225579 0.55419081 4291478461
-0.028414505 -0.045225579 0.55419081 4291478461
-0.027559105 -0.045286775 0.5549407 4291478461
-0.026701294 -0.045347977 0.55569065 4291543741
-0.025841061 -0.045409173 0.55644053 4291609534
-0.024978418 -0.045470372 0.55719048 4291609534
-0.024080947 -0.045470372 0.55719048 4291543741
-0.023214677 -0.045531567 0.55794036 4291478461
-0.022335997 -0.04557237 0.55844033 4291544254
-0.021460501 -0.04562337 0.55906528 4291544254
-0.020578396 -0.045664169 0.55956525 4291675840
-0.019677099 -0.045664169 0.55956525 4291544254
-0.018792577 -0.045704965 0.56006515 4291675840
-0.017902454 -0.045735564 0.56044012 4291741633
-0.017007332 -0.045755964 0.5606901 4291741633
-0.016107813 -0.045766164 0.5608151 4291741633
-0.015204504 -0.045766164 0.5608151 4291807426
-0.014304383 -0.045776367 0.56094009 4291741633
-0.013400872 -0.045776367 0.56094009 4291807426
-0.01250293 -0.045796767 0.56119007 4291873217
-0.011599017 -0.045796767 0.56119007 4291873217
-0.010699867 -0.045817159 0.56143999 4291807424
-0.0098020928 -0.045847762 0.56181496 4291675838
-0.0089031113 -0.045878362 0.56218994 4291675838
-0.0080011431 -0.045898762 0.56243992 4291741631
-0.0070952172 -0.045898762 0.56243992 4291741631
-0.006190666 -0.045908961 0.56256491 4291807424
-0.0052927569 -0.045980357 0.56343979 4291741631
-0.0043881377 -0.046010956 0.56381476 4291807424
-0.0034799969 -0.046010956 0.56381476 4291741631
-0.0025735663 -0.046041559 0.56418973 4291675838
-0.001665559 -0.046061959 0.56443971 4291543739
-0.074204221 -0.04559274 0.56993914 4289898914
-0.073189795 -0.045532748 0.56918919 4289964709
-0.072272994 -0.045532748 0.56918919 4290030502
-0.070416056 -0.044932842 0.56168997 4290162088
-0.06852141 -0.044292945 0.55369085 4290227881
-0.067629583 -0.044292945 0.55369085 4290227881
-0.06643644 -0.044092976 0.55119109 4290425260
-0.065474324 -0.044042986 0.5505662 4290490539
-0.06454353 -0.04401299 0.55019122 4290556332
-0.063657336 -0.04401299 0.55019122 4290622125
-0.062742621 -0.043992992 0.54994124 4290687918
-0.061856821 -0.043992992 0.54994124 4290687918
-0.060998745 -0.04401299 0.55019122 4290687918
-0.060194481 -0.044072982 0.55094117 4290753711
-0.05930708 -0.044072982 0.55094117 4290753711
-0.058419671 -0.044072982 0.55094117 4290753711
-0.057506159 -0.044052985 0.55069119 4290819504
-0.056606308 -0.044042986 0.5505662 4290820018
-0.055719506 -0.044042986 0.5505662 4290688432
-0.054832708 -0.044042986 0.5505662 4290820018
-0.053945903 -0.044042986 0.5505662 4290820018
-0.053167511 -0.04413297 0.55169106 4290819764
-0.052385487 -0.044222955 0.55281591 4290819764
-0.05149506 -0.044222955 0.55281591 4290951604
-0.050638963 -0.044252951 0.55319089 4291083190
-0.049725451 -0.044232953 0.55294091 4291083190
-0.048834827 -0.044232953 0.55294091 4291017397
-0.047857504 -0.044152968 0.55194104 4291083190
-0.046862133 -0.044052985 0.55069119 4291148983
-0.045829043 -0.043913007 0.54894137 4291148983
-0.044944856 -0.043913007 0.54894137 4291280569
-0.043970384 -0.043823019 0.54781646 4291148983
-0.043019194 -0.043753032 0.54694158 4291148983
-0.042138234 -0.043753032 0.54694158 4291346362
-0.04125727 -0.043753032 0.54694158 4291346362
-0.040367082 -0.043743033 0.54681659 4291281082
-0.039486319 -0.043743033 0.54681659 4291281082
-0.038632028 -0.043773029 0.54719156 4291280828
-0.037785154 -0.04381302 0.54769146 4291280828
-0.036961932 -0.043883011 0.5485664 4291346621
-0.036078352 -0.043883011 0.5485664 4291346621
-0.035242882 -0.043942999 0.54931629 4291346875
-0.034412816 -0.04401299 0.55019122 4291346875
-0.033579934 -0.044082977 0.5510661 4291346875
-0.032744233 -0.044152968 0.55194104 4291346875
-0.031855218 -0.044152968 0.55194104 4291412668
-0.031015286 -0.044222955 0.55281591 4291478461
-0.030165728 -0.044282947 0.55356586 4291412668
-0.029307144 -0.04433294 0.55419081 4291478461
-0.028414505 -0.04433294 0.55419081 4291412668
-0.027559105 -0.044392928 0.5549407 4291478461
-0.026701294 -0.044452921 0.55569065 4291543741
-0.025841061 -0.044512909 0.55644053 4291543741
-0.024978418 -0.044572901 0.55719048 4291543741
-0.024080947 -0.044572901 0.55719048 4291543741
-0.023214677 -0.044632889 0.55794036 4291478461
-0.022335997 -0.044672884 0.55844033 4291478461
-0.021460501 -0.044722877 0.55906528 4291478461
-0.020578396 -0.044762872 0.55956525 4291478461
-0.019677099 -0.044762872 0.55956525 4291544254
-0.018792577 -0.044802863 0.56006515 4291741633
-0.017902454 -0.044832859 0.56044012 4291741633
-0.017007332 -0.044852857 0.5606901 4291741633
-0.016107813 -0.044862855 0.5608151 4291741633
-0.015204504 -0.044862855 0.5608151 4291807426
-0.014304383 -0.044872854 0.56094009 4291741633
-0.013400872 -0.044872854 0.56094009 4291807426
-0.01250293 -0.044892851 0.56119007 4291873219
-0.011599017 -0.044892851 0.56119007 4291873219
-0.010699867 -0.044912845 0.56143999 4291807426
-0.0098020928 -0.044942841 0.56181496 4291741633
-0.0089031113 -0.044972837 0.56218994 4291741631
-0.0080011431 -0.044992834 0.56243992 4291807424
-0.0070952172 -0.044992834 0.56243992 4291873217
-0.006190666 -0.045002833 0.56256491 4291873217
-0.0052927569 -0.04507282 0.56343979 4291741631
-0.0043881377 -0.045102816 0.56381476 4291807424
-0.0034799969 -0.045102816 0.56381476 4291872704
-0.0025735663 -0.045132812 0.56418973 4291806911
-0.001665559 -0.045152809 0.56443971 4291741118
-0.076823227 -0.044596355 0.56893921 4289241495
-0.075906828 -0.044596355 0.56893921 4289636253
-0.075089283 -0.04465514 0.56968915 4289898914
-0.074074037 -0.044596355 0.56893921 4289964707
-0.072964787 -0.044478793 0.56743938 4290030502
-0.07205081 -0.044478793 0.56743938 4290096295
-0.070322044 -0.043969344 0.56094009 4290162088
-0.068490475 -0.043381516 0.55344087 4290227881
-0.067599051 -0.043381516 0.55344087 4290227881
-0.066391252 -0.043175779 0.55081618 4290425260
-0.065400004 -0.0431072 0.54994124 4290490539
-0.06439691 -0.043028824 0.54894137 4290556332
-0.063512728 -0.043028824 0.54894137 4290622125
-0.062628545 -0.043028824 0.54894137 4290687918
-0.061758418 -0.043038622 0.54906636 4290687918
-0.060887892 -0.043048419 0.54919136 4290753711
-0.060071576 -0.043097403 0.54981625 4290819504
-0.059185985 -0.043097403 0.54981625 4290687918
-0.058300391 -0.043097403 0.54981625 4290753711
-0.057414796 -0.043097403 0.54981625 4290951090
-0.056529202 -0.043097403 0.54981625 4290820018
-0.055555068 -0.043028824 0.54894137 4290688432
-0.054645989 -0.043009229 0.54869139 4290820018
-0.053762205 -0.043009229 0.54869139 4290820018
-0.053010922 -0.043116998 0.55006623 4290820018
-0.052243363 -0.043214966 0.55131608 4290885811
-0.051355351 -0.043214966 0.55131608 4290951604
-0.050478786 -0.043224763 0.55144107 4291017397
-0.049523138 -0.043165985 0.55069119 4291083190
-0.048636135 -0.043165985 0.55069119 4291017397
-0.047673266 -0.043097403 0.54981625 4291017397
-0.04670259 -0.043019027 0.54881638 4291148983
-0.045745563 -0.042950444 0.54794145 4291148983
-0.044862986 -0.042950444 0.54794145 4291148983
-0.043900158 -0.042872071 0.54694158 4291148983
-0.042989701 -0.042842679 0.54656661 4291148983
-0.042099714 -0.042832881 0.54644161 4291346362
-0.041219555 -0.042832881 0.54644161 4291280569
-0.040330172 -0.042823084 0.54631662 4291346362
-0.039450213 -0.042823084 0.54631662 4291346362
-0.038596731 -0.042852476 0.5466916 4291215035
-0.037750665 -0.042891666 0.54719156 4291280828
-0.036869295 -0.042891666 0.54719156 4291346875
-0.036020812 -0.042930849 0.54769146 4291346875
-0.035186753 -0.042989634 0.54844141 4291346875
-0.034358092 -0.043058213 0.54931629 4291346875
-0.033526622 -0.043126795 0.55019122 4291346875
-0.032640427 -0.043126795 0.55019122 4291412668
-0.03179751 -0.043185577 0.55094117 4291346875
-0.030952176 -0.043244358 0.55169106 4291412668
-0.030097619 -0.043293346 0.55231601 4291412668
-0.029234435 -0.043332532 0.55281591 4291478461
-0.028344011 -0.043332532 0.55281591 4291412668
-0.027478416 -0.043371722 0.55331588 4291478461
-0.026611209 -0.043410908 0.55381584 4291477948
-0.025742389 -0.043450098 0.55431581 4291609534
-0.024877563 -0.043499082 0.5549407 4291412668
-0.023983715 -0.043499082 0.5549407 4291478461
-0.023121072 -0.043557867 0.55569065 4291478461
-0.022256009 -0.043616645 0.55644053 4291478461
-0.021393333 -0.043685228 0.55731547 4291544254
-0.02051864 -0.043734211 0.55794036 4291478461
-0.01961996 -0.043734211 0.55794036 4291675840
-0.018746447 -0.043792997 0.55869031 4291741633
-0.017858537 -0.043822389 0.55906528 4291675840
-0.01696563 -0.043841984 0.55931526 4291675840
-0.016064735 -0.043841984 0.55931526 4291741633
-0.015167231 -0.043851782 0.55944026 4291741633
-0.014269323 -0.043861579 0.55956525 4291806913
-0.013368027 -0.043861579 0.55956525 4291872706
-0.012469513 -0.043871369 0.55969018 4291938499
-0.011568016 -0.043871369 0.55969018 4291938499
-0.010671283 -0.043890964 0.55994016 4292004292
-0.0097737443 -0.043910559 0.56019014 4291872706
-0.0088793589 -0.043949749 0.5606901 4291872706
-0.0079762507 -0.043949749 0.5606901 4291872706
-0.0070810271 -0.043998737 0.56131506 4291938497
-0.0061879149 -0.044077113 0.56231493 4292004290
-0.0052868868 -0.0441163 0.56281489 4291806911
-0.0043852194 -0.044165283 0.56343979 4291938497
-0.0034776826 -0.044165283 0.56343979 4291872704
-0.0025729961 -0.044214271 0.56406474 4291872704
-0.001665559 -0.044243664 0.56443971 4291872704
-0.00075875642 -0.044380821 0.56618953 4291938497
-0.077620074 -0.043612793 0.56806433 4289569949
-0.076705091 -0.043612793 0.56806433 4289701535
-0.075823456 -0.043631986 0.56831431 4289898914
-0.074957483 -0.043660767 0.56868923 4289964707
-0.074041486 -0.043660767 0.56868923 4290030500
-0.072755858 -0.043440066 0.56581455 4290096295
-0.071844496 -0.043440066 0.56581455 4290162088
-0.069710962 -0.0426916 0.55606562 4290358953
-0.068335801 -0.042394128 0.55219102 4290358953
-0.067446388 -0.042394128 0.55219102 4290490539
-0.066330992 -0.04225019 0.55031621 4290556332
-0.065251365 -0.042125445 0.54869139 4290556332
-0.064279608 -0.04206787 0.54794145 4290556332
-0.063397035 -0.04206787 0.54794145 4290622125
-0.062485941 -0.042048678 0.54769146 4290687918
-0.06158971 -0.042039081 0.54756647 4290753711
-0.06070774 -0.042039081 0.54756647 4290687918
-0.059935022 -0.042115849 0.5485664 4290622639
-0.059051443 -0.042115849 0.5485664 4290556846
-0.058260631 -0.042183019 0.54944128 4290622639
-0.057258174 -0.04209666 0.54831642 4290820018
-0.056374997 -0.04209666 0.54831642 4290820018
-0.055327382 -0.041971914 0.5466916 4290820018
-0.054446824 -0.041971914 0.5466916 4290885811
-0.05361525 -0.042010296 0.54719156 4290885811
-0.052794106 -0.042058274 0.54781646 4290885811
-0.051911734 -0.042058274 0.54781646 4290951604
-0.05115743 -0.04216383 0.54919136 4290951604
-0.050261404 -0.042154234 0.54906636 4291083190
-0.049275856 -0.04206787 0.54794145 4291017397
-0.048393283 -0.04206787 0.54794145 4290951604
-0.047434848 -0.0420007 0.54706657 4291017397
-0.046511143 -0.041962318 0.54656661 4291083190
-0.045599476 -0.041933529 0.54619163 4291148983
-0.044719718 -0.041933529 0.54619163 4291148983
-0.043809868 -0.04190474 0.54581666 4291280055
-0.04291106 -0.041885551 0.54556674 4291280055
-0.042032313 -0.041885551 0.54556674 4291346362
-0.041153561 -0.041885551 0.54556674 4291280569
-0.040274814 -0.041885551 0.54556674 4291280315
-0.039414112 -0.04190474 0.54581666 4291346108
-0.038561434 -0.041933529 0.54619163 4291215035
-0.037698925 -0.041952722 0.54644161 4291280828
-0.036818765 -0.041952722 0.54644161 4291281082
-0.035971493 -0.041991103 0.54694158 4291281082
-0.035122603 -0.042029489 0.54744154 4291281082
-0.034295555 -0.04209666 0.54831642 4291281082
-0.033465695 -0.04216383 0.54919136 4291346875
-0.03258111 -0.04216383 0.54919136 4291412668
-0.031754225 -0.042240594 0.55019122 4291346875
-0.030896079 -0.042278979 0.55069119 4291412668
-0.030029507 -0.042307764 0.5510661 4291412668
-0.029161731 -0.04233655 0.55144107 4291412668
-0.028273521 -0.04233655 0.55144107 4291478461
-0.027397724 -0.042355742 0.55169106 4291412668
-0.026521124 -0.042374935 0.55194104 4291477948
-0.025643716 -0.042394128 0.55219102 4291543741
-0.024754297 -0.042394128 0.55219102 4291412668
-0.023875682 -0.04241332 0.552441 4291478461
-0.023017062 -0.042470891 0.55319089 4291478207
-0.02215603 -0.042528469 0.55394083 4291478207
-0.021311769 -0.042624425 0.55519068 4291544254
-0.020417519 -0.042624425 0.55519068 4291478461
-0.019558432 -0.042701192 0.55619061 4291544254
-0.01869612 -0.042777959 0.55719048 4291675840
-0.017822603 -0.04283553 0.55794036 4291675840
-0.016931508 -0.042854723 0.55819035 4291675840
-0.016032426 -0.042854723 0.55819035 4291675586
-0.015140121 -0.042873915 0.55844033 4291741379
-0.014243824 -0.042883512 0.55856532 4291807172
-0.013347125 -0.042893108 0.55869031 4291807172
-0.012452806 -0.042912301 0.55894029 4291872965
-0.011552517 -0.042912301 0.55894029 4291872965
-0.010656992 -0.04293149 0.55919027 4292004292
-0.0097628413 -0.042960279 0.55956525 4291938499
-0.0088694617 -0.04299866 0.56006515 4291872706
-0.0079673603 -0.04299866 0.56006515 4291938499
-0.007073143 -0.043046638 0.5606901 4292201669
-0.0061782869 -0.043104213 0.56143999 4292070083
-0.0052810162 -0.043161787 0.56218994 4292135362
-0.0043813288 -0.043219365 0.56293988 4292069569
-0.0034745971 -0.043219365 0.56293988 4292069569
-0.0025718559 -0.043286532 0.56381476 4292003776
-0.001665559 -0.043334514 0.56443971 4292069569
-0.00075875642 -0.043468855 0.56618953 4292201155
0.00015564475 -0.044159751 0.57518858 4291872704
0.0010877489 -0.044390049 0.57818824 4291872704
-0.07932768 -0.04263204 0.5671894 4289109661
-0.078414097 -0.04263204 0.5671894 4289635492
-0.077278502 -0.042509913 0.56556457 4289701285
-0.076114401 -0.042368997 0.56368977 4290029734
-0.075206459 -0.042368997 0.56368977 4290095527
-0.074034929 -0.042218685 0.56168997 4290161320
-0.073130213 -0.042218685 0.56168997 4290227113
-0.072755858 -0.042528704 0.56581455 4290292906
-0.071844496 -0.042528704 0.56581455 4290292906
-0.069428921 -0.041626833 0.55381584 4290490285
-0.06816566 -0.041401371 0.55081618 4290556078
-0.06727846 -0.041401371 0.55081618 4290556078
-0.066089951 -0.041213479 0.54831642 4290621871
-0.065073006 -0.04112893 0.54719156 4290621871
-0.064191639 -0.04112893 0.54719156 4290687664
-0.063209042 -0.041063167 0.54631662 4290687918
-0.062257793 -0.041016199 0.54569173 4290687918
-0.06137884 -0.041016199 0.54569173 4290753711
-0.060513742 -0.041025586 0.54581666 4290687918
-0.059634589 -0.041025586 0.54581666 4290622639
-0.05878235 -0.041044377 0.54606664 4290556846
-0.058048584 -0.04114772 0.54744154 4290622639
-0.057010189 -0.041034982 0.54594165 4290820018
-0.056130838 -0.041034982 0.54594165 4290820018
-0.055011153 -0.040856492 0.54356694 4290820018
-0.054135628 -0.040856492 0.54356694 4290885811
-0.053284593 -0.040875278 0.54381692 4290885811
-0.052432749 -0.040894065 0.54406685 4290951604
-0.051556416 -0.040894065 0.54406685 4291017397
-0.050831441 -0.041016199 0.54569173 4290951604
-0.049952492 -0.041016199 0.54569173 4290951604
-0.04907354 -0.041016199 0.54569173 4291017397
-0.048117317 -0.040950432 0.54481679 4290951604
-0.047218103 -0.040931646 0.54456681 4291017397
-0.046319693 -0.040912855 0.54431683 4291083190
-0.045442954 -0.040912855 0.54431683 4291280055
-0.044545751 -0.040894065 0.54406685 4291214262
-0.043659393 -0.040884674 0.54394192 4291280055
-0.04278326 -0.040884674 0.54394192 4291280055
-0.041907132 -0.040884674 0.54394192 4291280569
-0.041030996 -0.040884674 0.54394192 4291148983
-0.040154867 -0.040884674 0.54394192 4291280569
-0.03929678 -0.04090346 0.54419184 4291346362
-0.038455542 -0.040941037 0.5446918 4291280569
-0.037612699 -0.040978618 0.54519176 4291346362
-0.036734551 -0.040978618 0.54519176 4291281082
-0.035897508 -0.041025586 0.54581666 4291215289
-0.035066471 -0.041081958 0.54656661 4291215289
-0.034240834 -0.04114772 0.54744154 4291281082
-0.033404764 -0.041204084 0.54819143 4291346875
-0.032521788 -0.041204084 0.54819143 4291412668
-0.031682093 -0.041260451 0.54894137 4291346875
-0.030832967 -0.041307423 0.54956627 4291346875
-0.02996821 -0.041335605 0.54994124 4291478461
-0.029095635 -0.041354395 0.55019122 4291412668
-0.028209439 -0.041354395 0.55019122 4291477948
-0.027335655 -0.041373186 0.55044121 4291477948
-0.026449054 -0.041373186 0.55044121 4291477948
-0.025562454 -0.041373186 0.55044121 4291609534
-0.024675854 -0.041373186 0.55044121 4291477694
-0.023800058 -0.041391976 0.55069119 4291543487
-0.022928655 -0.041420154 0.5510661 4291478207
-0.022076044 -0.041485917 0.55194104 4291478207
-0.021235006 -0.041579861 0.55319089 4291544000
-0.020343974 -0.041579861 0.55319089 4291544000
-0.019510083 -0.041701987 0.55481571 4291544254
-0.018654183 -0.04178654 0.55594063 4291675840
-0.01778667 -0.041852299 0.55681551 4291675840
-0.016901178 -0.041880485 0.55719048 4291741633
-0.016003707 -0.041880485 0.55719048 4291675586
-0.015116402 -0.04190867 0.55756545 4291741379
-0.014221515 -0.041918065 0.55769044 4291807172
-0.013329209 -0.041936848 0.55794036 4291807172
-0.012430529 -0.041936848 0.55794036 4291873219
-0.011534434 -0.041946243 0.55806535 4291873219
-0.0106427 -0.041974429 0.55844033 4291939012
-0.009747576 -0.041993219 0.55869031 4291939012
-0.0088595664 -0.042049587 0.55944026 4291873219
-0.0079584708 -0.042049587 0.55944026 4291873219
-0.0070636827 -0.04208716 0.55994016 4292201669
-0.0061714104 -0.042152926 0.5608151 4292070083
-0.0052751456 -0.04220929 0.56156498 4292135362
-0.0043774378 -0.042275053 0.56243992 4292135362
-0.0034715112 -0.042275053 0.56243992 4292069569
-0.0025695753 -0.042340811 0.5633148 4292003776
-0.001665559 -0.042425364 0.56443971 4292069569
-0.00075992884 -0.042622644 0.5670644 4292069569
0.0001552727 -0.043129947 0.57381368 4291872704
0.0010825758 -0.043252073 0.5754385 4291872704
0.0020094393 -0.043252073 0.5754385 4291872706
0.0029477826 -0.043421175 0.57768828 4291806913
0.0038816263 -0.043458756 0.57818824 4291806913
-0.07932768 -0.041718468 0.5671894 4289503904
-0.078414097 -0.041718468 0.5671894 4289897380
-0.077278502 -0.041598957 0.56556457 4290028966
-0.076114401 -0.041461058 0.56368977 4290160552
-0.075206459 -0.041461058 0.56368977 4290357931
-0.074034929 -0.041313969 0.56168997 4290227113
-0.073130213 -0.041313969 0.56168997 4290292906
-0.069428921 -0.040734801 0.55381584 4290556078
-0.06816566 -0.040514167 0.55081618 4290621871
-0.06727846 -0.040514167 0.55081618 4290687664
-0.066089951 -0.040330302 0.54831642 4290687664
-0.065073006 -0.040247567 0.54719156 4290621871
-0.064191639 -0.040247567 0.54719156 4290687664
-0.063209042 -0.040183213 0.54631662 4290687664
-0.062257793 -0.04013725 0.54569173 4290687664
-0.06137884 -0.04013725 0.54569173 4290622385
-0.060513742 -0.040146437 0.54581666 4290622385
-0.059634589 -0.040146437 0.54581666 4290622639
-0.05878235 -0.040164825 0.54606664 4290556846
-0.058048584 -0.040265955 0.54744154 4290688432
-0.057010189 -0.040155631 0.54594165 4290885811
-0.056130838 -0.040155631 0.54594165 4290951090
-0.055011153 -0.039980967 0.54356694 4291016883
-0.054135628 -0.039980967 0.54356694 4291016883
-0.053284593 -0.039999351 0.54381692 4290951090
-0.052432749 -0.040017735 0.54406685 4290951090
-0.051556416 -0.040017735 0.54406685 4291016883
-0.050831441 -0.04013725 0.54569173 4291082676
-0.049952492 -0.04013725 0.54569173 4291082676
-0.04907354 -0.04013725 0.54569173 4290951604
-0.048117317 -0.040072896 0.54481679 4290951604
-0.047218103 -0.040054508 0.54456681 4291017397
-0.046319693 -0.04003612 0.54431683 4291083190
-0.045442954 -0.04003612 0.54431683 4291148983
-0.044545751 -0.040017735 0.54406685 4291083190
-0.043659393 -0.040008545 0.54394192 4291083190
-0.04278326 -0.040008545 0.54394192 4291148983
-0.041907132 -0.040008545 0.54394192 4291148983
-0.041030996 -0.040008545 0.54394192 4291148983
-0.040154867 -0.040008545 0.54394192 4291280569
-0.03929678 -0.040026929 0.54419184 4291346362
-0.038455542 -0.040063702 0.5446918 4291346362
-0.037612699 -0.040100474 0.54519176 4291346362
-0.036734551 -0.040100474 0.54519176 4291281082
-0.035897508 -0.040146437 0.54581666 4291215289
-0.035066471 -0.040201601 0.54656661 4291215289
-0.034240834 -0.040265955 0.54744154 4291281082
-0.033404764 -0.040321108 0.54819143 4291281082
-0.032521788 -0.040321108 0.54819143 4291346875
-0.031682093 -0.040376272 0.54894137 4291346875
-0.030832967 -0.040422235 0.54956627 4291412668
-0.02996821 -0.040449813 0.54994124 4291478461
-0.029095635 -0.040468201 0.55019122 4291412668
-0.028209439 -0.040468201 0.55019122 4291412668
-0.027335655 -0.040486589 0.55044121 4291478461
-0.026449054 -0.040486589 0.55044121 4291543741
-0.025562454 -0.040486589 0.55044121 4291543741
-0.024675854 -0.040486589 0.55044121 4291477694
-0.023800058 -0.040504973 0.55069119 4291543487
-0.022928655 -0.040532552 0.5510661 4291478207
-0.022076044 -0.040596906 0.55194104 4291544000
-0.021235006 -0.040688835 0.55319089 4291675586
-0.020343974 -0.040688835 0.55319089 4291544000
-0.019510083 -0.040808346 0.55481571 4291741120
-0.018654183 -0.040891085 0.55594063 4291806913
-0.01778667 -0.040955435 0.55681551 4291675840
-0.016901178 -0.040983018 0.55719048 4291741633
-0.016003707 -0.040983018 0.55719048 4291675840
-0.015116402 -0.041010596 0.55756545 4291741633
-0.014221515 -0.04101979 0.55769044 4291807426
-0.013329209 -0.041038174 0.55794036 4291807426
-0.012430529 -0.041038174 0.55794036 4291873219
-0.011534434 -0.041047364 0.55806535 4291873219
-0.0106427 -0.041074947 0.55844033 4292004805
-0.009747576 -0.041093335 0.55869031 4292004805
-0.0088595664 -0.041148495 0.55944026 4291873219
-0.0079584708 -0.041148495 0.55944026 4292004805
-0.0070636827 -0.041185264 0.55994016 4292201671
-0.0061714104 -0.041249618 0.5608151 4292070085
-0.0052751456 -0.041304775 0.56156498 4292004292
-0.0043774378 -0.041369129 0.56243992 4292004292
-0.0034715112 -0.041369129 0.56243992 4292069569
-0.0025695753 -0.04143348 0.5633148 4292003776
-0.0016662966 -0.041534606 0.5646897 4291872704
-0.00076126889 -0.041782822 0.56806433 4291938497
0.0001552727 -0.042205703 0.57381368 4291872704
0.0010825758 -0.042325214 0.5754385 4291806911
0.0020094393 -0.042325214 0.5754385 4291872706
0.0029477826 -0.042490691 0.57768828 4291806913
0.0038816263 -0.042527463 0.57818824 4291806913
-0.079852253 -0.040607069 0.56443971 4289635230
-0.078943104 -0.040607069 0.56443971 4289766816
-0.077722922 -0.040445216 0.56218994 4290028964
-0.076595381 -0.040328324 0.56056511 4290226343
-0.075692482 -0.040328324 0.56056511 4290226343
-0.074389361 -0.040112521 0.55756545 4290357929
-0.073244177 -0.039977644 0.55569065 4290292906
-0.072153844 -0.039869741 0.55419081 4290292906
