# .PCD v0.7 - Point Cloud Data file format
VERSION 0.7
FIELDS x y z rgba
SIZE 4 4 4 4
TYPE F F F U
COUNT 1 1 1 1
WIDTH 1007
HEIGHT 1
VIEWPOINT 0 0 0 1 0 0 0
POINTS 1007
DATA ascii
0.012063865 -0.054245435 0.28621942 4292204509
0.01252488 -0.054245435 0.28621942 4292336095
0.012997238 -0.054292813 0.2864694 4292270302
0.013482143 -0.054387562 0.28696933 4292270302
0.013980808 -0.054529689 0.28771925 4292401118
0.014469339 -0.054624442 0.28821921 4292269532
0.014959479 -0.054719195 0.28871915 4292270304
0.015444553 -0.054790258 0.28909412 4292204511
0.015910199 -0.054790258 0.28909412 4292138718
0.016411245 -0.054908697 0.28971905 4292138718
0.016921585 -0.055050824 0.29046896 4292204511
0.017434342 -0.055192951 0.29121888 4292401890
0.017934147 -0.055287708 0.29171884 4292401890
0.018427676 -0.055358768 0.29209378 4292401890
0.018898152 -0.055358768 0.29209378 4292336095
0.019385207 -0.055406146 0.29234377 4292401888
0.019873066 -0.055453524 0.29259375 4292007900
0.020361731 -0.055500899 0.29284373 4291678935
0.020842304 -0.055524584 0.29296869 4292271326
0.021314193 -0.055524584 0.29296869 4292402912
0.02180467 -0.055571962 0.29321867 4292402142
0.022295952 -0.05561934 0.29346865 4292270556
0.022788037 -0.055666711 0.29371861 4292270556
0.023300726 -0.055761464 0.29421857 4292533728
0.023774626 -0.055761464 0.29421857 4292532958
0.02430003 -0.055879902 0.29484349 4292730337
0.024848454 -0.056045718 0.2957184 4292467165
0.025431808 -0.056282602 0.29696828 4292664544
0.026019184 -0.056519479 0.29821813 4292730083
0.026610591 -0.056756359 0.29946801 4292861669
0.027183406 -0.056945864 0.30046791 4292532704
0.027736425 -0.057087991 0.30121782 4292401118
0.028291859 -0.057230119 0.30196774 4292204509
0.028778242 -0.057230119 0.30196774 4292336095
0.029300965 -0.057301186 0.30234271 4292336349
0.02982489 -0.057372246 0.30271766 4292402142
0.030362545 -0.057467002 0.30321762 4292336349
0.030889086 -0.057538062 0.30359256 4292270556
0.031442676 -0.0576565 0.30421749 4292271326
0.031932682 -0.0576565 0.30421749 4292402912
0.032502614 -0.057798631 0.30496743 4292205533
0.033102002 -0.057988133 0.3059673 4292139740
0.033718336 -0.058201324 0.30709219 4292270556
0.034366146 -0.058461897 0.30846706 4292270556
0.035004254 -0.058698773 0.30971691 4292270556
0.035617739 -0.058888275 0.31071681 4291875798
0.036248971 -0.05910147 0.3118417 4291875798
0.036883824 -0.059314657 0.31296656 4291875798
0.037387922 -0.059314657 0.31296656 4291810005
0.038013082 -0.059504163 0.31396645 4291810005
0.038656797 -0.059717357 0.31509134 4291744212
0.039304134 -0.059930548 0.31621623 4291612626
0.03997083 -0.060167424 0.31746608 4291481038
0.040673427 -0.060451679 0.31896591 4291349452
0.041284028 -0.060593814 0.31971586 4291283659
0.041929714 -0.060783312 0.32071573 4291217866
0.042512465 -0.060878064 0.32121569 4291348682
0.043029852 -0.060878064 0.32121569 4291282889
0.043581128 -0.060925443 0.32146567 4291085510
-0.093416639 -0.059609104 0.3172161 4289572522
-0.0929057 -0.059609104 0.3172161 4289638832
-0.092394762 -0.059609104 0.3172161 4289836211
-0.091883816 -0.059609104 0.3172161 4289769648
-0.08670906 -0.056884654 0.30271766 4289966770
-0.086221471 -0.056884654 0.30271766 4290098356
-0.084742747 -0.056227028 0.29921803 4290032563
-0.084260784 -0.056227028 0.29921803 4290032563
-0.083638862 -0.056133084 0.29871809 4290098356
-0.082948945 -0.055992167 0.29796818 4290164149
-0.082469009 -0.055992167 0.29796818 4290164149
-0.081989072 -0.055992167 0.29796818 4290229942
-0.081509128 -0.055992167 0.29796818 4290230195
-0.081097163 -0.056039136 0.29821813 4290230195
-0.080954693 -0.056274004 0.29946801 4290295988
-0.080472343 -0.056274004 0.29946801 4290427574
-0.079989985 -0.056274004 0.29946801 4290230452
-0.0791426 -0.056015648 0.29809314 4290164659
-0.078662463 -0.056015648 0.29809314 4290164659
-0.077428363 -0.055475459 0.29521847 4290098866
-0.07695286 -0.055475459 0.29521847 4290230452
-0.076283082 -0.055334538 0.29446855 4290230452
-0.075776599 -0.05531105 0.29434356 4290362038
-0.075270519 -0.055287566 0.29421857 4290427831
-0.074796624 -0.055287566 0.29421857 4290558907
-0.074322715 -0.055287566 0.29421857 4290493114
-0.074131168 -0.055498946 0.29534346 4290558907
-0.073655456 -0.055498946 0.29534346 4290558907
-0.073179744 -0.055498946 0.29534346 4290493114
-0.07205791 -0.055005725 0.29271874 4290493114
-0.071586423 -0.055005725 0.29271874 4290493114
-0.07035581 -0.054418556 0.28959405 4290558907
-0.069768704 -0.054324612 0.28909412 4290558907
-0.069303058 -0.054324612 0.28909412 4290558907
-0.068718366 -0.054230664 0.28859416 4290493367
-0.068223968 -0.05420718 0.2884692 4290427574
-0.067759335 -0.05420718 0.2884692 4290558907
-0.067294694 -0.05420718 0.2884692 4290493114
-0.066830054 -0.05420718 0.2884692 4290493114
-0.066624194 -0.054418556 0.28959405 4290493114
-0.066214852 -0.054465532 0.28984404 4290558907
-0.065776356 -0.05448902 0.28996903 4290493114
-0.064549237 -0.053854879 0.28659439 4290493116
-0.064087614 -0.053854879 0.28659439 4290493116
-0.063209772 -0.053502578 0.28471959 4290558907
-0.062723622 -0.053479094 0.2845946 4290558907
-0.062265228 -0.053479094 0.2845946 4290756286
-0.061806828 -0.053479094 0.2845946 4290756286
-0.061348431 -0.053479094 0.2845946 4290690493
-0.06089003 -0.053479094 0.2845946 4290624700
-0.060458176 -0.053502578 0.28471959 4290690493
-0.059999574 -0.053502578 0.28471959 4290690493
-0.059697796 -0.053643499 0.2854695 4290624700
-0.05962703 -0.053995799 0.28734431 4290624700
-0.05931861 -0.05413672 0.28809422 4290690495
-0.058165174 -0.053502578 0.28471959 4290690495
-0.057706572 -0.053502578 0.28471959 4290756286
-0.056644831 -0.052938897 0.28171989 4290756286
-0.055991624 -0.052751005 0.28072 4290756286
-0.055539466 -0.052751005 0.28072 4290690493
-0.055087309 -0.052751005 0.28072 4290821309
-0.054683805 -0.052797977 0.28096998 4290887102
-0.054255366 -0.052821465 0.28109497 4291018688
-0.053874377 -0.052891929 0.28146994 4290887102
-0.053444732 -0.052915409 0.2815949 4290821309
-0.052991163 -0.052915409 0.2815949 4291018688
-0.053027291 -0.05340863 0.28421962 4290821309
-0.053401731 -0.054254152 0.28871915 4290821309
-0.052982524 -0.054301124 0.28896913 4290887102
-0.052517083 -0.054301124 0.28896913 4291018688
-0.051106062 -0.053314686 0.28371969 4290953665
-0.050649069 -0.053314686 0.28371969 4290887872
-0.049661413 -0.052751005 0.28072 4290887872
-0.049077798 -0.052610084 0.27997008 4290887872
-0.04860514 -0.052586596 0.27984509 4290953665
-0.048154391 -0.052586596 0.27984509 4291019458
-0.047703642 -0.052586596 0.27984509 4290953665
-0.04725289 -0.052586596 0.27984509 4291085251
-0.046948463 -0.052751005 0.28072 4291019458
-0.046806838 -0.053103305 0.2825948 4290953665
-0.046454165 -0.053220741 0.28321975 4291019458
-0.046058875 -0.053291198 0.2835947 4290953665
-0.044999149 -0.052586596 0.27984509 4290953665
-0.044548403 -0.052586596 0.27984509 4291019458
-0.043762837 -0.052187327 0.27772033 4291151044
-0.043315507 -0.052187327 0.27772033 4291085251
-0.04271384 -0.051999435 0.27672043 4291085251
-0.042268123 -0.051999435 0.27672043 4291151044
-0.041822411 -0.051999435 0.27672043 4291216837
-0.041376695 -0.051999435 0.27672043 4291151044
-0.040894002 -0.051952459 0.27647045 4291085251
-0.040412117 -0.05190549 0.2762205 4291151044
-0.039858699 -0.05176457 0.27547058 4291216837
-0.039343461 -0.051670618 0.27497062 4291216837
-0.038847521 -0.051600162 0.27459568 4291151301
-0.038370263 -0.05155319 0.2743457 4291282887
-0.037928373 -0.05155319 0.2743457 4291151301
-0.037486482 -0.05155319 0.2743457 4291151301
-0.037179608 -0.051741082 0.27534559 4291217090
-0.036802806 -0.051835027 0.27584553 4291151297
-0.036440868 -0.051952459 0.27647045 4291348676
-0.035995554 -0.051952459 0.27647045 4291348676
-0.035550244 -0.051952459 0.27647045 4291414469
-0.03510493 -0.051952459 0.27647045 4291348676
-0.034690954 -0.051999435 0.27672043 4291348680
-0.034338042 -0.052140351 0.27747035 4291348680
-0.033921655 -0.052187327 0.27772033 4291414473
-0.033534586 -0.052281272 0.27822027 4291348680
-0.032863505 -0.051928975 0.27634549 4291414216
-0.032345075 -0.051811539 0.27572054 4291480009
-0.031900972 -0.051811539 0.27572054 4291414216
-0.031414088 -0.051741082 0.27534559 4291414216
-0.030970586 -0.051741082 0.27534559 4291480009
-0.030554799 -0.051788051 0.27559555 4291480009
-0.030124551 -0.051811539 0.27572054 4291480009
-0.029680446 -0.051811539 0.27572054 4291545802
-0.029262846 -0.051858515 0.27597052 4291414216
-0.028844442 -0.05190549 0.2762205 4291216837
-0.028438082 -0.051975947 0.27659544 4291545802
-0.028119061 -0.052210815 0.27784532 4291545802
-0.027783561 -0.052422192 0.27897018 4291545802
-0.027334223 -0.052422192 0.27897018 4291545802
-0.02687284 -0.052398708 0.27884522 4291545802
-0.026293417 -0.052140351 0.27747035 4291545802
-0.025846492 -0.052140351 0.27747035 4291480266
-0.025319481 -0.051975947 0.27659544 4291480266
-0.024851488 -0.051928975 0.27634549 4291480266
-0.024406377 -0.051928975 0.27634549 4291546059
-0.023961265 -0.051928975 0.27634549 4291546059
-0.023526788 -0.051952459 0.27647045 4291546059
-0.023102343 -0.051999435 0.27672043 4291611852
-0.022687327 -0.052069895 0.27709541 4291743438
-0.022301201 -0.052210815 0.27784532 4291546059
-0.021971641 -0.052492652 0.27934515 4291743438
-0.02162762 -0.052751005 0.28072 4291743438
-0.021175461 -0.052751005 0.28072 4291743438
-0.020704852 -0.052704033 0.28047004 4291809231
-0.020126741 -0.05237522 0.27872023 4291611852
-0.019677803 -0.05237522 0.27872023 4291743438
-0.019168507 -0.052210815 0.27784532 4291743438
-0.018687291 -0.052116863 0.27734536 4291611854
-0.018240571 -0.052116863 0.27734536 4291743440
-0.01778583 -0.052093383 0.2772204 4291809233
-0.017339308 -0.052093383 0.2772204 4291611854
-0.016885171 -0.052069895 0.27709541 4291743440
-0.016438851 -0.052069895 0.27709541 4291743440
-0.015992532 -0.052069895 0.27709541 4291743440
-0.015581273 -0.052187327 0.27772033 4291743440
-0.0152293 -0.05251614 0.27947015 4291809233
-0.014818813 -0.05265706 0.28022006 4291809233
-0.014373869 -0.052680548 0.28034505 4292006355
-0.013816795 -0.052281272 0.27822027 4291874769
-0.013314613 -0.052069895 0.27709541 4291874769
-0.012868293 -0.052069895 0.27709541 4291940562
-0.012421973 -0.052069895 0.27709541 4291940562
-0.011975653 -0.052069895 0.27709541 4291940562
-0.011529334 -0.052069895 0.27709541 4292006355
-0.01109801 -0.052140351 0.27747035 4292072148
-0.010670279 -0.052234303 0.27797031 4292072148
-0.010250128 -0.05237522 0.27872023 4292006355
-0.0098011913 -0.05237522 0.27872023 4291940562
-0.0093732234 -0.052492652 0.27934515 4291808976
-0.0089751827 -0.052797977 0.28096998 4292006355
-0.0086136106 -0.053361662 0.28396967 4291940562
-0.0080951899 -0.052962385 0.28184488 4292006357
-0.0076412205 -0.052962385 0.28184488 4292006357
-0.0071553788 -0.05272752 0.28059503 4291940564
-0.0066914782 -0.052633572 0.28009507 4292006357
-0.0062347567 -0.052586596 0.27984509 4292006355
-0.0057840082 -0.052586596 0.27984509 4291940562
-0.0053308783 -0.052563116 0.27972013 4292202964
-0.0048803305 -0.052563116 0.27972013 4292202964
-0.0044297832 -0.052563116 0.27972013 4292072148
-0.0039810133 -0.052586596 0.27984509 4292006355
-0.0035302646 -0.052586596 0.27984509 4292006355
-0.0030836421 -0.05265706 0.28022006 4292072148
-0.0026440304 -0.052891929 0.28146994 4292072148
-0.002252921 -0.054395068 0.28946906 4291940562
-0.001786671 -0.054395068 0.28946906 4292006355
-0.0013038871 -0.053713962 0.28584448 4292269527
-0.00084347511 -0.053713962 0.28584448 4292137943
-0.00037921072 -0.053173766 0.28296977 4292072150
7.6401891e-05 -0.053056333 0.28234485 4292335322
0.00053117704 -0.053056333 0.28234485 4292137943
0.00098595209 -0.053056333 0.28234485 4292072407
0.0014407273 -0.053056333 0.28234485 4292006614
0.0018963412 -0.053079817 0.28246981 4292006614
0.0023544389 -0.053150278 0.28284478 4292072407
0.0028137448 -0.053220741 0.28321975 4292269786
0.0032728147 -0.05326771 0.28346971 4292269786
0.0037294019 -0.05326771 0.28346971 4292269784
0.0041896803 -0.053314686 0.28371969 4292269784
0.0046507637 -0.053361662 0.28396967 4292335320
0.0051081558 -0.053361662 0.28396967 4292269527
0.0055704475 -0.05340863 0.28421962 4292401113
0.0060282419 -0.05340863 0.28421962 4292269527
0.0064860368 -0.05340863 0.28421962 4292335320
0.0069468855 -0.053432118 0.28434461 4292401113
0.0074081365 -0.053455606 0.2844696 4292401113
0.0078663342 -0.053455606 0.2844696 4292466906
0.0083318474 -0.053502578 0.28471959 4292466906
0.0087943058 -0.053526066 0.28484458 4292401113
0.0092571676 -0.053549554 0.28496957 4292269786
0.0097289542 -0.053620011 0.28534451 4292269786
0.010188561 -0.053620011 0.28534451 4292269786
0.010662161 -0.053690474 0.28571948 4292335579
0.011132102 -0.053737443 0.28596944 4292401372
0.011602849 -0.053784419 0.28621942 4292335579
0.012063865 -0.053784419 0.28621942 4292335325
0.01252488 -0.053784419 0.28621942 4292532704
0.012997238 -0.053831391 0.2864694 4292270302
0.013488016 -0.053948823 0.28709432 4292204509
0.013980808 -0.054066256 0.28771925 4292335325
0.014481889 -0.05420718 0.2884692 4292269532
0.014965955 -0.054277636 0.28884414 4292336097
0.015451231 -0.0543481 0.28921911 4292204511
0.01591708 -0.0543481 0.28921911 4292072925
0.016418325 -0.054465532 0.28984404 4292138718
0.016928867 -0.054606453 0.29059395 4292204511
0.017434342 -0.054723881 0.29121888 4292270304
0.017934147 -0.054817833 0.29171884 4292204511
0.018427676 -0.054888289 0.29209378 4292270304
0.018898152 -0.054888289 0.29209378 4292336097
0.019393494 -0.05495875 0.29246876 4292336097
0.019881554 -0.055005725 0.29271874 4292138716
0.020361731 -0.055029213 0.29284373 4292270302
0.020842304 -0.055052694 0.29296869 4292336349
0.021314193 -0.055052694 0.29296869 4292533728
0.02180467 -0.05509967 0.29321867 4292402142
0.022295952 -0.055146646 0.29346865 4292336349
0.022797734 -0.055217102 0.2938436 4292270556
0.023300726 -0.055287566 0.29421857 4292533728
0.023774626 -0.055287566 0.29421857 4292532958
0.02430003 -0.055404995 0.29484349 4292730337
0.024848454 -0.055569403 0.2957184 4292664544
0.025431808 -0.055804271 0.29696828 4292532958
0.026019184 -0.056039136 0.29821813 4292664290
0.026610591 -0.056274004 0.29946801 4292466911
0.027183406 -0.056461897 0.30046791 4292664290
0.027747935 -0.056626305 0.30134282 4292466911
0.028291859 -0.056743737 0.30196774 4292401888
0.028778242 -0.056743737 0.30196774 4292336095
0.029313074 -0.056837682 0.30246767 4292402142
0.029837204 -0.056908142 0.30284265 4292402142
0.030362545 -0.056978606 0.30321762 4292402142
0.030889086 -0.057049062 0.30359256 4292402142
0.031442676 -0.057166494 0.30421749 4292402142
0.031932682 -0.057166494 0.30421749 4292402142
0.032502614 -0.057307418 0.30496743 4292139740
0.033102002 -0.057495307 0.3059673 4292205533
0.03373206 -0.057730176 0.30721718 4292336349
0.034366146 -0.057965044 0.30846706 4292270556
0.035004254 -0.058199909 0.30971691 4292138716
0.035632066 -0.058411289 0.3108418 4291941337
0.036263499 -0.058622666 0.31196666 4291875544
0.036883824 -0.058810558 0.31296656 4291875544
0.037387922 -0.058810558 0.31296656 4291809751
0.038013082 -0.058998454 0.31396645 4291875544
0.03864146 -0.059186347 0.31496635 4291810005
0.039273061 -0.059374243 0.31596625 4291678419
0.039892148 -0.059538648 0.31684116 4291481040
0.040577803 -0.059797 0.318216 4291349454
0.041251749 -0.060031869 0.31946588 4291283659
0.041897036 -0.060219761 0.32046577 4291217866
0.042413216 -0.060219761 0.32046577 4291152073
0.042996362 -0.060313705 0.32096571 4290954694
0.043581128 -0.060407657 0.32146567 4290954694
0.045116939 -0.060384169 0.32134068 4286873479
0.045634523 -0.060384169 0.32134068 4286677381
-0.094005555 -0.059470732 0.31921589 4289572522
-0.093491398 -0.059470732 0.31921589 4289704108
-0.093013644 -0.059494019 0.31934088 4289769901
-0.08667326 -0.056373782 0.30259266 4290098356
-0.086185873 -0.056373782 0.30259266 4290032563
-0.084742747 -0.05574508 0.29921803 4290032563
-0.084260784 -0.05574508 0.29921803 4290098356
-0.083638862 -0.05565194 0.29871809 4290164149
-0.082948945 -0.055512231 0.29796818 4290032563
-0.082469009 -0.055512231 0.29796818 4290098356
-0.081989072 -0.055512231 0.29796818 4290229942
-0.081509128 -0.055512231 0.29796818 4290229942
-0.081097163 -0.055558797 0.29821813 4290164149
-0.080954693 -0.055791654 0.29946801 4290229942
-0.080472343 -0.055791654 0.29946801 4290229942
-0.079989985 -0.055791654 0.29946801 4290427321
-0.07920897 -0.055582084 0.29834312 4290164149
-0.07872843 -0.055582084 0.29834312 4290164659
-0.077657834 -0.055162948 0.29609337 4290164659
-0.07708317 -0.055093091 0.2957184 4290230452
-0.076444969 -0.054976664 0.29509348 4290230452
-0.075808771 -0.054860242 0.29446855 4290230199
-0.075334474 -0.054860242 0.29446855 4290427578
-0.074860178 -0.054860242 0.29446855 4290427578
-0.074385867 -0.054860242 0.29446855 4290427578
-0.074131168 -0.055023238 0.29534346 4290493114
-0.073655456 -0.055023238 0.29534346 4290558907
-0.073179744 -0.055023238 0.29534346 4290427321
-0.07205791 -0.054534245 0.29271874 4290493114
-0.071586423 -0.054534245 0.29271874 4290493114
-0.07035581 -0.053952109 0.28959405 4290558907
-0.069889359 -0.053952109 0.28959405 4290624700
-0.069303058 -0.053858969 0.28909412 4290558907
-0.068718366 -0.053765826 0.28859416 4290427574
-0.068223968 -0.053742543 0.2884692 4290493367
-0.067759335 -0.053742543 0.2884692 4290559160
-0.067294694 -0.053742543 0.2884692 4290559160
-0.066830054 -0.053742543 0.2884692 4290558907
-0.066652954 -0.053975396 0.28971905 4290624700
-0.066214852 -0.053998683 0.28984404 4290493114
-0.065946467 -0.054161679 0.29071894 4290558907
-0.064802587 -0.05360283 0.28771925 4290493114
-0.064339153 -0.05360283 0.28771925 4290493114
-0.063265271 -0.053090554 0.28496957 4290558907
-0.062806264 -0.053090554 0.28496957 4290558907
-0.062347267 -0.053090554 0.28496957 4290690493
-0.061806828 -0.053020697 0.2845946 4290690493
-0.061348431 -0.053020697 0.2845946 4290624700
-0.06089003 -0.053020697 0.2845946 4290624700
-0.060458176 -0.053043984 0.28471959 4290624700
-0.059999574 -0.053043984 0.28471959 4290690493
-0.059697796 -0.053183693 0.2854695 4290624700
-0.05962703 -0.053532977 0.28734431 4290690493
-0.05931861 -0.053672686 0.28809422 4290690495
-0.058165174 -0.053043984 0.28471959 4290690495
-0.057706572 -0.053043984 0.28471959 4290756288
-0.056644831 -0.052485131 0.28171989 4290690495
-0.055991624 -0.052298848 0.28072 4290756286
-0.055539466 -0.052298848 0.28072 4290690493
-0.055087309 -0.052298848 0.28072 4290690493
-0.054683805 -0.052345421 0.28096998 4290756286
-0.054255366 -0.052368708 0.28109497 4290887872
-0.05382653 -0.052391995 0.28121996 4290887872
-0.053444732 -0.052461848 0.2815949 4290887102
-0.052991163 -0.052461848 0.2815949 4290887102
-0.053027291 -0.052950837 0.28421962 4290821309
-0.053401731 -0.053789113 0.28871915 4290821309
-0.052982524 -0.053835683 0.28896913 4290756286
-0.052517083 -0.053835683 0.28896913 4290887872
-0.051106062 -0.052857701 0.28371969 4290953665
-0.050649069 -0.052857701 0.28371969 4290756286
-0.049661413 -0.052298848 0.28072 4290887872
-0.049077798 -0.052159138 0.27997008 4290887872
-0.04860514 -0.052135851 0.27984509 4290953665
-0.048154391 -0.052135851 0.27984509 4291019458
-0.047703642 -0.052135851 0.27984509 4291019458
-0.04725289 -0.052135851 0.27984509 4291019458
-0.046948463 -0.052298848 0.28072 4290953665
-0.04682754 -0.052671418 0.28271979 4291019458
-0.046454165 -0.052764561 0.28321975 4291019458
-0.046119776 -0.052904271 0.28396967 4290953665
-0.045019247 -0.052159138 0.27997008 4290953665
-0.0445683 -0.052159138 0.27997008 4291019458
-0.043802228 -0.051786575 0.27797031 4291151044
-0.043218039 -0.051623579 0.27709541 4291085251
-0.042733133 -0.051577006 0.27684543 4291085251
-0.042287216 -0.051577006 0.27684543 4291151044
-0.041860193 -0.051600292 0.27697042 4291151044
-0.041414071 -0.051600292 0.27697042 4291085251
-0.040894002 -0.051507149 0.27647045 4291085251
-0.040412117 -0.051460583 0.2762205 4291216837
-0.039822526 -0.0512743 0.2752206 4291151044
-0.039343461 -0.051227726 0.27497062 4291151044
-0.038812157 -0.0511113 0.2743457 4291151301
-0.038370263 -0.0511113 0.2743457 4291151301
-0.037928373 -0.0511113 0.2743457 4291151301
-0.037486482 -0.0511113 0.2743457 4291151301
-0.037230235 -0.051367436 0.27572054 4291348423
-0.036836158 -0.051437296 0.27609551 4291348423
-0.036440868 -0.051507149 0.27647045 4291676871
-0.035995554 -0.051507149 0.27647045 4291479492
-0.035550244 -0.051507149 0.27647045 4291348676
-0.03510493 -0.051507149 0.27647045 4291348676
-0.034659617 -0.051507149 0.27647045 4291348423
-0.034338042 -0.051693432 0.27747035 4291414216
-0.033982717 -0.051833142 0.27822027 4291480009
-0.033534586 -0.051833142 0.27822027 4291414216
-0.032878365 -0.051507149 0.27647045 4291414216
-0.032374401 -0.051414009 0.27597052 4291414216
-0.031929895 -0.051414009 0.27597052 4291414216
-0.031456865 -0.051367436 0.27572054 4291414216
-0.03101276 -0.051367436 0.27572054 4291480009
-0.030568656 -0.051367436 0.27572054 4291480009
-0.030138206 -0.051390722 0.27584553 4291480009
-0.029693902 -0.051390722 0.27584553 4291545802
-0.029276101 -0.051437296 0.27609551 4291414216
-0.028857496 -0.05148387 0.27634549 4291348423
-0.028450934 -0.051553719 0.27672043 4291480009
-0.028093761 -0.051716719 0.27759534 4291545802
-0.027696431 -0.051809862 0.2780953 4291545802
-0.0272485 -0.051809862 0.2780953 4291545802
-0.02684875 -0.051903002 0.27859524 4291545802
-0.026293417 -0.051693432 0.27747035 4291545802
-0.025846492 -0.051693432 0.27747035 4291546059
-0.025365248 -0.051623579 0.27709541 4291480266
-0.024873966 -0.051530436 0.27659544 4291480266
-0.024428453 -0.051530436 0.27659544 4291480266
-0.023982937 -0.051530436 0.27659544 4291480266
-0.023548061 -0.051553719 0.27672043 4291480266
-0.023123214 -0.051600292 0.27697042 4291611852
-0.022728261 -0.051716719 0.27759534 4291743438
-0.022311233 -0.051786575 0.27797031 4291611852
-0.02196181 -0.052019425 0.27922016 4291743438
-0.021550586 -0.052112572 0.27972013 4291743438
-0.021100039 -0.052112572 0.27972013 4291611852
-0.020677172 -0.052182425 0.28009507 4291611852
-0.02014479 -0.051972855 0.27897018 4291743438
-0.01969545 -0.051972855 0.27897018 4291743438
-0.019185754 -0.051809862 0.2780953 4291743438
-0.018704135 -0.051716719 0.27759534 4291611854
-0.018257011 -0.051716719 0.27759534 4291875026
-0.01778583 -0.051646866 0.2772204 4291875026
-0.017339308 -0.051646866 0.2772204 4291743440
-0.016892787 -0.051646866 0.2772204 4291743440
-0.016446266 -0.051646866 0.2772204 4291611854
-0.015999746 -0.051646866 0.2772204 4291743440
-0.015588284 -0.051763289 0.27784532 4291611854
-0.015242922 -0.052112572 0.27972013 4291809233
-0.014818813 -0.052205712 0.28022006 4291809233
-0.014290561 -0.051926289 0.27872023 4291940562
-0.013829209 -0.051879715 0.27847025 4291940562
-0.013320619 -0.051646866 0.2772204 4291874769
-0.012868293 -0.051623579 0.27709541 4291874769
-0.012421973 -0.051623579 0.27709541 4291940562
-0.011975653 -0.051623579 0.27709541 4291940562
-0.011529334 -0.051623579 0.27709541 4291940562
-0.01109801 -0.051693432 0.27747035 4292072148
-0.010670279 -0.051786575 0.27797031 4292072148
-0.010250128 -0.051926289 0.27872023 4292072148
-0.0098011913 -0.051926289 0.27872023 4292137941
-0.0093774172 -0.052065998 0.27947015 4291874769
-0.0089751827 -0.052345421 0.28096998 4292006357
-0.008590864 -0.052764561 0.28321975 4291940564
-0.0080951899 -0.052508418 0.28184488 4292006357
-0.0076412205 -0.052508418 0.28184488 4291940564
-0.0071553788 -0.052275568 0.28059503 4291940564
-0.0066914782 -0.052182425 0.28009507 4292006357
-0.0062347567 -0.052135851 0.27984509 4292006355
-0.0057840082 -0.052135851 0.27984509 4292006355
-0.0053308783 -0.052112572 0.27972013 4292072148
-0.0048803305 -0.052112572 0.27972013 4292072148
-0.0044297832 -0.052112572 0.27972013 4292006612
-0.0039827912 -0.052159138 0.27997008 4291875026
-0.0035318413 -0.052159138 0.27997008 4291875026
-0.0030836421 -0.052205712 0.28022006 4291809233
-0.0026440304 -0.052438565 0.28146994 4291875028
-0.0022519485 -0.053905543 0.2893441 4291940821
-0.0017858997 -0.053905543 0.2893441 4292006614
-0.0013033169 -0.053230267 0.28571948 4292072407
-0.0008431063 -0.053230267 0.28571948 4292072407
-0.00037921072 -0.052717987 0.28296977 4292006614
7.6401891e-05 -0.052601565 0.28234485 4292269529
0.00053117704 -0.052601565 0.28234485 4292269529
0.00098595209 -0.052601565 0.28234485 4292137943
0.0014407273 -0.052601565 0.28234485 4292072150
0.0018963412 -0.052624844 0.28246981 4292137943
0.0023544389 -0.052694701 0.28284478 4292072150
0.0028137448 -0.052764561 0.28321975 4292203993
0.0032742578 -0.052834414 0.2835947 4292203993
0.0037310461 -0.052834414 0.2835947 4292203991
0.0041896803 -0.052857701 0.28371969 4292269784
0.0046507637 -0.052904271 0.28396967 4292203991
0.0051104045 -0.052927557 0.28409466 4292203991
0.0055704475 -0.052950837 0.28421962 4292335577
0.0060282419 -0.052950837 0.28421962 4292269784
0.006488889 -0.052974124 0.28434461 4292335320
0.0069499393 -0.05299741 0.2844696 4292401113
0.0074113915 -0.053020697 0.2845946 4292401113
0.0078732464 -0.053043984 0.28471959 4292335320
0.0083318474 -0.053043984 0.28471959 4292532699
0.0087981652 -0.053090554 0.28496957 4292335320
0.0092612272 -0.053113837 0.28509453 4292269786
0.0097332159 -0.053183693 0.2854695 4292269786
0.01020195 -0.053230267 0.28571948 4292269786
0.010662161 -0.053230267 0.28571948 4292269786
0.011132102 -0.053276833 0.28596944 4292335579
0.011602849 -0.053323407 0.28621942 4292401372
0.012074401 -0.053369977 0.2864694 4292401372
0.012541289 -0.053393263 0.28659439 4292269786
0.013002909 -0.053393263 0.28659439 4292335579
0.013488016 -0.053486403 0.28709432 4292335579
0.013986882 -0.053626113 0.28784424 4292401118
0.014481889 -0.053742543 0.2884692 4292401118
0.014972432 -0.053835683 0.28896913 4292401120
0.015464584 -0.053928822 0.28946906 4292269534
0.015930835 -0.053928822 0.28946906 4292269534
0.016425405 -0.054021966 0.28996903 4292269534
0.016936149 -0.054161679 0.29071894 4292335327
0.017441824 -0.054278102 0.29134387 4292269534
0.017941831 -0.054371249 0.29184383 4292269534
0.018435562 -0.054441102 0.29221877 4292203741
0.018906239 -0.054441102 0.29221877 4292401120
0.019393494 -0.054487672 0.29246876 4292401120
0.019881554 -0.054534245 0.29271874 4292335325
0.02037042 -0.054580811 0.29296869 4292401118
0.020851197 -0.054604098 0.29309368 4292336095
0.021323286 -0.054604098 0.29309368 4292401888
0.021813964 -0.054650672 0.29334366 4292204763
0.022305448 -0.054697242 0.29359365 4292204763
0.022807432 -0.054767095 0.29396859 4292270556
0.023320522 -0.054860242 0.29446855 4292336349
0.023794826 -0.054860242 0.29446855 4292402142
0.024310332 -0.054953378 0.29496849 4292533728
0.024869459 -0.055139661 0.29596838 4292664544
0.025431808 -0.055325948 0.29696828 4292532958
0.026019184 -0.055558797 0.29821813 4292532958
0.026610591 -0.055791654 0.29946801 4292664544
0.027194714 -0.05600122 0.3005929 4292532958
0.027759444 -0.05616422 0.30146781 4292467165
0.028303569 -0.056280643 0.30209273 4292532958
0.028790154 -0.056280643 0.30209273 4292532958
0.029313074 -0.056350496 0.30246767 4292402142
0.02984952 -0.056443643 0.30296764 4292402142
0.030362545 -0.056490213 0.30321762 4292402142
0.030901805 -0.056583352 0.30371755 4292402142
0.031442676 -0.056676492 0.30421749 4292402142
0.031932682 -0.056676492 0.30421749 4292336349
0.032502614 -0.056816209 0.30496743 4292336349
0.033102002 -0.057002485 0.3059673 4292270556
0.03373206 -0.057235342 0.30721718 4292270556
0.034380071 -0.057491478 0.30859202 4292336349
0.035018381 -0.057724334 0.3098419 4292138716
0.035632066 -0.057910617 0.3108418 4291941337
0.036263499 -0.05812018 0.31196666 4291941339
0.036869094 -0.05828318 0.31284156 4291875546
0.037372991 -0.05828318 0.31284156 4291875544
0.037997946 -0.058469463 0.31384146 4291941337
0.038610794 -0.058632459 0.31471637 4291809751
0.039241988 -0.058818743 0.31571627 4291809751
0.039876409 -0.059005026 0.31671616 4291612626
0.040529992 -0.059214596 0.31784105 4291349454
0.041219469 -0.059470732 0.31921589 4291283661
0.041864354 -0.059657015 0.32021579 4291217868
0.042380128 -0.059657015 0.32021579 4290954694
0.042996362 -0.059796728 0.32096571 4290823108
0.045116939 -0.059866585 0.32134068 4286215551
0.045634523 -0.059866585 0.32134068 4286742917
-0.094079174 -0.059002738 0.31946588 4289572265
-0.093564615 -0.059002738 0.31946588 4289967023
-0.093414091 -0.059233576 0.32071573 4289835437
-0.08667326 -0.055886395 0.30259266 4290164402
-0.086185873 -0.055886395 0.30259266 4290032816
-0.084742747 -0.055263124 0.29921803 4289835184
-0.084260784 -0.055263124 0.29921803 4290032563
-0.083708845 -0.055216957 0.29896805 4290032563
-0.083018526 -0.055078454 0.29821813 4289835184
-0.082538188 -0.055078454 0.29821813 4290098356
-0.082057849 -0.055078454 0.29821813 4290295735
-0.081645884 -0.055124622 0.29846811 4290229942
-0.081403062 -0.05528621 0.29934302 4290229942
-0.081089839 -0.055401631 0.29996794 4290229942
-0.080606677 -0.055401631 0.29996794 4290164149
-0.079989985 -0.055309296 0.29946801 4290295735
-0.079242155 -0.055124622 0.29846811 4290229942
-0.078761414 -0.055124622 0.29846811 4290164406
-0.077821732 -0.054801445 0.2967183 4290164406
-0.07708317 -0.054616772 0.2957184 4290230199
-0.076444969 -0.054501355 0.29509348 4290230199
-0.075808771 -0.054385938 0.29446855 4290230199
-0.075334474 -0.054385938 0.29446855 4290361785
-0.074860178 -0.054385938 0.29446855 4290361785
-0.074354291 -0.054362852 0.29434356 4290361785
-0.073880196 -0.054362852 0.29434356 4290361785
-0.07359311 -0.054501355 0.29509348 4290493371
-0.072901018 -0.054339767 0.29421857 4290493114
-0.071811765 -0.053878088 0.29171884 4290493114
-0.071341895 -0.053878088 0.29171884 4290493114
-0.07035581 -0.053485658 0.28959405 4290427321
-0.069798872 -0.053416409 0.28921911 4290493367
-0.069303058 -0.053393323 0.28909412 4290559160
-0.068718366 -0.053300984 0.28859416 4290427574
-0.068164848 -0.053231735 0.28821921 4290493367
-0.067700617 -0.053231735 0.28821921 4290493367
-0.067236379 -0.053231735 0.28821921 4290559160
-0.066830054 -0.053277902 0.2884692 4290493624
-0.066652954 -0.05350874 0.28971905 4290493624
-0.066214852 -0.053531826 0.28984404 4290493367
-0.065946467 -0.053693414 0.29071894 4290559160
-0.064802587 -0.053139396 0.28771925 4290493114
-0.064339153 -0.053139396 0.28771925 4290493114
-0.063265271 -0.052631553 0.28496957 4290558907
-0.062806264 -0.052631553 0.28496957 4290558907
-0.062347267 -0.052631553 0.28496957 4290624700
-0.06186112 -0.052608468 0.28484458 4290624700
-0.061402317 -0.052608468 0.28484458 4290624700
-0.06091677 -0.052585382 0.28471959 4290690493
-0.060458176 -0.052585382 0.28471959 4290624700
-0.059999574 -0.052585382 0.28471959 4290690493
-0.059723936 -0.05274697 0.28559449 4290624700
-0.059652966 -0.053093232 0.2874693 4290690493
-0.059344344 -0.053231735 0.28821921 4290624702
-0.058190707 -0.052608468 0.28484458 4290558909
-0.057731908 -0.052608468 0.28484458 4290690495
-0.056695092 -0.052077532 0.28196988 4290624702
-0.056141205 -0.0519852 0.28146994 4290690495
-0.05563838 -0.051939029 0.28121996 4290690495
-0.055185422 -0.051939029 0.28121996 4290690493
-0.054732457 -0.051939029 0.28121996 4290756286
-0.054279491 -0.051939029 0.28121996 4290756286
-0.05382653 -0.051939029 0.28121996 4290887872
-0.053468451 -0.052031364 0.28171989 4290690493
-0.053014684 -0.052031364 0.28171989 4290756286
-0.053960055 -0.053416409 0.28921911 4290756286
-0.053239908 -0.053162482 0.28784424 4290756286
-0.052776273 -0.053162482 0.28784424 4290756286
-0.052312646 -0.053162482 0.28784424 4290887872
-0.050925951 -0.052216034 0.28271979 4290887872
-0.050470572 -0.052216034 0.28271979 4290756286
-0.049639307 -0.051823612 0.28059503 4290690750
-0.049077798 -0.051708188 0.27997008 4290822336
-0.04860514 -0.051685102 0.27984509 4290888129
-0.048154391 -0.051685102 0.27984509 4290953922
-0.047703642 -0.051685102 0.27984509 4291019715
-0.04725289 -0.051685102 0.27984509 4290888129
-0.046948463 -0.05184669 0.28072 4290953922
-0.046910349 -0.052308377 0.28321975 4290888129
-0.046556666 -0.052423794 0.28384468 4290953922
-0.046282168 -0.052631553 0.28496957 4290888129
-0.045159932 -0.051869776 0.28084499 4290953665
-0.044707574 -0.051869776 0.28084499 4291019458
-0.043881007 -0.051431179 0.27847025 4291151044
-0.043218039 -0.05117726 0.27709541 4291151044
-0.042771719 -0.05117726 0.27709541 4291019458
-0.0423254 -0.05117726 0.27709541 4291151044
-0.041897971 -0.051200341 0.2772204 4291151044
-0.041414071 -0.051154174 0.27697042 4291085251
-0.040967952 -0.051154174 0.27697042 4291085251
-0.040466972 -0.051084921 0.27659544 4291151044
-0.039822526 -0.050830998 0.2752206 4291019715
-0.039379232 -0.050830998 0.2752206 4291085508
-0.038812157 -0.050669409 0.2743457 4291085508
-0.038370263 -0.050669409 0.2743457 4291151301
-0.037928373 -0.050669409 0.2743457 4291151301
-0.037486482 -0.050669409 0.2743457 4291282887
-0.037263989 -0.0509695 0.27597052 4291348423
-0.036869511 -0.051038753 0.27634549 4291414216
-0.036440868 -0.051061835 0.27647045 4291414216
-0.035995554 -0.051061835 0.27647045 4291414216
-0.035550244 -0.051061835 0.27647045 4291414216
-0.03510493 -0.051061835 0.27647045 4291348423
-0.034659617 -0.051061835 0.27647045 4291216837
-0.034338042 -0.051246509 0.27747035 4291348423
-0.034028519 -0.051454265 0.27859524 4291348423
-0.033579782 -0.051454265 0.27859524 4291414216
-0.032908093 -0.051108003 0.27672043 4291414216
-0.032374401 -0.0509695 0.27597052 4291414216
-0.031929895 -0.0509695 0.27597052 4291414216
-0.031471126 -0.050946414 0.27584553 4291414216
-0.03102682 -0.050946414 0.27584553 4291480009
-0.030582514 -0.050946414 0.27584553 4291480009
-0.030151863 -0.0509695 0.27597052 4291480009
-0.029707355 -0.0509695 0.27597052 4291480009
-0.029289354 -0.051015671 0.2762205 4291414216
-0.028883597 -0.051084921 0.27659544 4291348423
-0.028463785 -0.051131088 0.27684543 4291545802
-0.028081112 -0.051246509 0.27747035 4291480009
-0.027634189 -0.051246509 0.27747035 4291545802
-0.027224004 -0.051315762 0.27784532 4291545802
-0.026812613 -0.051385012 0.27822027 4291545802
-0.026317107 -0.051292676 0.27772033 4291545802
-0.025869779 -0.051292676 0.27772033 4291480266
-0.025399569 -0.051246509 0.27747035 4291480266
-0.024907688 -0.051154174 0.27697042 4291414473
-0.024461569 -0.051154174 0.27697042 4291414473
-0.024037126 -0.051200341 0.2772204 4291480266
-0.023590606 -0.051200341 0.2772204 4291480266
-0.023154516 -0.051223423 0.27734536 4291611852
-0.022758961 -0.051338848 0.27797031 4291611852
-0.022331296 -0.051385012 0.27822027 4291611854
-0.021942148 -0.051523514 0.27897018 4291743440
-0.021492809 -0.051523514 0.27897018 4291743440
-0.021062326 -0.051569682 0.27922016 4291546061
-0.020640265 -0.051638938 0.27959514 4291546061
-0.020153815 -0.0515466 0.27909517 4291743440
-0.019704275 -0.0515466 0.27909517 4291809233
-0.019194374 -0.051385012 0.27822027 4291743440
-0.018712558 -0.051292676 0.27772033 4291611854
-0.018265232 -0.051292676 0.27772033 4291743440
-0.017801866 -0.051246509 0.27747035 4291743440
-0.017347123 -0.051223423 0.27734536 4291611854
-0.016892787 -0.051200341 0.2772204 4291677390
-0.016446266 -0.051200341 0.2772204 4291808976
-0.015999746 -0.051200341 0.2772204 4291808976
-0.015588284 -0.051315762 0.27784532 4291808976
-0.015263353 -0.05173127 0.28009507 4291808976
-0.014924567 -0.052123703 0.28221986 4291874769
-0.014290561 -0.05147735 0.27872023 4291874769
-0.013841623 -0.05147735 0.27872023 4291874769
-0.013320619 -0.051200341 0.2772204 4291874769
-0.012874098 -0.051200341 0.2772204 4291940562
-0.012427576 -0.051200341 0.2772204 4291940562
-0.011975653 -0.05117726 0.27709541 4291874769
-0.011529334 -0.05117726 0.27709541 4291874769
-0.01109801 -0.051246509 0.27747035 4292006355
-0.010675076 -0.05136193 0.2780953 4292072148
-0.01025932 -0.051523514 0.27897018 4292072148
-0.0098099802 -0.051523514 0.27897018 4292072148
-0.0093816109 -0.051638938 0.27959514 4291940562
-0.0089751827 -0.051892858 0.28096998 4292006357
-0.008590864 -0.052308377 0.28321975 4291940564
-0.0080951899 -0.052054446 0.28184488 4291940564
-0.0076412205 -0.052054446 0.28184488 4291940564
-0.0071553788 -0.051823612 0.28059503 4291875028
-0.006694464 -0.051754355 0.28022006 4291875028
-0.0062347567 -0.051685102 0.27984509 4291940819
-0.0057840082 -0.051685102 0.27984509 4291940819
-0.0053332597 -0.051685102 0.27984509 4292006612
-0.0048825108 -0.051685102 0.27984509 4291940819
-0.0044317618 -0.051685102 0.27984509 4291875026
-0.0039827912 -0.051708188 0.27997008 4291809233
-0.0035318413 -0.051708188 0.27997008 4291940819
-0.0030836421 -0.051754355 0.28022006 4291875026
-0.0026440304 -0.0519852 0.28146994 4291875026
-0.0022519485 -0.05343949 0.2893441 4291940819
-0.0017858997 -0.05343949 0.2893441 4292006612
-0.0013033169 -0.052770056 0.28571948 4292006612
-0.0008431063 -0.052770056 0.28571948 4292006612
-0.00037921072 -0.052262206 0.28296977 4292006612
7.6435703e-05 -0.052169867 0.28246981 4292269527
0.00053117704 -0.052146789 0.28234485 4292335320
0.00098595209 -0.052146789 0.28234485 4292335320
0.0014407273 -0.052146789 0.28234485 4292137941
0.0018963412 -0.052169867 0.28246981 4292137941
0.0023544389 -0.05223912 0.28284478 4292072148
0.0028137448 -0.052308377 0.28321975 4292137941
0.0032757008 -0.052400708 0.28371969 4292137941
0.0037326906 -0.052400708 0.28371969 4292072405
0.0041915262 -0.052423794 0.28384468 4292203991
0.0046528107 -0.052469965 0.28409466 4292072405
0.0051126522 -0.052493043 0.28421962 4292203991
0.0055728969 -0.052516129 0.28434461 4292269784
0.006030893 -0.052516129 0.28434461 4292203991
0.0064917416 -0.052539211 0.2844696 4292269784
0.0069529931 -0.052562296 0.2845946 4292335577
0.0074146464 -0.052585382 0.28471959 4292269782
0.0078767026 -0.052608468 0.28484458 4292335575
0.0083355047 -0.052608468 0.28484458 4292467161
0.0087981652 -0.052631553 0.28496957 4292335575
0.0092652868 -0.052677717 0.28521952 4292269784
0.0097332159 -0.052723885 0.2854695 4292269784
0.010206413 -0.052793141 0.28584448 4292335577
0.010666826 -0.052793141 0.28584448 4292269784
0.011136968 -0.052839305 0.28609443 4292269784
0.011602849 -0.052862387 0.28621942 4292269784
0.012074401 -0.052908558 0.2864694 4292335577
0.012546758 -0.052954726 0.28671938 4292269784
0.01300858 -0.052954726 0.28671938 4292335577
0.013493888 -0.053047061 0.28721932 4292335577
0.013986882 -0.053162482 0.28784424 4292532701
0.014481889 -0.053277902 0.2884692 4292532701
0.014972432 -0.053370237 0.28896913 4292400861
0.015471262 -0.053485658 0.28959405 4292400861
0.015937714 -0.053485658 0.28959405 4292597470
0.016439566 -0.053601079 0.29021901 4292465884
0.016943431 -0.053716499 0.29084393 4292400091
0.017449306 -0.053831916 0.29146886 4292465884
0.017949514 -0.053924255 0.29196882 4292269275
0.018443447 -0.053993504 0.29234377 4292137689
0.018914325 -0.053993504 0.29234377 4292401118
0.019401783 -0.054039676 0.29259375 4292269532
0.019890044 -0.054085843 0.29284373 4292335325
0.02037042 -0.054108925 0.29296869 4292401118
0.020860089 -0.054155093 0.29321867 4292466911
0.021332379 -0.054155093 0.29321867 4292532704
0.021823261 -0.054201264 0.29346865 4292402142
0.022314942 -0.054247428 0.29371861 4292270556
0.022817129 -0.054316681 0.29409358 4292270556
0.023330418 -0.054409016 0.29459351 4292336349
0.023804924 -0.054409016 0.29459351 4292336349
0.024330935 -0.05452444 0.29521847 4292402142
0.024879962 -0.054686029 0.29609337 4292402140
0.025442511 -0.054870702 0.29709327 4292336347
0.02603009 -0.055101536 0.29834312 4292664542
0.026621697 -0.055332381 0.299593 4292532956
0.027206019 -0.055540133 0.30071786 4292467163
0.027759444 -0.05567864 0.30146781 4292467163
0.028315281 -0.055817146 0.30221772 4292664544
0.028802067 -0.055817146 0.30221772 4292664544
0.029325189 -0.055886395 0.30259266 4292532958
0.02984952 -0.055955648 0.30296764 4292532958
0.030375058 -0.056024898 0.30334258 4292467165
0.030901805 -0.056094151 0.30371755 4292467165
0.031455595 -0.056209568 0.30434248 4292336349
0.031945802 -0.056209568 0.30434248 4292402142
0.032515932 -0.056348074 0.30509239 4292468705
0.033129048 -0.05655583 0.30621728 4292139740
0.033745784 -0.056763589 0.30734217 4292270556
0.034380071 -0.056994427 0.30859202 4292270556
0.035018381 -0.057225268 0.3098419 4292138716
0.035632066 -0.057409942 0.3108418 4291941337
0.036263499 -0.057617694 0.31196666 4291810521
0.036869094 -0.057779282 0.31284156 4291744728
0.037372991 -0.057779282 0.31284156 4291744728
0.037982814 -0.057940871 0.31371647 4291744728
0.038610794 -0.058125544 0.31471637 4291678935
0.039226454 -0.058287133 0.31559128 4291613142
0.039860673 -0.058471803 0.31659117 4291350224
0.040514052 -0.058679562 0.31771606 4291218638
0.041203331 -0.058933482 0.3190909 4291152845
0.041864354 -0.059141241 0.32021579 4291021259
0.042380128 -0.059141241 0.32021579 4291020487
0.042996362 -0.059279744 0.32096571 4290757315
-0.093674295 -0.058236457 0.31809101 4289638058
-0.093161941 -0.058236457 0.31809101 4289769644
-0.093414091 -0.058716994 0.32071573 4289835437
-0.08663746 -0.05537612 0.30246767 4290163632
-0.086150274 -0.05537612 0.30246767 4290097839
-0.084742747 -0.054781172 0.29921803 4289966000
-0.084260784 -0.054781172 0.29921803 4290163379
-0.083708845 -0.054735404 0.29896805 4290163379
-0.083018526 -0.054598108 0.29821813 4290229172
-0.082538188 -0.054598108 0.29821813 4290294965
-0.082057849 -0.054598108 0.29821813 4290360758
-0.081645884 -0.054643877 0.29846811 4290360758
-0.081403062 -0.054804057 0.29934302 4290426551
-0.081056051 -0.054895584 0.29984295 4290229942
-0.080573089 -0.054895584 0.29984295 4290229942
-0.079989985 -0.054826938 0.29946801 4290229942
-0.079242155 -0.054643877 0.29846811 4290229942
-0.078761414 -0.054643877 0.29846811 4290229942
-0.077821732 -0.054323521 0.2967183 4290229942
-0.07708317 -0.054140456 0.2957184 4290295735
-0.076606862 -0.054140456 0.2957184 4290427321
-0.07593748 -0.05400316 0.29496849 4290427321
-0.075462371 -0.05400316 0.29496849 4290493114
-0.075050823 -0.054048929 0.29521847 4290361785
-0.074354291 -0.053888749 0.29434356 4290361785
-0.073880196 -0.053888749 0.29434356 4290230199
-0.073437266 -0.053911634 0.29446855 4290427578
-0.07252939 -0.053591274 0.29271874 4290493114
-0.071811765 -0.053408213 0.29171884 4290427321
-0.071097359 -0.053225148 0.29071894 4290427574
-0.070386179 -0.053042088 0.28971905 4290427574
-0.069798872 -0.052950557 0.28921911 4290493367
-0.069333024 -0.052950557 0.28921911 4290559160
-0.068718366 -0.052836142 0.28859416 4290493367
-0.068164848 -0.052767497 0.28821921 4290493367
-0.067700617 -0.052767497 0.28821921 4290493367
-0.067236379 -0.052767497 0.28821921 4290493367
-0.066830054 -0.052813262 0.2884692 4290427831
-0.066652954 -0.053042088 0.28971905 4290493624
-0.06624341 -0.053087853 0.28996903 4290493367
-0.065889761 -0.053179383 0.29046896 4290559160
-0.064830735 -0.052698847 0.28784424 4290493367
-0.064367101 -0.052698847 0.28784424 4290493367
-0.063348509 -0.052241191 0.28534451 4290493371
-0.062861353 -0.052218311 0.28521952 4290427578
-0.062401954 -0.052218311 0.28521952 4290427578
-0.061915401 -0.052195426 0.28509453 4290493371
-0.061429258 -0.052172549 0.28496957 4290558907
-0.060970258 -0.052172549 0.28496957 4290690493
-0.060537793 -0.052195426 0.28509453 4290624700
-0.060078587 -0.052195426 0.28509453 4290690493
-0.059750073 -0.052309845 0.28571948 4290624700
-0.059652966 -0.052630201 0.2874693 4290624700
-0.059344344 -0.052767497 0.28821921 4290624702
-0.05824177 -0.052195426 0.28509453 4290558909
-0.057377256 -0.051829308 0.28309476 4290624702
-0.056770489 -0.051692013 0.28234485 4290624702
-0.056191061 -0.051577594 0.28171989 4290690495
-0.055663109 -0.051508948 0.28134495 4290690495
-0.05520995 -0.051508948 0.28134495 4290624700
-0.054732457 -0.051486064 0.28121996 4290558907
-0.054279491 -0.051486064 0.28121996 4290690493
-0.053850453 -0.051508948 0.28134495 4290887872
-0.053515896 -0.051623359 0.28196988 4290690493
-0.053061724 -0.051623359 0.28196988 4290690493
-0.053960055 -0.052950557 0.28921911 4290690493
-0.053239908 -0.052698847 0.28784424 4290756286
-0.052409619 -0.052332725 0.28584448 4290756286
-0.05194921 -0.052332725 0.28584448 4290887872
-0.050858412 -0.051692013 0.28234485 4290887872
-0.050403636 -0.051692013 0.28234485 4290756286
-0.049595084 -0.051325887 0.28034505 4290822336
-0.049099706 -0.051280119 0.28009507 4290690750
-0.048626848 -0.051257234 0.27997008 4290690750
-0.048175897 -0.051257234 0.27997008 4290888129
-0.047703642 -0.051234353 0.27984509 4290953922
-0.04725289 -0.051234353 0.27984509 4290888129
-0.046948463 -0.05139453 0.28072 4290888129
-0.046931047 -0.05187507 0.28334472 4290888129
-0.046761669 -0.052195426 0.28509453 4290953922
-0.046302464 -0.052195426 0.28509453 4290888129
-0.045280516 -0.05155471 0.2815949 4290888129
-0.044826955 -0.05155471 0.2815949 4290888129
-0.043940093 -0.051051296 0.27884522 4291019715
-0.043276519 -0.050799582 0.27747035 4291019715
-0.042829596 -0.050799582 0.27747035 4291019715
-0.042382669 -0.050799582 0.27747035 4291085508
-0.041935749 -0.050799582 0.27747035 4291019715
-0.041470136 -0.050776698 0.27734536 4290953922
-0.041023411 -0.050776698 0.27734536 4290953922
-0.040540121 -0.050730936 0.27709541 4291019715
-0.039967205 -0.05057076 0.2762205 4291019715
-0.039522298 -0.05057076 0.2762205 4291085508
-0.038900565 -0.05034193 0.27497062 4291019715
-0.038457666 -0.05034193 0.27497062 4291085508
-0.038170286 -0.050547875 0.27609551 4291151301
-0.037810963 -0.050662287 0.27672043 4291151301
-0.03736525 -0.050662287 0.27672043 4291151301
-0.036919534 -0.050662287 0.27672043 4291151301
-0.036440868 -0.050616521 0.27647045 4291151301
-0.035995554 -0.050616521 0.27647045 4291282887
-0.035550244 -0.050616521 0.27647045 4291282887
-0.03510493 -0.050616521 0.27647045 4291282887
-0.034659617 -0.050616521 0.27647045 4291216837
-0.034353513 -0.050822467 0.27759534 4291348423
-0.034059051 -0.051051296 0.27884522 4291348423
-0.033609912 -0.051051296 0.27884522 4291348423
-0.032937821 -0.050708055 0.27697042 4291414216
-0.03240373 -0.05057076 0.2762205 4291414216
-0.031958818 -0.05057076 0.2762205 4291414216
-0.031485386 -0.050524991 0.27597052 4291414216
-0.031040877 -0.050524991 0.27597052 4291480009
-0.030610228 -0.050547875 0.27609551 4291480009
-0.030179175 -0.05057076 0.2762205 4291480009
-0.029734265 -0.05057076 0.2762205 4291480009
-0.029315857 -0.050616521 0.27647045 4291414216
-0.028896648 -0.050662287 0.27672043 4291414216
-0.028476635 -0.050708055 0.27697042 4291480009
-0.028081112 -0.050799582 0.27747035 4291480009
-0.027634189 -0.050799582 0.27747035 4291480009
-0.027224004 -0.050868232 0.27784532 4291545802
-0.026812613 -0.050936878 0.27822027 4291545802
-0.026364479 -0.050936878 0.27822027 4291480009
-0.025927991 -0.050959762 0.27834526 4291480009
-0.025422454 -0.050845351 0.27772033 4291480009
-0.024952646 -0.050799582 0.27747035 4291480009
-0.024505723 -0.050799582 0.27747035 4291480009
-0.024069635 -0.050822467 0.27759534 4291480266
-0.023622513 -0.050822467 0.27759534 4291480266
-0.023185821 -0.050845351 0.27772033 4291546059
-0.022779426 -0.050936878 0.27822027 4291611852
-0.02235136 -0.050982647 0.27847025 4291743440
-0.021942148 -0.051074173 0.27897018 4291743440
-0.021492809 -0.051074173 0.27897018 4291743440
-0.021062326 -0.051119942 0.27922016 4291546061
-0.020612584 -0.051119942 0.27922016 4291546061
-0.02014479 -0.051074173 0.27897018 4291611854
-0.01969545 -0.051074173 0.27897018 4291743440
-0.019194374 -0.050936878 0.27822027 4291611854
-0.018712558 -0.050845351 0.27772033 4291546061
-0.018265232 -0.050845351 0.27772033 4291546061
-0.017801866 -0.050799582 0.27747035 4291611854
-0.017347123 -0.050776698 0.27734536 4291611854
-0.016892787 -0.050753821 0.2772204 4291677390
-0.016446266 -0.050753821 0.2772204 4291808976
-0.015999746 -0.050753821 0.2772204 4292006355
-0.015588284 -0.050868232 0.27784532 4291808976
