# .PCD v0.7 - Point Cloud Data file format
VERSION 0.7
FIELDS x y z rgba
SIZE 4 4 4 4
TYPE F F F U
COUNT 1 1 1 1
WIDTH 1056
HEIGHT 1
VIEWPOINT 0 0 0 1 0 0 0
POINTS 1056
DATA ascii
0.057476204 0.086728498 0.54756647 4289899696
0.058358174 0.086728498 0.54756647 4290163381
0.059307758 0.086827487 0.54819143 4290163381
0.060218178 0.086867079 0.54844141 4290163381
0.06115726 0.086946271 0.54894137 4290163381
0.062041443 0.086946271 0.54894137 4290558911
0.023247963 0.088250406 0.55156606 4287990665
0.024136374 0.088250406 0.55156606 4287990665
0.025007773 0.088190407 0.55119109 4288121991
0.025877966 0.088130422 0.55081618 4287793026
0.026728731 0.08801043 0.55006623 4287793026
0.027614728 0.08801043 0.55006623 4287793026
0.028274065 0.087310515 0.54569173 4287989635
0.028952695 0.086710572 0.54194212 4287989635
0.029825605 0.086710572 0.54194212 4287989635
0.030613558 0.086470604 0.54044229 4287989635
0.031484053 0.086470604 0.54044229 4288120708
0.032369509 0.086510591 0.54069221 4288054915
0.033240408 0.086510591 0.54069221 4288383878
0.034111306 0.086510591 0.54069221 4288120706
0.034966033 0.086470604 0.54044229 4288318085
0.035836529 0.086470604 0.54044229 4288383878
0.036707021 0.086470604 0.54044229 4288515464
0.037568826 0.086450607 0.5403173 4288581257
0.038439117 0.086450607 0.5403173 4288647050
0.039309412 0.086450607 0.5403173 4288844429
0.040179707 0.086450607 0.5403173 4288515464
0.041059494 0.086470604 0.54044229 4288515464
0.04192999 0.086470604 0.54044229 4288911255
0.042790584 0.086450607 0.5403173 4289108634
0.043630581 0.086390607 0.53994232 4289109148
0.044500269 0.086390607 0.53994232 4289109148
0.04536996 0.086390607 0.53994232 4289240734
0.046250354 0.086410604 0.54006732 4289438113
0.047131147 0.086430609 0.54019231 4289504166
0.048134517 0.086670578 0.54169214 4289504166
0.049007021 0.086670578 0.54169214 4289504166
0.050052166 0.086970545 0.54356694 4289701545
0.05103308 0.087150522 0.5446918 4289833133
0.051981892 0.087270513 0.54544175 4289898926
0.052933116 0.087390497 0.54619163 4289833903
0.053812869 0.087390497 0.54619163 4290031282
0.054717656 0.087430492 0.54644161 4290162868
0.055661399 0.087530486 0.54706657 4290031282
0.056581322 0.087590478 0.54744154 4290031284
0.057528686 0.087690465 0.54806644 4290031284
0.058411457 0.087690465 0.54806644 4290229176
0.059307758 0.087710463 0.54819143 4290294969
0.060245626 0.087790459 0.54869139 4290229176
0.023258498 0.089179218 0.55181605 4288122505
0.024147313 0.089179218 0.55181605 4288122505
0.025019115 0.089118615 0.55144107 4288188296
0.025877966 0.08901763 0.55081618 4288056710
0.026728731 0.088896431 0.55006623 4287727747
0.027614728 0.088896431 0.55006623 4287793540
0.028274065 0.08818946 0.54569173 4287990405
0.028952695 0.08758349 0.54194212 4288253577
0.029825605 0.08758349 0.54194212 4288252807
0.030613558 0.0873411 0.54044229 4287858049
0.031484053 0.0873411 0.54044229 4288120708
0.032369509 0.08738149 0.54069221 4288120708
0.033240408 0.08738149 0.54069221 4288383880
0.034111306 0.08738149 0.54069221 4288120708
0.034974121 0.087361299 0.54056728 4288383880
0.035836529 0.0873411 0.54044229 4288449673
0.036707021 0.0873411 0.54044229 4288515466
0.037577517 0.0873411 0.54044229 4288647052
0.038439117 0.087320901 0.5403173 4288647052
0.039309412 0.087320901 0.5403173 4288844431
0.040189002 0.0873411 0.54044229 4288646798
0.041078482 0.08738149 0.54069221 4288515212
0.04194938 0.08738149 0.54069221 4288714139
0.042830177 0.087401688 0.5408172 4288779932
0.043711375 0.087421887 0.54094219 4289174692
0.044592977 0.087442093 0.54106718 4289174692
0.045464478 0.087442093 0.54106718 4289437864
0.04635739 0.08748249 0.54131716 4289569450
0.047262006 0.087543085 0.54169214 4289701036
0.048212256 0.087684475 0.54256701 4289766829
0.049086172 0.087684475 0.54256701 4289964206
0.050052166 0.087846078 0.54356694 4290095792
0.05103308 0.088027865 0.5446918 4289964719
0.051993806 0.088169262 0.54556674 4289898926
0.05294523 0.088290453 0.54631662 4290030514
0.053825185 0.088290453 0.54631662 4290293686
0.05476772 0.088391453 0.54694158 4290162870
0.05569955 0.088472255 0.54744154 4289965491
0.056607153 0.088512644 0.54769146 4290294969
0.057528686 0.08857324 0.54806644 4290689727
0.058411457 0.08857324 0.54806644 4290360508
0.059321281 0.088613644 0.54831642 4290360508
0.16306776 0.09966258 0.61668414 4288850603
0.023258498 0.090068027 0.55181605 4288188298
0.024147313 0.090068027 0.55181605 4288122505
0.025019115 0.090006821 0.55144107 4288188296
0.025872095 0.089884423 0.55069119 4288188296
0.02669229 0.089660011 0.54931629 4287859333
0.027577078 0.089660011 0.54931629 4288122505
0.028209303 0.088864394 0.54444182 4288122251
0.02893934 0.088415593 0.54169214 4288451216
0.029811848 0.088415593 0.54169214 4288581518
0.030613558 0.088211589 0.54044229 4288515725
0.031484053 0.088211589 0.54044229 4289042069
0.032369509 0.08825238 0.54069221 4288713104
0.033240408 0.08825238 0.54069221 4288515725
0.034111306 0.08825238 0.54069221 4288778897
0.034974121 0.088231988 0.54056728 4288581518
0.035836529 0.088211589 0.54044229 4288252553
0.036707021 0.088211589 0.54044229 4288713104
0.037577517 0.088211589 0.54044229 4288713104
0.038439117 0.088191189 0.5403173 4289042071
0.039309412 0.088191189 0.5403173 4289107864
0.040189002 0.088211589 0.54044229 4289107611
0.041078482 0.08825238 0.54069221 4289897127
0.04194938 0.08825238 0.54069221 4289240231
0.042830177 0.08827278 0.5408172 4289700782
0.043711375 0.08829318 0.54094219 4289701295
0.044592977 0.088313587 0.54106718 4289569709
0.045464478 0.088313587 0.54106718 4289635502
0.04635739 0.088354386 0.54131716 4289569709
0.047262006 0.088415593 0.54169214 4289898674
0.048212256 0.088558391 0.54256701 4289964467
0.049086172 0.088558391 0.54256701 4290030514
0.050052166 0.088721596 0.54356694 4290096307
0.05103308 0.0889052 0.5446918 4289964719
0.051993806 0.089048006 0.54556674 4289833133
0.05294523 0.089170404 0.54631662 4290359479
0.053825185 0.089170404 0.54631662 4290425272
0.05476772 0.08927241 0.54694158 4290359995
0.05569955 0.089354016 0.54744154 4290688960
0.056607153 0.089394808 0.54769146 4290426301
0.057528686 0.089456007 0.54806644 4290557887
0.058411457 0.089456007 0.54806644 4290426301
0.059321281 0.089496814 0.54831642 4290360508
0.023269035 0.090998046 0.55206603 4288188044
0.024158252 0.090998046 0.55206603 4288253837
0.025030456 0.090936236 0.55169106 4288188298
0.025848605 0.090689018 0.55019122 4288188298
0.026595119 0.090215184 0.54731655 4288056712
0.027476685 0.090215184 0.54731655 4288188298
0.028157497 0.089576527 0.54344195 4288253837
0.028925985 0.089246891 0.54144216 4288451216
0.02979809 0.089246891 0.54144216 4288648081
0.030613558 0.089082085 0.54044229 4289174425
0.031484053 0.089082085 0.54044229 4289240220
0.032362033 0.089102685 0.54056728 4288713876
0.033240408 0.089123279 0.54069221 4289174427
0.034111306 0.089123279 0.54069221 4289108634
0.034982201 0.089123279 0.54069221 4289240220
0.035836529 0.089082085 0.54044229 4288713876
0.036707021 0.089082085 0.54044229 4289963173
0.037577517 0.089082085 0.54044229 4289831587
0.03844801 0.089082085 0.54044229 4289306013
0.039318506 0.089082085 0.54044229 4289898150
0.040207587 0.089123279 0.54069221 4289700520
0.041087978 0.08914388 0.5408172 4289568934
0.041959081 0.08914388 0.5408172 4289503403
0.042840075 0.089164488 0.54094219 4289634989
0.043731578 0.08920569 0.54119217 4289504686
0.044613577 0.089226291 0.54131716 4289702065
0.045485482 0.089226291 0.54131716 4289570479
0.046389502 0.089288101 0.54169214 4289504686
0.047316529 0.089391105 0.54231703 4289767858
0.04823447 0.089473508 0.542817 4289833651
0.049108788 0.089473508 0.542817 4290030514
0.050075185 0.08963833 0.54381692 4290096307
0.051044792 0.089803144 0.54481679 4289964721
0.052005716 0.089947358 0.54569173 4290293686
0.052957341 0.090070963 0.54644161 4290425272
0.053837497 0.090070963 0.54644161 4290754237
0.054780237 0.090173975 0.54706657 4290689473
0.05571226 0.090256378 0.54756647 4290623680
0.056632988 0.090318181 0.54794145 4290295487
0.057528686 0.090338789 0.54806644 4290492866
0.058411457 0.090338789 0.54806644 4290427071
0.059321281 0.090379991 0.54831642 4290295485
0.060231902 0.0904212 0.5485664 4290295485
0.023290109 0.091970481 0.55256599 4288188044
0.024180131 0.091970481 0.55256599 4288319630
0.025041798 0.091866463 0.55194104 4288385163
0.025842734 0.091554418 0.55006623 4288319370
0.026595119 0.091096751 0.54731655 4288253577
0.027395116 0.09082631 0.54569173 4288319370
0.02811864 0.090327032 0.54269201 4288384909
0.028905954 0.090056591 0.54106718 4288582288
0.029777454 0.090056591 0.54106718 4288648081
0.030620638 0.089973383 0.54056728 4288845460
0.031491335 0.089973383 0.54056728 4288977048
0.032362033 0.089973383 0.54056728 4288977048
0.033232726 0.089973383 0.54056728 4289371036
0.034103423 0.089973383 0.54056728 4289371036
0.034966033 0.089952581 0.54044229 4289239967
0.035836529 0.089952581 0.54044229 4289568932
0.036707021 0.089952581 0.54044229 4289568932
0.037577517 0.089952581 0.54044229 4289634725
0.03844801 0.089952581 0.54044229 4289700518
0.039327599 0.089973383 0.54056728 4289832104
0.040207587 0.089994177 0.54069221 4289700520
0.041097473 0.090035789 0.54094219 4289634727
0.041968778 0.090035789 0.54094219 4289569450
0.042859871 0.090077393 0.54119217 4289635243
0.043751776 0.090119004 0.54144216 4289701549
0.044644482 0.090160608 0.54169214 4289833135
0.04551699 0.090160608 0.54169214 4289833135
0.046421614 0.090223022 0.54206711 4289833135
0.047338337 0.090306222 0.54256701 4289768112
0.048267789 0.090410247 0.54319197 4289833905
0.04921056 0.090535067 0.54394192 4290030514
0.050086692 0.090535067 0.54394192 4290096307
0.051056501 0.090701491 0.54494178 4290162098
0.052005716 0.09082631 0.54569173 4290359477
0.052957341 0.090951122 0.54644161 4290425272
0.053837497 0.090951122 0.54644161 4290622651
0.054780237 0.09105514 0.54706657 4290689473
0.05571226 0.091138348 0.54756647 4290689473
0.056632988 0.091200761 0.54794145 4290427073
0.057528686 0.091221564 0.54806644 4290492866
0.058411457 0.091221564 0.54806644 4290427071
0.059334803 0.091283977 0.54844141 4290427071
0.060231902 0.091304779 0.5485664 4290427071
0.061143335 0.091346383 0.54881638 4290427071
0.062027317 0.091346383 0.54881638 4290229951
0.023316447 0.092965521 0.55319089 4288515212
0.024207475 0.092965521 0.55319089 4288581005
0.02505314 0.092797488 0.55219102 4288581259
0.025842734 0.092440411 0.55006623 4288515466
0.026728731 0.092440411 0.55006623 4288450186
0.027395116 0.091705263 0.54569173 4288450186
0.02811864 0.091201149 0.54269201 4288515725
0.028905954 0.090928093 0.54106718 4288713104
0.029777454 0.090928093 0.54106718 4288648081
0.030627714 0.090865076 0.54069221 4288779667
0.031498615 0.090865076 0.54069221 4288910483
0.032362033 0.09084408 0.54056728 4288910483
0.033232726 0.09084408 0.54056728 4289239450
0.034103423 0.09084408 0.54056728 4289305243
0.034966033 0.090823077 0.54044229 4289305243
0.035836529 0.090823077 0.54044229 4289239450
0.036707021 0.090823077 0.54044229 4289568162
0.037577517 0.090823077 0.54044229 4289568162
0.03844801 0.090823077 0.54044229 4289897897
0.039327599 0.09084408 0.54056728 4289766311
0.040216882 0.090886086 0.5408172 4289700520
0.041106969 0.090928093 0.54106718 4289568934
0.041978475 0.090928093 0.54106718 4289634727
0.042869769 0.090970106 0.54131716 4289766313
0.043761875 0.091012113 0.54156715 4289766827
0.044665083 0.09107513 0.54194212 4289898413
0.045537997 0.09107513 0.54194212 4289833133
0.046432316 0.091117136 0.5421921 4289635754
0.047349244 0.091201149 0.54269201 4289964719
0.048290003 0.091327183 0.54344195 4289964719
0.049233168 0.091453202 0.54419184 4290030514
0.050109707 0.091453202 0.54419184 4290096307
0.051056501 0.091579229 0.54494178 4290359479
0.052005716 0.091705263 0.54569173 4290491065
0.052957341 0.091831282 0.54644161 4290490811
0.053837497 0.091831282 0.54644161 4290753983
0.054792754 0.091957316 0.54719156 4290755266
0.05571226 0.092020318 0.54756647 4290689473
0.056632988 0.092083335 0.54794145 4290624450
0.057541803 0.092125349 0.54819143 4290558657
0.058424778 0.092125349 0.54819143 4290492864
0.059334803 0.092167355 0.54844141 4290492864
0.060245626 0.092209369 0.54869139 4290492864
0.061143335 0.092230372 0.54881638 4290492864
0.062027317 0.092230372 0.54881638 4290427071
0.023316447 0.093856551 0.55319089 4288581005
0.024207475 0.093856551 0.55319089 4288581005
0.02505314 0.093686908 0.55219102 4288581259
0.025836861 0.0933052 0.54994124 4288515466
0.026722657 0.0933052 0.54994124 4288581259
0.027382566 0.092541799 0.54544175 4288515466
0.028079785 0.09194804 0.54194212 4288450186
0.028885921 0.091735974 0.54069221 4288581772
0.029756818 0.091735974 0.54069221 4288713104
0.030613558 0.091693573 0.54044229 4288713104
0.031476773 0.091672368 0.5403173 4288515725
0.032347064 0.091672368 0.5403173 4288515725
0.033225045 0.091693573 0.54044229 4288581518
0.034095541 0.091693573 0.54044229 4288844690
0.034966033 0.091693573 0.54044229 4288976278
0.035836529 0.091693573 0.54044229 4289042071
0.036707021 0.091693573 0.54044229 4289436827
0.037577517 0.091693573 0.54044229 4288976276
0.03844801 0.091693573 0.54044229 4289371036
0.039327599 0.091714777 0.54056728 4289502622
0.040216882 0.091757186 0.5408172 4289568164
0.041106969 0.091799594 0.54106718 4289568164
0.041978475 0.091799594 0.54106718 4289568934
0.042869769 0.091842011 0.54131716 4289568934
0.043761875 0.091884419 0.54156715 4289897899
0.044665083 0.09194804 0.54194212 4289634727
0.045537997 0.09194804 0.54194212 4289701034
0.046432316 0.091990456 0.5421921 4289701034
0.047349244 0.092075273 0.54269201 4289898926
0.048290003 0.092202507 0.54344195 4289898926
0.049233168 0.092329741 0.54419184 4289898928
0.050109707 0.092329741 0.54419184 4290096307
0.051056501 0.092456974 0.54494178 4290161846
0.052005716 0.092584215 0.54569173 4290425018
0.052957341 0.092711441 0.54644161 4290294202
0.053837497 0.092711441 0.54644161 4290623167
0.054792754 0.092838682 0.54719156 4290755268
0.05571226 0.092902288 0.54756647 4290755268
0.056632988 0.092965908 0.54794145 4290755268
0.057541803 0.093008325 0.54819143 4290689475
0.058424778 0.093008325 0.54819143 4290492864
0.059334803 0.093050733 0.54844141 4290558657
0.060245626 0.093093149 0.54869139 4290558657
0.061143335 0.093114354 0.54881638 4290558657
0.062027317 0.093114354 0.54881638 4290492864
0.023337519 0.094833203 0.55369085 4288646798
0.024229353 0.094833203 0.55369085 4288646798
0.025075823 0.094661951 0.55269098 4288778384
0.025836861 0.094190992 0.54994124 4288581005
0.026722657 0.094190992 0.54994124 4288515466
0.02737629 0.093398936 0.54531676 4288515466
0.028079785 0.092820942 0.54194212 4288450186
0.028872568 0.092564061 0.54044229 4288450186
0.029743064 0.092564061 0.54044229 4288515725
0.030599399 0.09252125 0.54019231 4288515725
0.03146949 0.09252125 0.54019231 4288449932
0.032339584 0.09252125 0.54019231 4288449932
0.033209674 0.09252125 0.54019231 4288449932
0.034079768 0.09252125 0.54019231 4288778897
0.034957945 0.092542656 0.5403173 4288581520
0.03582824 0.092542656 0.5403173 4288976278
0.036698531 0.092542656 0.5403173 4288976276
0.037568826 0.092542656 0.5403173 4288910483
0.03844801 0.092564061 0.54044229 4288976276
0.039327599 0.092585467 0.54056728 4289042069
0.040216882 0.092628278 0.5408172 4289239967
0.041106969 0.092671089 0.54106718 4289371553
0.041978475 0.092671089 0.54106718 4289305764
0.042879667 0.092735313 0.54144216 4289371557
0.043782078 0.092799537 0.54181713 4289568936
0.044675384 0.092842355 0.54206711 4289568936
0.045548499 0.092842355 0.54206711 4289832108
0.046453718 0.092906564 0.54244202 4289832108
0.047371056 0.092992194 0.54294199 4289898415
0.048301112 0.093099236 0.54356694 4289964208
0.049244478 0.09322767 0.54431683 4289898928
0.050121214 0.09322767 0.54431683 4289898928
0.051068213 0.093356118 0.54506677 4290031030
0.052017622 0.093484558 0.54581666 4290228409
0.052957341 0.093591593 0.54644161 4290294204
0.053837497 0.093591593 0.54644161 4290688962
0.054792754 0.093720041 0.54719156 4290886341
0.055724978 0.093805663 0.54769146 4290952134
0.056632988 0.093848474 0.54794145 4290821061
0.057568043 0.093934111 0.54844141 4290689475
0.058451422 0.093934111 0.54844141 4290558659
0.059361845 0.093976922 0.54869139 4290558659
0.06025935 0.093998335 0.54881638 4290558657
0.071732044 0.10014215 0.58468753 4290559938
0.072673805 0.10014215 0.58468753 4291152075
0.022445686 0.095725045 0.55369085 4288450702
0.023337519 0.095725045 0.55369085 4288582288
0.024229353 0.095725045 0.55369085 4288450702
0.025092833 0.095616996 0.5530659 4288581518
0.025872095 0.095206447 0.55069119 4288581518
0.026582971 0.094579801 0.54706657 4288449932
0.02737629 0.094277285 0.54531676 4288449932
0.028066833 0.093650639 0.54169214 4288449932
0.028865892 0.093412951 0.5403173 4288449932
0.029736185 0.093412951 0.5403173 4288253323
0.030578157 0.093326516 0.53981733 4288319116
0.031447645 0.093326516 0.53981733 4288319116
0.032324616 0.093348123 0.53994232 4288253323
0.033209674 0.093391344 0.54019231 4288121739
0.034079768 0.093391344 0.54019231 4287332223
0.034957945 0.093412951 0.5403173 4288120969
0.03582824 0.093412951 0.5403173 4288449934
0.036698531 0.093412951 0.5403173 4288713104
0.037568826 0.093412951 0.5403173 4288778897
0.03844801 0.093434557 0.54044229 4288910483
0.039327599 0.093456164 0.54056728 4288976276
0.040226176 0.093520984 0.54094219 4288976027
0.041116469 0.093564205 0.54119217 4289370785
0.041988172 0.093564205 0.54119217 4289239971
0.042889569 0.093629032 0.54156715 4289239971
0.043792177 0.09369386 0.54194212 4289371557
0.044685688 0.093737073 0.5421921 4289371557
0.045559 0.093737073 0.5421921 4289634729
0.046475127 0.0938235 0.54269201 4289832108
0.047392864 0.093909942 0.54319197 4289701549
0.048323322 0.094017982 0.54381692 4289898928
0.049255785 0.094126016 0.54444182 4289767858
0.050132725 0.094126016 0.54444182 4289767858
0.051079921 0.094255671 0.54519176 4289965750
0.052029535 0.094385318 0.54594165 4290163129
0.05298157 0.094514973 0.5466916 4290228922
0.053862128 0.094514973 0.5466916 4290557887
0.054805268 0.094623022 0.54731655 4290886852
0.055737697 0.094709441 0.54781646 4290886852
0.056671746 0.094795883 0.54831642 4290690245
0.057620525 0.094903924 0.54894137 4290624452
0.058504704 0.094903924 0.54894137 4290558659
0.059483543 0.095055178 0.54981625 4290558659
0.067006111 0.099657767 0.57643843 4290690754
0.067934588 0.099657767 0.57643843 4290822340
0.068863064 0.099657767 0.57643843 4290888133
0.070063919 0.10004672 0.5786882 4290953926
0.071379371 0.10058692 0.58181286 4290953926
0.072596125 0.10097587 0.58406258 4290953926
0.022445686 0.096616879 0.55369085 4288450704
0.023337519 0.096616879 0.55369085 4288450702
0.024229353 0.096616879 0.55369085 4288450702
0.025121188 0.096616879 0.55369085 4288450702
0.025919069 0.096267924 0.55169106 4288384909
0.026582971 0.095460966 0.54706657 4288515725
0.027464136 0.095460966 0.54706657 4288449932
0.028066833 0.094523147 0.54169214 4288319118
0.028865892 0.094283246 0.5403173 4288319118
0.029736185 0.094283246 0.5403173 4288253325
0.030578157 0.094195999 0.53981733 4288253325
0.031447645 0.094195999 0.53981733 4288187532
0.032324616 0.094217815 0.53994232 4288187532
0.033209674 0.094261438 0.54019231 4287990153
0.034079768 0.094261438 0.54019231 4287792774
0.034957945 0.094283246 0.5403173 4288120456
0.03582824 0.094283246 0.5403173 4288383628
0.036698531 0.094283246 0.5403173 4288646798
0.037568826 0.094283246 0.5403173 4288646798
0.03844801 0.094305053 0.54044229 4288778897
0.039336689 0.094348669 0.54069221 4288910483
0.040226176 0.094392285 0.54094219 4288976025
0.041116469 0.094435908 0.54119217 4289107611
0.041988172 0.094435908 0.54119217 4289108383
0.042899467 0.094523147 0.54169214 4289174176
0.043802276 0.094588578 0.54206711 4289174690
0.044706285 0.094654001 0.54244202 4289240483
0.045580003 0.094654001 0.54244202 4289372584
0.046496537 0.09474124 0.54294199 4289504170
0.047414675 0.094828486 0.54344195 4289701549
0.048334431 0.094915725 0.54394192 4289833135
0.049267095 0.095024765 0.54456681 4289636785
0.050144233 0.095024765 0.54456681 4289702578
0.051091634 0.095155634 0.54531676 4290097336
0.052041449 0.095286481 0.54606664 4290163129
0.052993681 0.095417343 0.54681659 4290294715
0.05387444 0.095417343 0.54681659 4290557887
0.054817785 0.095526397 0.54744154 4290821061
0.055763129 0.095635436 0.54806644 4290886854
0.056736339 0.095788114 0.54894137 4290690247
0.057672996 0.095875345 0.54944128 4290624454
0.058557983 0.095875345 0.54944128 4290558659
0.059524111 0.096006207 0.55019122 4290558659
0.067006111 0.10058624 0.57643843 4290887879
0.067934588 0.10058624 0.57643843 4290887879
0.068863064 0.10058624 0.57643843 4290953926
0.070063919 0.10097881 0.5786882 4290953926
0.071379371 0.10152406 0.58181286 4290953926
0.072596125 0.10191663 0.58406258 4291019719
0.12848327 0.10693286 0.61280954 4282268996
0.12923267 0.10673657 0.61168468 4282532168
0.13021792 0.10673657 0.61168468 4283190100
0.13090825 0.10649665 0.61030978 4286479750
0.021544121 0.097464688 0.55344087 4288318865
0.022435552 0.097464688 0.55344087 4288450451
0.023337519 0.097508714 0.55369085 4288450704
0.024229353 0.097508714 0.55369085 4288582290
0.025121188 0.097508714 0.55369085 4288582290
0.025919069 0.097156532 0.55169106 4288450704
0.026582971 0.096342131 0.54706657 4288581518
0.027464136 0.096342131 0.54706657 4288449932
0.028157497 0.09570381 0.54344195 4288187530
0.028872568 0.095175549 0.54044229 4288319116
0.029743064 0.095175549 0.54044229 4288253325
0.030592317 0.095109515 0.54006732 4288253325
0.031454928 0.095087506 0.53994232 4288187532
0.032324616 0.095087506 0.53994232 4288121739
0.033209674 0.095131531 0.54019231 4287990153
0.034079768 0.095131531 0.54019231 4287858567
0.034949858 0.095131531 0.54019231 4288186249
0.03582824 0.09515354 0.5403173 4288383628
0.036698531 0.09515354 0.5403173 4288449934
0.037568826 0.09515354 0.5403173 4288449934
0.03844801 0.095175549 0.54044229 4288713106
0.039336689 0.095219567 0.54069221 4288844692
0.040226176 0.095263585 0.54094219 4288910232
0.041116469 0.095307611 0.54119217 4288976025
0.041988172 0.095307611 0.54119217 4289108381
0.042899467 0.095395662 0.54169214 4289108381
0.043802276 0.095461696 0.54206711 4289108897
0.044706285 0.095527716 0.54244202 4289240483
0.045580003 0.095527716 0.54244202 4289372582
0.046496537 0.095615767 0.54294199 4289372582
0.047414675 0.09570381 0.54344195 4289504686
0.048334431 0.095791861 0.54394192 4289702065
0.049267095 0.095901906 0.54456681 4289636785
0.050144233 0.095901906 0.54456681 4289702578
0.051091634 0.096033975 0.54531676 4289834934
0.052041449 0.096166037 0.54606664 4290032313
0.052993681 0.096298106 0.54681659 4290229692
0.05387444 0.096298106 0.54681659 4290427071
0.054817785 0.096408166 0.54744154 4290492866
0.055763129 0.096518219 0.54806644 4290887624
0.056736339 0.096672297 0.54894137 4290756040
0.057672996 0.096760333 0.54944128 4290624454
0.058557983 0.096760333 0.54944128 4290624454
0.059524111 0.096892402 0.55019122 4290624454
0.064414613 0.10037015 0.56993914 4290690245
0.065332621 0.10037015 0.56993914 4290756038
0.066512138 0.10076634 0.57218885 4290887881
0.067816742 0.10133862 0.5754385 4290953674
0.068743609 0.10133862 0.5754385 4291019465
0.069942854 0.10173482 0.57768828 4291019465
0.07127203 0.1023071 0.58093792 4290953672
0.12965517 0.10807399 0.61368442 4282401352
0.13064364 0.10807399 0.61368442 4282861135
0.13149805 0.10796394 0.61305952 4284637546
0.13208036 0.10763377 0.61118472 4287401874
0.13306481 0.10763377 0.61118472 4290230973
0.021544121 0.09835612 0.55344087 4288253586
0.022435552 0.09835612 0.55344087 4288319379
0.023348056 0.098444976 0.55394083 4288450704
0.024251232 0.098489404 0.55419081 4288450704
0.025149543 0.098511614 0.55431581 4288713106
0.025995405 0.09833391 0.55331588 4288581520
0.026734805 0.097778603 0.55019122 4288515725
0.027621001 0.097778603 0.55019122 4288449932
0.028157497 0.096579142 0.54344195 4288121737
0.028872568 0.096046045 0.54044229 4288253323
0.029743064 0.096046045 0.54044229 4288187530
0.030592317 0.095979407 0.54006732 4288187530
0.031454928 0.095957197 0.53994232 4288187530
0.032324616 0.095957197 0.53994232 4287990151
0.033209674 0.096001625 0.54019231 4287924358
0.034079768 0.096001625 0.54019231 4287858565
0.034949858 0.096001625 0.54019231 4288055176
0.03582824 0.096023835 0.5403173 4288318348
0.036698531 0.096023835 0.5403173 4288253325
0.037568826 0.096023835 0.5403173 4288319118
0.03844801 0.096046045 0.54044229 4288450704
0.039336689 0.096090466 0.54069221 4288582290
0.040226176 0.096134886 0.54094219 4288713623
0.041125964 0.096201532 0.54131716 4288779416
0.041997869 0.096201532 0.54131716 4288977309
0.042899467 0.09626817 0.54169214 4289043102
0.043812376 0.096357018 0.5421921 4289174688
0.044716585 0.096423648 0.54256701 4289240481
0.045590505 0.096423648 0.54256701 4289372582
0.046517942 0.096534714 0.54319197 4289372582
0.047425579 0.096601352 0.54356694 4289439660
0.048356637 0.09671241 0.54419184 4289637039
0.049289711 0.096823476 0.54481679 4289637039
0.050167251 0.096823476 0.54481679 4289768625
0.051103342 0.096934542 0.54544175 4289769398
0.052053358 0.097067811 0.54619163 4290032570
0.053005796 0.097201087 0.54694158 4290098363
0.053886756 0.097201087 0.54694158 4290493121
0.054842811 0.097334355 0.54769146 4290624452
0.055788565 0.097445421 0.54831642 4290887624
0.056762174 0.097600907 0.54919136 4290887624
0.057686117 0.097667538 0.54956627 4290690245
0.058571305 0.097667538 0.54956627 4290624452
0.059537634 0.097800821 0.55031621 4290690245
0.06042403 0.097800821 0.55031621 4290756038
0.064329855 0.10115488 0.56918919 4290887624
0.065246649 0.10115488 0.56918919 4290953417
0.066337794 0.10142142 0.57068902 4290887881
0.067257002 0.10142142 0.57068902 4290953674
0.068534568 0.10195451 0.57368869 4291019465
0.069852069 0.10253204 0.57693839 4291019465
0.071180031 0.10310956 0.58018804 4291019465
0.13222189 0.10955113 0.61643416 4283125079
0.1329447 0.10932902 0.61518431 4286283141
0.1332825 0.10879591 0.61218458 4288717482
0.13426855 0.10879591 0.61218458 4291744728
0.1340948 0.10786299 0.60693514 4293060588
0.021558717 0.099314794 0.55381584 4288319632
0.022450753 0.099314794 0.55381584 4288319632
0.023384931 0.0994941 0.55481571 4288451218
0.024289517 0.099538922 0.55506569 4288319632
0.025183564 0.099538922 0.55506569 4288778897
0.02603651 0.099382035 0.55419081 4288515725
0.026850199 0.099090658 0.55256599 4288449932
0.027740221 0.099090658 0.55256599 4288449932
0.028287014 0.09790273 0.54594165 4288187530
0.028912632 0.09705101 0.54119217 4288253323
0.029784333 0.09705101 0.54119217 4288187530
0.030585237 0.096826881 0.53994232 4288121737
0.031454928 0.096826881 0.53994232 4288187530
0.0323321 0.096849293 0.54006732 4287990151
0.033209674 0.096871704 0.54019231 4287924358
0.034079768 0.096871704 0.54019231 4287858565
0.034949858 0.096871704 0.54019231 4287858565
0.03582824 0.096894123 0.5403173 4287858565
0.036698531 0.096894123 0.5403173 4287990667
0.037568826 0.096894123 0.5403173 4288122253
0.03844801 0.096916534 0.54044229 4288319632
0.039336689 0.096961357 0.54069221 4288451218
0.040235471 0.097028598 0.54106718 4288582551
0.04113546 0.09709584 0.54144216 4288582551
0.042007565 0.09709584 0.54144216 4288845723
0.042919263 0.0971855 0.54194212 4289043102
0.043822471 0.097252734 0.54231703 4289174688
0.04473719 0.097342387 0.542817 4289240481
0.045611512 0.097342387 0.542817 4289372580
0.046528649 0.097432047 0.54331696 4289372580
0.047447391 0.097521707 0.54381692 4289504938
0.048378851 0.097633764 0.54444182 4289570731
0.049312327 0.097745836 0.54506677 4289702832
0.05019027 0.097745836 0.54506677 4289900211
0.051126763 0.097857907 0.54569173 4289966520
0.052077182 0.097992383 0.54644161 4290032313
0.053030021 0.098126873 0.54719156 4290098363
0.053911384 0.098126873 0.54719156 4290493121
0.054867841 0.098261349 0.54794145 4290822088
0.055814002 0.098373421 0.5485664 4290887881
0.056775086 0.098507896 0.54931629 4290887624
0.057699237 0.098575138 0.54969126 4290690245
0.058584627 0.098575138 0.54969126 4290690245
0.059524111 0.098664798 0.55019122 4290690245
0.06042403 0.098687209 0.55031621 4290953417
0.064202718 0.10186995 0.56806433 4290953417
0.065117709 0.10186995 0.56806433 4291085003
0.06616345 0.10207167 0.56918919 4291019467
0.067080244 0.10207167 0.56918919 4291085260
0.068325534 0.10256476 0.57193887 4291019465
0.069655336 0.10316993 0.57531351 4291019465
0.07107269 0.10388717 0.5793131 4291151051
0.13200064 0.11119401 0.62005877 4282467917
0.13222189 0.11054402 0.61643416 4282270538
0.1329447 0.11031989 0.61518431 4284573041
0.1332825 0.10978195 0.61218458 4287402140
0.13426855 0.10978195 0.61218458 4289705658
0.1340948 0.10884058 0.60693514 4292995308
0.021597641 0.10038774 0.55481571 4288517009
0.022491286 0.10038774 0.55481571 4288319630
0.023416542 0.10052343 0.55556566 4288517009
0.024316864 0.10054605 0.55569065 4288451216
0.025211919 0.10054605 0.55569065 4288582288
0.026077613 0.10043298 0.55506569 4288319116
0.026923079 0.10025206 0.55406582 4288384139
0.027815517 0.10025206 0.55406582 4288449932
0.028416535 0.099234387 0.54844141 4288318346
0.028979402 0.09814886 0.54244202 4288384139
0.029853119 0.09814886 0.54244202 4288778897
0.030585237 0.097696573 0.53994232 4288318346
0.031454928 0.097696573 0.53994232 4288449932
0.0323321 0.097719185 0.54006732 4288120967
0.033209674 0.097741805 0.54019231 4287924358
0.034079768 0.097741805 0.54019231 4287858565
0.034949858 0.097741805 0.54019231 4287792772
0.035819951 0.097741805 0.54019231 4287726979
0.036698531 0.097764418 0.5403173 4287859079
0.037568826 0.097764418 0.5403173 4288122251
0.03844801 0.09778703 0.54044229 4288188559
0.039336689 0.097832255 0.54069221 4288385938
0.040235471 0.0979001 0.54106718 4288385687
0.04113546 0.097967945 0.54144216 4288385687
0.042007565 0.097967945 0.54144216 4288583064
0.042919263 0.09805841 0.54194212 4289043615
0.04383257 0.09814886 0.54244202 4289109408
0.04474749 0.098239325 0.54294199 4289175201
0.045622014 0.098239325 0.54294199 4289372580
0.046539351 0.09832979 0.54344195 4289504166
0.047469199 0.09844286 0.54406685 4289570729
0.048401065 0.098555937 0.5446918 4289570729
0.049334943 0.098669015 0.54531676 4289702832
0.050213289 0.098669015 0.54531676 4289900211
0.051161893 0.098804697 0.54606664 4289966520
0.052112918 0.098940395 0.54681659 4290032313
0.053066354 0.099076077 0.54756647 4290163901
0.053948324 0.099076077 0.54756647 4290492866
0.054892875 0.099189155 0.54819143 4290822090
0.055852152 0.099324845 0.54894137 4290887883
0.056788005 0.099415302 0.54944128 4290822088
0.057712357 0.099483147 0.54981625 4290624709
0.058597948 0.099483147 0.54981625 4290690245
0.059524111 0.099550992 0.55019122 4290690245
0.060451478 0.099618845 0.5505662 4290953417
0.064202718 0.10278493 0.56806433 4291019210
0.065117709 0.10278493 0.56806433 4291085003
0.06616345 0.10298847 0.56918919 4291085260
0.067080244 0.10298847 0.56918919 4291019467
0.068325534 0.10348599 0.57193887 4291085258
0.069655336 0.10409659 0.57531351 4291085258
0.13200064 0.11219275 0.62005877 4282271051
0.13299936 0.11219275 0.62005877 4282534223
0.13383603 0.11205706 0.61930883 4282600534
0.13412605 0.11146907 0.61605918 4284903289
0.13511835 0.11146907 0.61605918 4287864226
0.13442616 0.11008956 0.60843498 4291482841
0.020736644 0.10144111 0.55569065 4288451470
0.021597641 0.10128139 0.55481571 4288517263
0.022491286 0.10128139 0.55481571 4288517263
0.023416542 0.10141829 0.55556566 4288517263
0.024316864 0.10144111 0.55569065 4288517263
0.025211919 0.10144111 0.55569065 4288582288
0.026077613 0.10132702 0.55506569 4288319116
0.026923079 0.1011445 0.55406582 4288384139
0.027815517 0.1011445 0.55406582 4288581518
0.028455392 0.10025467 0.54919136 4288581770
0.028992757 0.099068217 0.54269201 4287397496
0.029866876 0.099068217 0.54269201 4286804844
0.030592317 0.098589078 0.54006732 4286015328
0.031462211 0.098589078 0.54006732 4287593077
0.0323321 0.098589078 0.54006732 4288185214
0.033209674 0.098611899 0.54019231 4288580489
0.034079768 0.098611899 0.54019231 4288646282
0.034949858 0.098611899 0.54019231 4288844944
0.035819951 0.098611899 0.54019231 4288515979
0.036698531 0.098634712 0.5403173 4288319884
0.037568826 0.098634712 0.5403173 4288583056
0.03844801 0.098657526 0.54044229 4288188559
0.039336689 0.098703153 0.54069221 4288188559
0.040244766 0.098794423 0.54119217 4288385687
0.041144956 0.098862872 0.54156715 4288385687
0.042017262 0.098862872 0.54156715 4288780443
0.042919263 0.09893132 0.54194212 4289043615
0.04383257 0.099022582 0.54244202 4289109408
0.04474749 0.099113852 0.54294199 4289240994
0.045622014 0.099113852 0.54294199 4289307557
0.046539351 0.099205114 0.54344195 4289439143
0.047469199 0.09931919 0.54406685 4289702315
0.048401065 0.099433273 0.5446918 4289570729
0.049334943 0.099547364 0.54531676 4289637039
0.050213289 0.099547364 0.54531676 4289834418
0.051161893 0.099684253 0.54606664 4289966520
0.052112918 0.099821158 0.54681659 4290032313
0.053066354 0.099958047 0.54756647 4290098108
0.053948324 0.099958047 0.54756647 4290492866
0.054892875 0.10007213 0.54819143 4290624711
0.055852152 0.10020903 0.54894137 4290953676
0.056788005 0.10030029 0.54944128 4290887881
0.057712357 0.10036875 0.54981625 4290624709
0.058597948 0.10036875 0.54981625 4290690245
0.059524111 0.10043719 0.55019122 4290690245
0.060451478 0.10050564 0.5505662 4290953417
0.064047329 0.10344893 0.56668943 4291085003
0.0649601 0.10344893 0.56668943 4291085003
0.066061758 0.10374556 0.56831431 4291085003
0.066977143 0.10374556 0.56831431 4291085003
0.068116494 0.10408779 0.57018906 4291085258
0.069473743 0.10474946 0.57381368 4291085258
0.13418716 0.1133512 0.62093365 4282534995
0.13382673 0.11221039 0.61468434 4282929753
0.13481681 0.11221039 0.61468434 4286614161
0.13412242 0.11081859 0.60706013 4289574846
0.1351002 0.11081859 0.60706013 4292863724
0.020736644 0.10233617 0.55569065 4288451729
0.021631699 0.10233617 0.55569065 4288582802
0.022526754 0.10233617 0.55569065 4288582802
0.023453416 0.10247426 0.55644053 4288582802
0.024349678 0.10247426 0.55644053 4288451216
0.025245942 0.10247426 0.55644053 4288648083
0.026118718 0.10238221 0.55594063 4288319118
0.026959516 0.10217504 0.55481571 4288581259
0.027853163 0.10217504 0.55481571 4288054915
0.028455392 0.10113925 0.54919136 4285817949
0.028992757 0.099942334 0.54269201 4284765261
0.029866876 0.099942334 0.54269201 4284830284
0.030585237 0.099435955 0.53994232 4285093456
0.031454928 0.099435955 0.53994232 4285750359
0.032324616 0.099435955 0.53994232 4284960843
0.033194307 0.099435955 0.53994232 4284303690
0.034063999 0.099435955 0.53994232 4283843139
0.034933686 0.099435955 0.53994232 4284107594
0.035819951 0.099481992 0.54019231 4285226075
0.036690041 0.099481992 0.54019231 4285622632
0.037560135 0.099481992 0.54019231 4286806906
0.038439117 0.099505007 0.5403173 4287925136
0.039336689 0.099574052 0.54069221 4288780445
0.040244766 0.099666126 0.54119217 4288648346
0.041144956 0.099735178 0.54156715 4288516760
0.042017262 0.099735178 0.54156715 4288845723
0.042929161 0.099827252 0.54206711 4289108895
0.04384267 0.099919319 0.54256701 4289175201
0.044757791 0.10001139 0.54306698 4289240994
0.045632515 0.10001139 0.54306698 4289438373
0.046560761 0.10012648 0.54369193 4289635752
0.047491007 0.10024156 0.54431683 4289702315
0.048423279 0.10035665 0.54494178 4289702315
0.049368866 0.10049476 0.54569173 4289834418
0.050247818 0.10049476 0.54569173 4289834418
0.051208735 0.10065588 0.54656661 4289966520
0.052160565 0.10079399 0.54731655 4290098106
0.053114809 0.10093209 0.54806644 4290163901
0.05399758 0.10093209 0.54806644 4290558659
0.054955453 0.1010702 0.54881638 4290624711
0.055903014 0.10118528 0.54944128 4290887883
0.056839678 0.10127736 0.54994124 4291019212
0.057777956 0.10136943 0.55044121 4290690247
0.058664553 0.10136943 0.55044121 4290886854
0.059551157 0.10136943 0.55044121 4290886854
0.060478926 0.10143849 0.55081618 4291084233
0.063906074 0.10413153 0.56543958 4291085003
0.064816833 0.10413153 0.56543958 4291150796
0.065916464 0.10443076 0.5670644 4291019210
0.066829838 0.10443076 0.5670644 4291019210
0.067922391 0.10470697 0.56856424 4291085003
0.069216497 0.10528242 0.57168895 4291085003
0.07072001 0.10615709 0.57643843 4291019465
0.13382673 0.11320046 0.61468434 4282534221
0.13481681 0.11320046 0.61468434 4284705140
0.13412242 0.11179639 0.60706013 4287994790
0.1351002 0.11179639 0.60706013 4291876829
0.020745972 0.10327765 0.55594063 4288582802
0.02164143 0.10327765 0.55594063 4288714388
0.022536889 0.10327765 0.55594063 4288648595
0.023458684 0.10339374 0.55656552 4288648597
0.024360618 0.10341696 0.55669051 4288517011
0.025279967 0.10350984 0.55719048 4288582290
0.026165694 0.1034634 0.5569405 4288384911
0.027002031 0.10323121 0.55569065 4288646282
0.027840612 0.10302224 0.55456573 4285882976
0.028520152 0.10225602 0.55044121 4285291089
0.028999435 0.10083967 0.542817 4284764745
0.029873755 0.10083967 0.542817 4284961357
0.030578157 0.10028242 0.53981733 4283645497
0.031447645 0.10028242 0.53981733 4282789938
0.032324616 0.10030563 0.53994232 4282197801
0.033194307 0.10030563 0.53994232 4281344037
0.034063999 0.10030563 0.53994232 4281409830
0.034933686 0.10030563 0.53994232 4281410600
0.035803378 0.10030563 0.53994232 4281476393
0.036690041 0.10035207 0.54019231 4281937460
0.037560135 0.10035207 0.54019231 4282858562
0.038439117 0.10037529 0.5403173 4283844691
0.039336689 0.10044494 0.54069221 4286147446
0.040244766 0.10053782 0.54119217 4288120718
0.041116469 0.10053782 0.54119217 4289370785
0.042017262 0.10060748 0.54156715 4289043102
0.042929161 0.10070036 0.54206711 4289043102
0.043852773 0.10081644 0.54269201 4289175201
0.044768091 0.10090932 0.54319197 4289240994
0.045643017 0.10090932 0.54319197 4289438373
0.046571463 0.10102542 0.54381692 4289635752
0.047512818 0.10116473 0.54456681 4289702317
0.048467703 0.10132727 0.54544175 4289768110
0.049414091 0.10146657 0.54619163 4289834418
0.050293848 0.10146657 0.54619163 4289834418
0.051267285 0.10165233 0.54719156 4289966774
0.052232031 0.10181486 0.54806644 4290098360
0.05318749 0.10195418 0.54881638 4290163899
0.054071467 0.10195418 0.54881638 4290558657
0.055018026 0.10207026 0.54944128 4290690247
0.055979319 0.10220958 0.55019122 4290953419
0.056917191 0.10230246 0.55069119 4290887883
0.057856668 0.10239533 0.55119109 4290690504
0.058744475 0.10239533 0.55119109 4290756040
0.059686374 0.10248821 0.55169106 4290887626
0.060712218 0.10272039 0.55294091 4290953419
0.062062364 0.10348662 0.55706549 4291019212
0.063821316 0.10490298 0.5646897 4291150796
0.064730868 0.10490298 0.5646897 4291150796
0.06564042 0.10490298 0.5646897 4291085003
0.06665308 0.10506551 0.56556457 4290953417
0.067788005 0.10541379 0.56743938 4291019210
0.069019772 0.10590139 0.57006413 4291019210
0.070474662 0.10671405 0.57443863 4291019208
0.13317366 0.11363328 0.61168468 4282862927
0.13415891 0.11363328 0.61168468 4283192155
0.13365297 0.11237945 0.60493535 4286416012
0.13462734 0.11237945 0.60493535 4289903037
0.13431294 0.11131139 0.599186 4292732136
0.020769291 0.10429021 0.55656552 4288582802
0.021665756 0.10429021 0.55656552 4288714388
0.022562221 0.10429021 0.55656552 4288648595
0.023469221 0.10433705 0.55681551 4288714390
0.024387967 0.10443074 0.55731547 4288648597
0.025285639 0.10443074 0.55731547 4288778897
0.026183311 0.10443074 0.55731547 4289107862
0.027050616 0.10431363 0.55669051 4287724151
0.027840612 0.10391548 0.55456573 4285158224
0.028733855 0.10391548 0.55456573 4285158476
0.0291864 0.10236976 0.54631662 4285026890
0.030066356 0.10236976 0.54631662 4283054647
0.030578157 0.10115191 0.53981733 4282396717
0.031447645 0.10115191 0.53981733 4281805876
0.032324616 0.10117532 0.53994232 4281476911
0.033194307 0.10117532 0.53994232 4281477422
0.034063999 0.10117532 0.53994232 4281543215
0.034933686 0.10117532 0.53994232 4281609006
0.035803378 0.10117532 0.53994232 4281609006
0.036690041 0.10122216 0.54019231 4281674799
0.037560135 0.10122216 0.54019231 4281477420
0.038439117 0.10124559 0.5403173 4281476397
0.039336689 0.10131584 0.54069221 4282989636
0.040244766 0.10140952 0.54119217 4283908683
0.041116469 0.10140952 0.54119217 4286737782
0.042026959 0.10150321 0.54169214 4288844439
0.042939059 0.10159689 0.5421921 4289765541
0.043852773 0.10169057 0.54269201 4289175201
0.044768091 0.10178425 0.54319197 4289240994
0.045643017 0.10178425 0.54319197 4289373354
0.046582166 0.10192478 0.54394192 4289439147
0.04753463 0.10208871 0.54481679 4289702319
0.048512127 0.10229949 0.54594165 4289768112
0.049493246 0.10251028 0.54706657 4289834164
0.050374415 0.10251028 0.54706657 4289834164
0.051325835 0.10265079 0.54781646 4289966520
0.052303504 0.10283817 0.54881638 4290098106
0.053260162 0.10297868 0.54956627 4290163899
0.054219238 0.1031192 0.55031621 4290558657
0.055105638 0.1031192 0.55031621 4290690247
0.05605562 0.10323631 0.55094117 4291019212
0.057046369 0.10342366 0.55194104 4291085262
0.058027223 0.10358761 0.55281591 4290887883
0.058917645 0.10358761 0.55281591 4290953419
0.059889205 0.10372813 0.55356586 4290953419
0.061014134 0.10412627 0.55569065 4291019212
0.062062364 0.10438389 0.55706549 4291085005
0.063821316 0.10581253 0.5646897 4291216589
0.064730868 0.10581253 0.5646897 4291216589
0.06564042 0.10581253 0.5646897 4291085003
0.06665308 0.10597647 0.56556457 4290953417
0.067788005 0.10632777 0.56743938 4290953417
0.069019772 0.1068196 0.57006413 4290953417
0.13317366 0.11461853 0.61168468 4282402887
0.13415891 0.11461853 0.61168468 4282270536
0.13268648 0.11253413 0.60056084 4284310119
0.1336538 0.11253413 0.60056084 4288126115
0.020769291 0.10518668 0.55656552 4288583315
0.021665756 0.10518668 0.55656552 4288649108
0.022562221 0.10518668 0.55656552 4288649108
0.023469221 0.10523392 0.55681551 4288649110
0.024387967 0.10532841 0.55731547 4288583317
0.02530265 0.10539928 0.55769044 4288648083
0.026200928 0.10539928 0.55769044 4289306013
0.02712957 0.10551738 0.55831534 4287657588
0.027966106 0.10528117 0.55706549 4284960075
0.028863376 0.10528117 0.55706549 4284696903
0.029760646 0.10528117 0.55706549 4281933597
0.031454928 0.10204501 0.53994232 4280953133
0.032324616 0.10204501 0.53994232 4281084719
0.033194307 0.10204501 0.53994232 4280953131
0.034063999 0.10204501 0.53994232 4281084717
0.034933686 0.10204501 0.53994232 4281084717
0.035811663 0.10206864 0.54006732 4281150510
0.036690041 0.10209227 0.54019231 4281346604
0.037560135 0.10209227 0.54019231 4281280811
0.038439117 0.10211588 0.5403173 4281609006
0.039336689 0.10218674 0.54069221 4281937971
0.040244766 0.10228123 0.54119217 4281869868
0.041116469 0.10228123 0.54119217 4283251521
0.042026959 0.10237572 0.54169214 4285487202
0.042948954 0.10249382 0.54231703 4288579473
0.043862872 0.10258831 0.542817 4290030512
0.044778395 0.1026828 0.54331696 4289175203
0.045653522 0.1026828 0.54331696 4289242027
0.046592865 0.10282452 0.54406685 4289439406
0.04753463 0.10296626 0.54481679 4289505971
0.048512127 0.10317884 0.54594165 4289571764
0.049493246 0.10339145 0.54706657 4289769141
0.050374415 0.10339145 0.54706657 4289769141
0.051325835 0.10353317 0.54781646 4289834934
0.052303504 0.10372215 0.54881638 4289966520
0.053260162 0.10386387 0.54956627 4290163899
0.054219238 0.1040056 0.55031621 4290558657
0.055105638 0.1040056 0.55031621 4290690247
0.05605562 0.10412372 0.55094117 4291085005
0.057046369 0.10431268 0.55194104 4291150798
0.058027223 0.10447803 0.55281591 4290953419
0.058917645 0.10447803 0.55281591 4290953419
0.059889205 0.10461976 0.55356586 4291085005
0.061014134 0.10502134 0.55569065 4291019210
0.062062364 0.10528117 0.55706549 4291150796
0.063793063 0.10667484 0.56443971 4291216589
0.064702213 0.10667484 0.56443971 4291216589
0.065611362 0.10667484 0.56443971 4291085003
0.066608883 0.10681656 0.5651896 4290887624
0.067698419 0.10710002 0.56668943 4290953417
0.068868443 0.10750159 0.56881422 4290953417
0.070244655 0.10821024 0.57256383 4290953415
0.13268648 0.11350146 0.60056084 4282928720
0.1336538 0.11350146 0.60056084 4286019969
0.020769291 0.10608314 0.55656552 4288452499
0.021665756 0.10608314 0.55656552 4288518292
0.022562221 0.10608314 0.55656552 4288452499
0.023469221 0.10613079 0.55681551 4288452501
0.024387967 0.10622609 0.55731547 4288452501
0.02530265 0.10629755 0.55769044 4288517009
0.026200928 0.10629755 0.55769044 4289043353
0.02712957 0.10641667 0.55831534 4287000944
0.027966106 0.10617844 0.55706549 4283711294
0.028863376 0.10617844 0.55706549 4282658614
0.029753968 0.10615461 0.5569405 4282066477
0.030651037 0.10615461 0.5569405 4281281326
0.031454928 0.10291471 0.53994232 4280821804
0.032324616 0.10291471 0.53994232 4280821804
0.033194307 0.10291471 0.53994232 4280821802
0.034063999 0.10291471 0.53994232 4280821802
0.034933686 0.10291471 0.53994232 4280953131
0.035811663 0.10293853 0.54006732 4281084717
0.036690041 0.10296236 0.54019231 4281215531
0.037560135 0.10296236 0.54019231 4281083945
0.038439117 0.10298618 0.5403173 4281346857
0.039336689 0.10305764 0.54069221 4281544236
0.040244766 0.10315293 0.54119217 4281806125
0.041116469 0.10315293 0.54119217 4282266676
0.042026959 0.10324823 0.54169214 4282133044
0.042948954 0.10336734 0.54231703 4284304213
0.043852773 0.10343881 0.54269201 4287858318
0.044768091 0.1035341 0.54319197 4290161073
0.045643017 0.1035341 0.54319197 4289111211
0.046582166 0.10367704 0.54394192 4289374383
0.047545534 0.10386762 0.54494178 4289440435
0.048545446 0.10412967 0.54631662 4289506228
0.049549781 0.10439172 0.54769146 4289703350
0.050431956 0.10439172 0.54769146 4289769143
0.051407807 0.10458231 0.54869139 4290032313
0.052363057 0.10472524 0.54944128 4289966520
0.053332843 0.10489201 0.55031621 4290295485
0.054305434 0.10505876 0.55119109 4290558657
0.055193245 0.10505876 0.55119109 4290690245
0.056157354 0.1052017 0.55194104 4291150796
0.057123881 0.10534465 0.55269098 4291216591
0.058119059 0.10553522 0.55369085 4291085005
0.059010893 0.10553522 0.55369085 4291019212
0.060092036 0.10586874 0.55544066 4291150798
0.061165091 0.10617844 0.55706549 4291150798
0.062354777 0.10667871 0.55969018 4291150798
0.063623555 0.10729811 0.56293988 4291216589
0.064702213 0.10758399 0.56443971 4291216589
0.065611362 0.10758399 0.56443971 4291216589
0.066579424 0.10767927 0.56493962 4290953417
0.067653626 0.10794133 0.56631452 4290953417
0.068762518 0.10825103 0.56793934 4290953417
0.070060648 0.1088466 0.571064 4290953415
0.011282973 0.11065531 0.57568848 4288651161
0.012167824 0.11027092 0.57368869 4288453782
0.013091869 0.11027092 0.57368869 4288322450
0.014009808 0.11022288 0.57343876 4288256657
0.01493345 0.11022288 0.57343876 4288124817
0.015891654 0.11046312 0.57468861 4288190610
0.016875831 0.11084751 0.57668841 4288190612
0.017804708 0.11084751 0.57668841 4288190612
0.020778621 0.10702766 0.55681551 4288453012
0.021675486 0.10702766 0.55681551 4288649878
0.022572353 0.10702766 0.55681551 4288518292
0.023506099 0.10719583 0.55769044 4288518294
0.024420781 0.1072679 0.55806535 4288452501
0.025348015 0.10738802 0.55869031 4288517522
0.026242029 0.107364 0.55856532 4288254350
0.027135644 0.10733997 0.55844033 4287068020
0.028035128 0.10733997 0.55844033 4282791475
0.028934611 0.10733997 0.55844033 4282001971
0.029753968 0.10705169 0.5569405 4281738799
0.030375894 0.10609072 0.55194104 4280887343
0.031264909 0.10609072 0.55194104 4280821550
0.032324616 0.1037844 0.53994232 4280625195
0.033194307 0.1037844 0.53994232 4280690986
0.034063999 0.1037844 0.53994232 4280690986
0.03494177 0.10380843 0.54006732 4280821800
0.035811663 0.10380843 0.54006732 4281019179
0.036690041 0.10383245 0.54019231 4281215531
0.037560135 0.10383245 0.54019231 4281083945
0.038439117 0.10385647 0.5403173 4281215784
0.039336689 0.10392854 0.54069221 4281413163
0.040244766 0.10402464 0.54119217 4281741615
0.041116469 0.10402464 0.54119217 4281873201
