# .PCD v0.7 - Point Cloud Data file format
VERSION 0.7
FIELDS x y z rgba
SIZE 4 4 4 4
TYPE F F F U
COUNT 1 1 1 1
WIDTH 997
HEIGHT 1
VIEWPOINT 0 0 0 1 0 0 0
POINTS 997
DATA ascii
0.036558524 -0.0053715087 0.43507853 4290163119
0.03725931 -0.0053715087 0.43507853 4290163119
0.037960093 -0.0053715087 0.43507853 4290163119
0.038671985 -0.0053730514 0.43520349 4290163119
0.039361663 -0.0053715087 0.43507853 4290228912
0.040039431 -0.0053684223 0.43482855 4290228912
0.040704679 -0.0053637926 0.43445358 4290163119
0.041404456 -0.0053637926 0.43445358 4290163119
0.042104237 -0.0053637926 0.43445358 4290228912
0.042791698 -0.0053622494 0.43432859 4290426291
0.043491274 -0.0053622494 0.43432859 4290426291
0.044203568 -0.0053637926 0.43445358 4290426291
0.044903345 -0.0053637926 0.43445358 4290426291
0.045616247 -0.0053653358 0.43457857 4290360498
0.046329543 -0.005366879 0.43470356 4290426291
0.047070295 -0.0053715087 0.43507853 4290426291
0.047798522 -0.0053745946 0.43532848 4290426289
0.048499711 -0.0053745946 0.43532848 4290426289
0.049243275 -0.0053792237 0.43570346 4290558388
0.049973723 -0.0053823101 0.43595344 4290558388
0.050690442 -0.0053838529 0.4360784 4290426804
0.051392835 -0.0053838529 0.4360784 4290558390
0.052110165 -0.0053853961 0.43620339 4290624183
0.052812759 -0.0053853961 0.43620339 4290689976
0.053515356 -0.0053853961 0.43620339 4290689976
0.05421795 -0.0053853961 0.43620339 4290624183
0.054920547 -0.0053853961 0.43620339 4290624183
0.055655021 -0.0053884825 0.43645337 4290689976
0.056390304 -0.0053915689 0.43670335 4290689976
0.057126377 -0.0053946548 0.43695331 4290689976
0.057830185 -0.0053946548 0.43695331 4290821562
0.058600962 -0.0054008272 0.43745327 4290821562
0.059339464 -0.0054039136 0.43770325 4290690746
0.060095914 -0.0054085427 0.43807819 4290690746
0.060836218 -0.0054116286 0.43832818 4290756539
0.061542239 -0.0054116286 0.43832818 4290756539
0.062283762 -0.005414715 0.43857816 4290756539
0.06300813 -0.0054162578 0.43870312 4290690746
0.063769206 -0.0054208874 0.43907809 4290887872
0.064476438 -0.0054208874 0.43907809 4290887872
0.065202221 -0.0054224306 0.43920308 4290690493
0.065965913 -0.0054270597 0.43957803 4290887872
0.06673082 -0.0054316889 0.439953 4290822336
0.067516088 -0.0054378612 0.44045293 4290953922
0.068225533 -0.0054378612 0.44045293 4290888129
0.068993658 -0.0054424908 0.44082791 4290822336
0.069762997 -0.0054471199 0.44120288 4290888129
0.070533536 -0.0054517491 0.44157782 4290953922
0.071305282 -0.0054563787 0.44195279 4290888129
0.072017141 -0.0054563787 0.44195279 4290888129
0.072770134 -0.0054594646 0.44220275 4290888129
0.073565476 -0.005465637 0.44270271 4291019715
0.074341446 -0.0054702661 0.44307765 4291019711
0.075055115 -0.0054702661 0.44307765 4291085504
0.075854279 -0.0054764389 0.44357762 4291019711
0.076676629 -0.005484154 0.44420254 4291019711
0.077522762 -0.0054934127 0.44495246 4291019711
0.078371309 -0.005502671 0.44570237 4291085504
0.079089209 -0.005502671 0.44570237 4291085504
0.079986148 -0.0055150161 0.44670227 4291151297
0.080863729 -0.0055258176 0.44757718 4291151297
0.08174412 -0.0055366191 0.44845209 4291151297
0.082604349 -0.0055458779 0.449202 4291217090
0.083327882 -0.0055458779 0.449202 4291217090
0.084191732 -0.0055551361 0.44995192 4291151301
0.085058011 -0.0055643953 0.45070186 4291151301
0.08587911 -0.0055705672 0.4512018 4291085508
0.086725816 -0.0055782828 0.45182672 4291151301
0.087453574 -0.0055782828 0.45182672 4291151303
0.088303305 -0.0055859983 0.45245168 4291282889
0.089155048 -0.0055937138 0.4530766 4291151303
0.090033591 -0.0056029726 0.45382652 4291151303
0.090964556 -0.0056153173 0.45482641 4291151303
0.091697149 -0.0056153173 0.45482641 4291151303
0.092683733 -0.0056307479 0.45607626 4291085510
0.093725562 -0.0056492654 0.45757613 4290822338
0.094668992 -0.00566161 0.45857602 4291019717
0.095719673 -0.0056801271 0.46007586 4291019717
0.096460722 -0.0056801271 0.46007586 4290953922
0.097360209 -0.0056893858 0.46082577 4290690750
0.098448366 -0.0057094456 0.46245059 4290822336
0.099702597 -0.0057387645 0.46482533 4291085508
-0.016314806 -0.004980674 0.46395043 4289240984
-0.015567518 -0.004980674 0.46395043 4289240984
-0.014808252 -0.0049766488 0.46357548 4289372056
-0.014061568 -0.0049766488 0.46357548 4289569435
-0.013318473 -0.0049779904 0.46370047 4289635230
-0.012571587 -0.0049779904 0.46370047 4289569437
-0.011824701 -0.0049779904 0.46370047 4289635230
-0.011077816 -0.0049779904 0.46370047 4289701023
-0.010325359 -0.0049753068 0.46345049 4289635744
-0.0095788762 -0.0049753068 0.46345049 4289701537
-0.0087752249 -0.004943104 0.4604508 4289635744
-0.0079572489 -0.0048961421 0.45607626 4289635744
-0.0072226441 -0.0048961421 0.45607626 4289635744
-0.0064809262 -0.0048907748 0.45557633 4289504158
-0.0057392423 -0.0048840661 0.45495141 4289504671
-0.0050009466 -0.0048786988 0.45445144 4289504671
-0.0042689582 -0.0048786988 0.45445144 4289439648
-0.0035340514 -0.0048746737 0.4540765 4289505441
-0.0028011238 -0.0048719901 0.45382652 4289439648
-0.0020690013 -0.0048693065 0.45357653 4289571234
-0.0013384219 -0.0048693065 0.45357653 4289505441
-0.00060734013 -0.0048652813 0.45320159 4289505441
0.00012246624 -0.0048585725 0.45257664 4289702050
0.00084978912 -0.0048491796 0.45170173 4289702050
0.0015773487 -0.0048491796 0.45170173 4289833636
0.0022991686 -0.0048371041 0.45057687 4289702050
0.003014008 -0.0048196609 0.44895205 4289701537
0.0037267345 -0.0048062429 0.44770217 4289635744
0.0044478523 -0.0048062429 0.44770217 4289701537
0.0051603112 -0.0047981925 0.44695225 4289701537
0.0058769323 -0.0047955089 0.44670227 4289767330
0.0065927478 -0.0047928253 0.44645229 4289767330
0.0073118517 -0.0047928253 0.44645229 4289767328
0.0080287084 -0.0047914837 0.44632733 4289635742
0.0087402621 -0.0047874581 0.44595236 4289767328
0.0094479583 -0.0047820914 0.44545242 4289701535
0.010165451 -0.0047820914 0.44545242 4289701535
0.010870731 -0.0047767241 0.44495246 4289701535
0.0115744 -0.0047713569 0.44445252 4289636255
0.012276458 -0.0047659897 0.44395256 4289570462
0.012991536 -0.0047659897 0.44395256 4289636255
0.013695038 -0.0047619645 0.44357762 4289636255
0.014389211 -0.0047552558 0.44295269 4289702050
0.015094155 -0.0047525722 0.44270271 4289636257
0.015807221 -0.0047525722 0.44270271 4289701537
0.016506294 -0.0047485465 0.44232774 4289767330
0.017199293 -0.0047431798 0.4418278 4289636257
0.017885614 -0.004736471 0.44120288 4289636257
0.018596264 -0.004736471 0.44120288 4289439648
0.019263158 -0.0047257366 0.44020298 4289505441
0.019926829 -0.0047150026 0.43920308 4289505441
0.020634256 -0.0047150026 0.43920308 4289505441
0.021317393 -0.0047096349 0.43870312 4289373855
0.021998916 -0.0047042682 0.43820319 4289439648
0.02267883 -0.004698901 0.43770325 4289570980
0.023383843 -0.004698901 0.43770325 4289570980
0.024075096 -0.0046962174 0.43745327 4289702820
0.024758466 -0.0046921922 0.4370783 4289702820
0.025447911 -0.0046895086 0.43682835 4289899429
0.026136549 -0.004686825 0.43657836 4289899429
0.026839748 -0.004686825 0.43657836 4289964968
0.02752718 -0.0046841414 0.43632838 4289899175
0.028213801 -0.0046814578 0.4360784 4289964968
0.028899623 -0.0046787746 0.43582845 4290030761
0.029601613 -0.0046787746 0.43582845 4289964968
0.030294918 -0.0046774326 0.43570346 4290096554
0.030978922 -0.004674749 0.43545347 4290096554
0.031680312 -0.004674749 0.43545347 4290096554
0.032381702 -0.004674749 0.43545347 4290096554
0.033073593 -0.0046734069 0.43532848 4290162347
0.033774782 -0.0046734069 0.43532848 4290162347
0.034475967 -0.0046734069 0.43532848 4290162347
0.035187256 -0.004674749 0.43545347 4290031531
0.035888642 -0.004674749 0.43545347 4290031531
0.036579527 -0.0046734069 0.43532848 4290163119
0.037280716 -0.0046734069 0.43532848 4290163119
0.037981901 -0.0046734069 0.43532848 4290163119
0.03868309 -0.0046734069 0.43532848 4290031533
0.039361663 -0.0046707238 0.43507853 4290228912
0.040050939 -0.0046693822 0.43495354 4290031533
0.040739808 -0.0046680402 0.43482855 4290163119
0.041440193 -0.0046680402 0.43482855 4290163119
0.042128462 -0.0046666982 0.43470356 4290228912
0.042828642 -0.0046666982 0.43470356 4290360498
0.043528825 -0.0046666982 0.43470356 4290360498
0.044229001 -0.0046666982 0.43470356 4290360498
0.044929184 -0.0046666982 0.43470356 4290360498
0.045655604 -0.0046693822 0.43495354 4290294705
0.046382826 -0.0046720654 0.43520349 4290360498
0.047110859 -0.004674749 0.43545347 4290426291
0.047853418 -0.0046787746 0.43582845 4290360496
0.048555411 -0.0046787746 0.43582845 4290294703
0.04928565 -0.0046814578 0.4360784 4290426802
0.050031029 -0.0046854834 0.43645337 4290426802
0.050763089 -0.004688167 0.43670335 4290426802
0.051466487 -0.004688167 0.43670335 4290558388
0.052184824 -0.0046895086 0.43682835 4290624181
0.052888423 -0.0046895086 0.43682835 4290624181
0.05360736 -0.0046908502 0.43695331 4290624183
0.05431116 -0.0046908502 0.43695331 4290558390
0.055014968 -0.0046908502 0.43695331 4290624183
0.055750649 -0.0046935338 0.43720329 4290689976
0.056503277 -0.0046975594 0.43757826 4290689976
0.057257101 -0.0047015846 0.4379532 4290755769
0.057962518 -0.0047015846 0.4379532 4290755769
0.058718167 -0.0047056098 0.43832818 4290755769
0.059475016 -0.0047096349 0.43870312 4290689976
0.060215935 -0.0047123185 0.4389531 4290755769
0.060957648 -0.0047150026 0.43920308 4290690746
0.061665077 -0.0047150026 0.43920308 4290624953
0.062390257 -0.0047163442 0.43932807 4290756539
0.063115843 -0.0047176862 0.43945307 4290690746
0.063859969 -0.0047203694 0.43970302 4290888125
0.064586557 -0.0047217114 0.43982801 4290756539
0.065294988 -0.0047217114 0.43982801 4290690746
0.066059701 -0.0047257366 0.44020298 4290888125
0.066806652 -0.0047284202 0.44045293 4290690750
0.067573562 -0.0047324453 0.44082791 4290822336
0.06828361 -0.0047324453 0.44082791 4290822336
0.069052346 -0.004736471 0.44120288 4290822336
0.069822282 -0.0047404962 0.44157782 4290888129
0.070593432 -0.0047445213 0.44195279 4290888129
0.071365774 -0.0047485465 0.44232774 4290690750
0.072078235 -0.0047485465 0.44232774 4290822336
0.07285241 -0.0047525722 0.44270271 4290888129
0.07364855 -0.0047579389 0.44320264 4290953922
0.074425325 -0.0047619645 0.44357762 4291019458
0.075139806 -0.0047619645 0.44357762 4291019458
0.075939775 -0.0047673318 0.44407755 4291019458
0.076762922 -0.0047740405 0.44470248 4291085251
0.077609874 -0.0047820914 0.44545242 4290953665
0.078503177 -0.0047928253 0.44645229 4291085251
0.079222284 -0.0047928253 0.44645229 4291085504
0.080098048 -0.0048022177 0.4473272 4291085504
0.08099921 -0.0048129521 0.44832709 4291085504
0.081903599 -0.0048236861 0.44932699 4291085504
0.082788214 -0.0048330785 0.4502019 4291151044
0.083652474 -0.0048411293 0.45095181 4291151044
0.084378824 -0.0048411293 0.45095181 4291085508
0.085199535 -0.0048464965 0.45145178 4291085508
0.086045638 -0.0048532053 0.4520767 4291085508
0.086893745 -0.0048599141 0.45270163 4291085508
0.087622918 -0.0048599141 0.45270163 4291085508
0.088474058 -0.0048666233 0.45332658 4291151301
0.089351803 -0.0048746737 0.4540765 4291085508
0.090256758 -0.0048840661 0.45495141 4291085508
0.091214523 -0.0048961421 0.45607626 4291151301
0.091949128 -0.0048961421 0.45607626 4291019715
0.092912331 -0.004908218 0.45720115 4291151044
0.093904763 -0.0049216361 0.45845103 4290953665
0.094823807 -0.0049310285 0.45932594 4290953667
0.095823683 -0.004944446 0.46057579 4290953667
0.096617952 -0.0049471296 0.46082577 4290822338
0.097360209 -0.0049471296 0.46082577 4290624959
0.098448366 -0.0049645728 0.46245059 4290953665
-0.016319202 -0.0042345258 0.46407542 4289240984
-0.015571713 -0.0042345258 0.46407542 4289306777
-0.014824223 -0.0042345258 0.46407542 4289372058
-0.014076733 -0.0042345258 0.46407542 4289569437
-0.013329242 -0.0042345258 0.46407542 4289569437
-0.012602083 -0.0042413687 0.46482533 4289569437
-0.011824701 -0.0042311046 0.46370047 4289635230
-0.011077816 -0.0042311046 0.46370047 4289701023
-0.010325359 -0.0042288238 0.46345049 4289766816
-0.0095788762 -0.0042288238 0.46345049 4289832609
-0.0087752249 -0.0042014527 0.4604508 4289635742
-0.0079725143 -0.00416952 0.45695117 4289635742
-0.0072364993 -0.00416952 0.45695117 4289635742
-0.0064933724 -0.0041649579 0.45645124 4289569949
-0.0057518561 -0.0041603963 0.4559513 4289504669
-0.0050119497 -0.0041558342 0.45545134 4289570462
-0.0042783511 -0.0041558342 0.45545134 4289570464
-0.003542806 -0.0041535534 0.45520136 4289570464
-0.0028080668 -0.0041512726 0.45495141 4289439648
-0.0020735622 -0.0041478509 0.45457643 4289505441
-0.0013413725 -0.0041478509 0.45457643 4289505439
-0.00060834509 -0.0041421489 0.45395151 4289439646
0.00012263535 -0.004135306 0.45320159 4289636255
0.0008509648 -0.0041273232 0.45232669 4289702048
0.001579531 -0.0041273232 0.45232669 4289833636
0.0023036329 -0.0041193399 0.45145178 4289702050
0.0030207206 -0.0041056541 0.44995192 4289701537
0.0037350578 -0.0040942496 0.44870207 4289701537
0.0044577862 -0.0040942496 0.44870207 4289701537
0.0051689693 -0.0040851259 0.44770217 4289635744
0.0058867983 -0.0040828451 0.44745219 4289701537
0.0066038221 -0.0040805642 0.44720224 4289701537
0.0073241345 -0.0040805642 0.44720224 4289635742
0.0080399495 -0.004078283 0.44695225 4289569949
0.0087525109 -0.0040748618 0.44657728 4289635742
0.0094585614 -0.0040691593 0.44595236 4289701535
0.01017686 -0.0040691593 0.44595236 4289635742
0.010882946 -0.0040645977 0.44545242 4289635742
0.01158742 -0.0040600356 0.44495246 4289701535
0.012286827 -0.0040543335 0.44432753 4289635742
0.013002509 -0.0040543335 0.44432753 4289636255
0.013702756 -0.0040497719 0.4438276 4289636255
0.014405452 -0.0040463503 0.44345263 4289701535
0.015102679 -0.0040417886 0.44295269 4289701535
0.015816147 -0.0040417886 0.44295269 4289701537
0.016515622 -0.004038367 0.44257772 4289767330
0.017213888 -0.0040349457 0.44220275 4289635744
0.017900813 -0.0040292433 0.44157782 4289635744
0.018612066 -0.0040292433 0.44157782 4289439648
0.019290503 -0.0040224008 0.44082791 4289505441
0.019960854 -0.0040144175 0.439953 4289439648
0.020669488 -0.0040144175 0.439953 4289439648
0.021335613 -0.0040064342 0.43907809 4289307808
0.022011466 -0.0040007317 0.43845317 4289373601
0.022698257 -0.0039973105 0.43807819 4289505187
0.023403874 -0.0039973105 0.43807819 4289570980
0.024088854 -0.0039938893 0.43770325 4289570980
0.024779705 -0.003991608 0.43745327 4289570980
0.025469754 -0.0039893272 0.43720329 4289701796
0.026158994 -0.0039870464 0.43695331 4289833382
0.026862798 -0.0039870464 0.43695331 4289899175
0.027558722 -0.003985906 0.43682835 4289964968
0.028246148 -0.0039836252 0.43657836 4289964968
0.028932774 -0.0039813439 0.43632838 4290030761
0.029635569 -0.0039813439 0.43632838 4289964968
0.030329678 -0.0039802035 0.43620339 4289964968
0.031014491 -0.0039779227 0.43595344 4290030761
0.031716686 -0.0039779227 0.43595344 4290096554
0.032418881 -0.0039779227 0.43595344 4290162347
0.033111576 -0.0039767823 0.43582845 4290096554
0.03381357 -0.0039767823 0.43582845 4290162347
0.034505662 -0.0039756419 0.43570346 4290293933
0.035207454 -0.0039756419 0.43570346 4290031531
0.035909243 -0.0039756419 0.43570346 4290031531
0.036611035 -0.0039756419 0.43570346 4290228912
0.037302125 -0.0039745015 0.43557847 4290163119
0.037992805 -0.0039733606 0.43545347 4290163119
0.038694195 -0.0039733606 0.43545347 4290163119
0.039395582 -0.0039733606 0.43545347 4290163119
0.040085465 -0.0039722202 0.43532848 4290031533
0.04078665 -0.0039722202 0.43532848 4290163119
0.041487839 -0.0039722202 0.43532848 4290163119
0.042176913 -0.0039710798 0.43520349 4290294705
0.042877898 -0.0039710798 0.43520349 4290294705
0.043578885 -0.0039710798 0.43520349 4290294705
0.044279866 -0.0039710798 0.43520349 4290360498
0.044980854 -0.0039710798 0.43520349 4290360498
0.045694962 -0.0039722202 0.43532848 4290228912
0.046422791 -0.0039745015 0.43557847 4290360498
0.047151424 -0.0039767823 0.43582845 4290360498
0.047894586 -0.0039802035 0.43620339 4290360498
0.048597183 -0.0039802035 0.43620339 4290294705
0.049356282 -0.0039847656 0.43670335 4290426804
0.050088339 -0.0039870464 0.43695331 4290426804
0.050835732 -0.0039904676 0.43732828 4290558390
0.051554866 -0.003991608 0.43745327 4290426804
0.052259479 -0.003991608 0.43745327 4290558390
0.05297922 -0.0039927489 0.43757826 4290624183
0.053699367 -0.0039938893 0.43770325 4290493367
0.054419909 -0.0039950293 0.43782821 4290427574
0.055125125 -0.0039950293 0.43782821 4290493367
0.055862214 -0.0039973105 0.43807819 4290559160
0.056583971 -0.0039984509 0.43820319 4290559160
0.057355143 -0.0040030126 0.43870312 4290559160
0.058111396 -0.0040064342 0.43907809 4290559160
0.058818623 -0.0040064342 0.43907809 4290624953
0.059576686 -0.0040098559 0.43945307 4290689976
0.060318809 -0.0040121363 0.43970302 4290755769
0.061061732 -0.0040144175 0.439953 4290624953
0.061770368 -0.0040144175 0.439953 4290624953
0.062496755 -0.0040155579 0.44007799 4290690746
0.063223548 -0.0040166983 0.44020298 4290888125
0.063932583 -0.0040166983 0.44020298 4290756286
0.064659975 -0.0040178387 0.44032797 4290690493
0.065369211 -0.0040178387 0.44032797 4290624700
0.066134721 -0.00402126 0.44070292 4290756286
0.066882484 -0.0040235412 0.4409529 4290690493
0.067631043 -0.004025822 0.44120288 4290756286
0.068341695 -0.004025822 0.44120288 4290690750
0.069111027 -0.0040292433 0.44157782 4290690750
0.069881573 -0.0040326649 0.44195279 4290888131
0.070653319 -0.0040360861 0.44232774 4290888131
0.071426272 -0.0040395074 0.44270271 4290624957
0.072139338 -0.0040395074 0.44270271 4290690750
0.072914109 -0.0040429286 0.44307765 4290887872
0.073710859 -0.0040474907 0.44357762 4290953665
0.074488238 -0.0040509119 0.44395256 4290953665
0.075203314 -0.0040509119 0.44395256 4291019458
0.07602527 -0.0040566144 0.44457752 4291019458
0.076870799 -0.0040634573 0.44532743 4290953665
0.077740528 -0.0040714405 0.44620234 4290953665
0.078635044 -0.0040805642 0.44720224 4291085251
0.07953278 -0.0040896875 0.4482021 4291085251
0.080254704 -0.0040896875 0.4482021 4291085251
0.081157282 -0.0040988112 0.449202 4291085251
0.082063079 -0.0041079349 0.4502019 4291085251
0.082949102 -0.0041159182 0.45107681 4291019715
0.083791584 -0.0041216207 0.45170173 4291019715
0.084519148 -0.0041216207 0.45170173 4291085508
0.085364647 -0.0041273232 0.45232669 4291085508
0.086212166 -0.0041330252 0.45295161 4291085508
0.08703769 -0.0041375868 0.45345154 4291019715
0.087913223 -0.0041444297 0.45420149 4291019715
0.08864481 -0.0041444297 0.45420149 4291019715
0.089548565 -0.004152413 0.4550764 4291085508
0.09047991 -0.0041615367 0.45607626 4291019715
0.091439493 -0.0041718008 0.45720115 4291085508
0.092377506 -0.0041809245 0.45820105 4291019715
0.093115531 -0.0041809245 0.45820105 4291085251
0.094058372 -0.0041900482 0.45920095 4290953665
0.095004424 -0.0041991719 0.46020085 4290953665
0.095953703 -0.0042082956 0.46120071 4290756286
0.096958615 -0.0042197001 0.46245059 4290755516
0.097703487 -0.0042197001 0.46245059 4290689723
-0.016319202 -0.0034870359 0.46407542 4289175189
-0.015571713 -0.0034870359 0.46407542 4289438361
-0.014824223 -0.0034870359 0.46407542 4289437849
-0.014076733 -0.0034870359 0.46407542 4289569435
-0.013329242 -0.0034870359 0.46407542 4289569435
-0.012602083 -0.0034926706 0.46482533 4289569435
-0.011824701 -0.0034842186 0.46370047 4289569437
-0.011077816 -0.0034842186 0.46370047 4289635230
-0.01028359 -0.003468253 0.46157569 4289701023
-0.0095401267 -0.003468253 0.46157569 4289766816
-0.0087680798 -0.0034569835 0.46007586 4289569951
-0.0079725143 -0.0034335046 0.45695117 4289635744
-0.0072364993 -0.0034335046 0.45695117 4289701537
-0.0064933724 -0.0034297481 0.45645124 4289569951
-0.0057518561 -0.0034259916 0.4559513 4289569951
-0.0050119497 -0.0034222351 0.45545134 4289569951
-0.0042783511 -0.0034222351 0.45545134 4289504671
-0.003542806 -0.0034203567 0.45520136 4289570464
-0.0028080668 -0.0034184786 0.45495141 4289570464
-0.0020735622 -0.0034156609 0.45457643 4289636257
-0.0013413725 -0.0034156609 0.45457643 4289570462
-0.00060834509 -0.0034109654 0.45395151 4289570462
0.00012263535 -0.0034053305 0.45320159 4289636255
0.0008509648 -0.0033987565 0.45232669 4289636255
0.001579531 -0.0033987565 0.45232669 4289833634
0.0023036329 -0.0033921825 0.45145178 4289636255
0.0030207206 -0.0033809126 0.44995192 4289701535
0.0037350578 -0.0033715214 0.44870207 4289701535
0.0044577862 -0.0033715214 0.44870207 4289701535
0.0051689693 -0.0033640082 0.44770217 4289635742
0.0058867983 -0.0033621299 0.44745219 4289636255
0.0066038221 -0.0033602517 0.44720224 4289636255
0.0073241345 -0.0033602517 0.44720224 4289701535
0.0080399495 -0.0033583734 0.44695225 4289701535
0.0087525109 -0.0033555559 0.44657728 4289635742
0.0094585614 -0.0033508602 0.44595236 4289701535
0.01017686 -0.0033508602 0.44595236 4289766814
0.010882946 -0.0033471037 0.44545242 4289832607
0.01158742 -0.003343347 0.44495246 4289635742
0.012286827 -0.0033386515 0.44432753 4289635742
0.013002509 -0.0033386515 0.44432753 4289635742
0.013702756 -0.003334895 0.4438276 4289701535
0.014405452 -0.0033320773 0.44345263 4289701535
0.015102679 -0.003328321 0.44295269 4289635742
0.015816147 -0.003328321 0.44295269 4289766816
0.016515622 -0.0033255033 0.44257772 4289832609
0.017213888 -0.0033226858 0.44220275 4289635744
0.017900813 -0.0033179903 0.44157782 4289569951
0.018612066 -0.0033179903 0.44157782 4289636257
0.019290503 -0.0033123554 0.44082791 4289636257
0.019960854 -0.0033057814 0.439953 4289439648
0.020657744 -0.0033039032 0.43970302 4289439648
0.021335613 -0.0032992074 0.43907809 4289373855
0.022011466 -0.0032945117 0.43845317 4289373855
0.022698257 -0.0032916942 0.43807819 4289439394
0.023403874 -0.0032916942 0.43807819 4289505187
0.024088854 -0.003288877 0.43770325 4289833382
0.024779705 -0.0032869985 0.43745327 4289833382
0.025469754 -0.0032851202 0.43720329 4289701796
0.026158994 -0.003283242 0.43695331 4289833382
0.026862798 -0.003283242 0.43695331 4289899175
0.027558722 -0.003282303 0.43682835 4289833382
0.028246148 -0.0032804245 0.43657836 4289833382
0.028932774 -0.0032785463 0.43632838 4289899175
0.029635569 -0.0032785463 0.43632838 4289964968
0.030329678 -0.003277607 0.43620339 4289899175
0.031014491 -0.003275729 0.43595344 4290030761
0.031716686 -0.003275729 0.43595344 4290096554
0.032418881 -0.003275729 0.43595344 4290096554
0.033111576 -0.0032747898 0.43582845 4290030761
0.03381357 -0.0032747898 0.43582845 4290162347
0.034505662 -0.0032738505 0.43570346 4290096554
0.035207454 -0.0032738505 0.43570346 4289899947
0.035909243 -0.0032738505 0.43570346 4290031533
0.036611035 -0.0032738505 0.43570346 4290163119
0.037302125 -0.0032729113 0.43557847 4290163119
0.037992805 -0.0032719723 0.43545347 4290031533
0.038694195 -0.0032719723 0.43545347 4290163119
0.039395582 -0.0032719723 0.43545347 4290163119
0.040085465 -0.0032710331 0.43532848 4290163119
0.04078665 -0.0032710331 0.43532848 4290162866
0.041487839 -0.0032710331 0.43532848 4290162866
0.042176913 -0.0032700938 0.43520349 4290294452
0.042877898 -0.0032700938 0.43520349 4290294452
0.043578885 -0.0032700938 0.43520349 4290294705
0.044279866 -0.0032700938 0.43520349 4290360498
0.044980854 -0.0032700938 0.43520349 4290360498
0.045694962 -0.0032710331 0.43532848 4290228912
0.046422791 -0.0032729113 0.43557847 4290294705
0.047151424 -0.0032747898 0.43582845 4290294705
0.047894586 -0.003277607 0.43620339 4290294705
0.048597183 -0.003277607 0.43620339 4290294705
0.049356282 -0.0032813638 0.43670335 4290361011
0.050088339 -0.003283242 0.43695331 4290558390
0.050835732 -0.0032860595 0.43732828 4290558390
0.051554866 -0.0032869985 0.43745327 4290558390
0.052259479 -0.0032869985 0.43745327 4290558390
0.05297922 -0.0032879377 0.43757826 4290558390
0.053699367 -0.003288877 0.43770325 4290624183
0.054419909 -0.003289816 0.43782821 4290558390
0.055125125 -0.003289816 0.43782821 4290427574
0.055862214 -0.0032916942 0.43807819 4290493367
0.056583971 -0.0032926335 0.43820319 4290493367
0.057355143 -0.0032963899 0.43870312 4290559160
0.058111396 -0.0032992074 0.43907809 4290493367
0.058818623 -0.0032992074 0.43907809 4290624953
0.059576686 -0.0033020249 0.43945307 4290689976
0.060318809 -0.0033039032 0.43970302 4290558390
0.061061732 -0.0033057814 0.439953 4290689976
0.061770368 -0.0033057814 0.439953 4290755769
0.062496755 -0.0033067206 0.44007799 4290427574
0.063223548 -0.0033076596 0.44020298 4290690746
0.063932583 -0.0033076596 0.44020298 4290690746
0.064659975 -0.0033085989 0.44032797 4290624953
0.065369211 -0.0033085989 0.44032797 4290624953
0.066134721 -0.0033114161 0.44070292 4290756539
0.066882484 -0.0033132946 0.4409529 4290690746
0.067631043 -0.0033151729 0.44120288 4290756539
0.068341695 -0.0033151729 0.44120288 4290756286
0.069111027 -0.0033179903 0.44157782 4290756286
0.069881573 -0.0033208078 0.44195279 4290953665
0.070653319 -0.0033236251 0.44232774 4290953665
0.071426272 -0.0033264426 0.44270271 4290756286
0.072139338 -0.0033264426 0.44270271 4290756286
0.072914109 -0.0033292598 0.44307765 4290887872
0.073710859 -0.0033330165 0.44357762 4290953665
0.074488238 -0.0033358338 0.44395256 4290887872
0.075203314 -0.0033358338 0.44395256 4290953665
0.07602527 -0.0033405297 0.44457752 4290887872
0.076870799 -0.0033461645 0.44532743 4290953665
0.077740528 -0.0033527387 0.44620234 4291019458
0.078635044 -0.0033602517 0.44720224 4291019458
0.07953278 -0.0033677646 0.4482021 4291019458
0.080254704 -0.0033677646 0.4482021 4291085251
0.081157282 -0.0033752779 0.449202 4291019715
0.082063079 -0.0033827911 0.4502019 4290953922
0.082949102 -0.003389365 0.45107681 4290953922
0.083791584 -0.0033940608 0.45170173 4291019715
0.084519148 -0.0033940608 0.45170173 4291151301
0.085364647 -0.0033987565 0.45232669 4290822336
0.086212166 -0.0034034522 0.45295161 4291019715
0.08703769 -0.0034072087 0.45345154 4291019715
0.087913223 -0.0034128437 0.45420149 4291019715
0.08864481 -0.0034128437 0.45420149 4291019715
0.089548565 -0.0034194177 0.4550764 4291085508
0.09047991 -0.0034269306 0.45607626 4291019715
0.091439493 -0.0034353831 0.45720115 4291085251
0.092377506 -0.0034428963 0.45820105 4291085251
0.093115531 -0.0034428963 0.45820105 4291019458
0.094058372 -0.0034504093 0.45920095 4290953665
0.095004424 -0.0034579225 0.46020085 4290953665
0.095953703 -0.0034654355 0.46120071 4290690493
0.096958615 -0.0034748269 0.46245059 4290623930
0.097703487 -0.0034748269 0.46245059 4291084481
-0.014828215 -0.0027402837 0.46420041 4289437847
-0.014080524 -0.0027402837 0.46420041 4289437847
-0.013347192 -0.0027432349 0.46470034 4289437849
-0.012595307 -0.0027424973 0.46457538 4289569435
-0.011847012 -0.0027424973 0.46457538 4289569435
-0.011077816 -0.0027373326 0.46370047 4289701021
-0.01028359 -0.0027247893 0.46157569 4289701021
-0.0095401267 -0.0027247893 0.46157569 4289701021
-0.0087633152 -0.0027144598 0.45982587 4289701021
-0.0079855984 -0.002701917 0.45770112 4289766814
-0.007248376 -0.002701917 0.45770112 4289766814
-0.0065058186 -0.0026997034 0.45732614 4289701021
-0.0057628932 -0.0026967521 0.45682621 4289504158
-0.0050229533 -0.0026945386 0.45645124 4289504158
-0.0042853956 -0.0026930629 0.45620126 4289504671
-0.0035505882 -0.0026930629 0.45620126 4289504671
-0.0028142384 -0.0026915874 0.4559513 4289636257
-0.0020786936 -0.0026901118 0.45570132 4289570464
-0.0013417413 -0.002684209 0.45470142 4289504669
-0.0006093501 -0.002684209 0.45470142 4289570462
0.00012290591 -0.0026812579 0.45420149 4289701535
0.0008526108 -0.0026753552 0.45320159 4289701535
0.0015825862 -0.0026753552 0.45320159 4289898914
0.002306184 -0.0026679768 0.45195171 4289701535
0.0030257553 -0.0026605986 0.45070186 4289569949
0.0037402599 -0.0026524826 0.44932699 4289635742
0.0044639944 -0.0026524826 0.44932699 4289635742
0.0051776278 -0.0026473177 0.44845209 4289635742
0.0058966642 -0.002645842 0.4482021 4289570462
0.0066148965 -0.0026443666 0.44795215 4289636255
0.0073364163 -0.0026443666 0.44795215 4289636257
0.0080534397 -0.0026428907 0.44770217 4289570464
0.0087623093 -0.0026392017 0.44707724 4289635744
0.0094691645 -0.0026355125 0.44645229 4289701537
0.010188268 -0.0026355125 0.44645229 4289635744
0.010892106 -0.0026318233 0.44582736 4289701537
0.011597184 -0.0026288722 0.44532743 4289701535
0.012297195 -0.002625183 0.44470248 4289635742
0.013013481 -0.002625183 0.44470248 4289635742
0.013714332 -0.0026222316 0.44420254 4289767328
0.014413572 -0.0026192805 0.44370261 4289701535
0.015115462 -0.002617067 0.44332764 4289635742
0.015829533 -0.002617067 0.44332764 4289701023
0.016529614 -0.0026148534 0.44295269 4289766816
0.017228484 -0.0026126399 0.44257772 4289766816
0.017921083 -0.0026096888 0.44207779 4289701023
0.01863314 -0.0026096888 0.44207779 4289635744
0.01931785 -0.0026059994 0.44145283 4289701537
0.019989207 -0.0026008347 0.44057792 4289504671
0.020657744 -0.0025956698 0.43970302 4289570464
0.02136598 -0.0025956698 0.43970302 4289504671
0.022042839 -0.0025919809 0.43907809 4289504671
0.022717686 -0.0025882917 0.43845317 4289504417
0.023403874 -0.0025860781 0.43807819 4289636003
0.02410949 -0.0025860781 0.43807819 4289701796
0.024800945 -0.0025846025 0.43782821 4289701796
0.025491599 -0.002583127 0.43757826 4289767076
0.026181443 -0.0025816513 0.43732828 4289898662
0.026885852 -0.0025816513 0.43732828 4289898662
0.027574491 -0.0025801756 0.4370783 4289767076
0.028270407 -0.0025794378 0.43695331 4289833382
0.028957639 -0.0025779621 0.43670335 4289899175
0.029661037 -0.0025779621 0.43670335 4289964968
0.03035575 -0.0025772243 0.43657836 4289964968
0.031050056 -0.0025764864 0.43645337 4289964968
0.031743962 -0.0025757486 0.43632838 4290030761
0.032446761 -0.0025757486 0.43632838 4290030761
0.033149559 -0.0025757486 0.43632838 4290030761
0.03384266 -0.0025750108 0.43620339 4290030761
0.034545254 -0.0025750108 0.43620339 4289964968
0.035237752 -0.0025742729 0.4360784 4289899947
0.035940144 -0.0025742729 0.4360784 4289965740
0.036632042 -0.0025735353 0.43595344 4289965740
0.037334237 -0.0025735353 0.43595344 4290031533
0.038036428 -0.0025735353 0.43595344 4290031533
0.038738623 -0.0025735353 0.43595344 4290163119
0.039440814 -0.0025735353 0.43595344 4289965487
0.040131502 -0.0025727975 0.43582845 4290031280
0.040833492 -0.0025727975 0.43582845 4290097586
0.041535486 -0.0025727975 0.43582845 4290097586
0.042225365 -0.0025720596 0.43570346 4290163379
0.042927153 -0.0025720596 0.43570346 4290163379
0.043628946 -0.0025720596 0.43570346 4290229425
0.044330738 -0.0025720596 0.43570346 4290295218
0.045032527 -0.0025720596 0.43570346 4290294705
0.04573432 -0.0025720596 0.43570346 4290228912
0.04647607 -0.0025742729 0.4360784 4290294705
0.047205511 -0.0025757486 0.43632838 4290294705
0.047963202 -0.0025787 0.43682835 4290229425
0.048666809 -0.0025787 0.43682835 4290229425
0.049412787 -0.0025809135 0.43720329 4290361011
0.050174303 -0.0025838648 0.43770325 4290426804
0.050908372 -0.0025853403 0.4379532 4290492084
0.051628515 -0.0025860781 0.43807819 4290492084
0.052334134 -0.0025860781 0.43807819 4290558390
0.05305488 -0.002586816 0.43820319 4290558390
0.0537607 -0.002586816 0.43820319 4290558390
0.054497588 -0.0025882917 0.43845317 4290426804
0.05520381 -0.0025882917 0.43845317 4290426804
0.055941902 -0.0025897673 0.43870312 4290558390
0.056680806 -0.002591243 0.4389531 4290493367
0.057453189 -0.0025941944 0.43945307 4290493367
0.058194105 -0.0025956698 0.43970302 4290493367
0.058902338 -0.0025956698 0.43970302 4290690746
0.059678353 -0.0025986214 0.44020298 4290689976
0.060421683 -0.0026000969 0.44045293 4290558390
0.061148465 -0.0026008347 0.44057792 4290624183
0.06185811 -0.0026008347 0.44057792 4290689976
0.062585503 -0.0026015725 0.44070292 4290689976
0.063295349 -0.0026015725 0.44070292 4290821562
0.064023338 -0.0026023104 0.44082791 4290821562
0.064751737 -0.0026030482 0.4409529 4290755769
0.065461986 -0.0026030482 0.4409529 4290755769
0.066190995 -0.0026037861 0.44107789 4290821562
0.066939354 -0.0026052615 0.44132784 4290887355
0.067688517 -0.0026067374 0.44157782 4290821562
0.068399772 -0.0026067374 0.44157782 4290887355
0.069169715 -0.0026089509 0.44195279 4290887355
0.069940858 -0.0026111642 0.44232774 4291018688
0.070713215 -0.0026133778 0.44270271 4290887102
0.071486771 -0.0026155913 0.44307765 4290756286
0.07220044 -0.0026155913 0.44307765 4290756286
0.072975814 -0.0026178048 0.44345263 4290887872
0.073773168 -0.0026207559 0.44395256 4290756286
0.074572124 -0.0026237073 0.44445252 4290953665
0.075415038 -0.0026281343 0.44520244 4290887872
0.076132134 -0.0026281343 0.44520244 4290887872
0.076978676 -0.0026325611 0.44595236 4290690493
0.077871181 -0.0026384639 0.44695225 4290887872
0.078766905 -0.0026443666 0.44795215 4291019458
0.079710215 -0.0026517445 0.449202 4290953665
0.080433749 -0.0026517445 0.449202 4290887872
0.081337936 -0.0026576472 0.4502019 4290690752
0.082245342 -0.00266355 0.4512018 4290953924
0.08310999 -0.0026679768 0.45195171 4290953924
0.08395388 -0.002671666 0.45257664 4290953924
0.084682852 -0.002671666 0.45257664 4291085510
0.085506178 -0.0026746173 0.4530766 4290888131
0.086354896 -0.0026783063 0.45370153 4290953922
0.087181635 -0.0026812579 0.45420149 4291019715
0.088058375 -0.0026856847 0.45495141 4290953922
0.088791169 -0.0026856847 0.45495141 4290888129
0.089720726 -0.0026915874 0.4559513 4291019715
0.090653487 -0.0026974897 0.45695117 4291019715
0.091614477 -0.0027041303 0.45807606 4290953665
0.092553891 -0.002710033 0.45907596 4290953665
0.093293332 -0.002710033 0.45907596 4290953665
0.094211981 -0.0027151976 0.45995086 4290953665
0.095133439 -0.0027203625 0.46082577 4290756286
0.096161731 -0.0027284785 0.46220061 4290624700
-0.014836201 -0.0019936655 0.46445039 4289372054
-0.014088106 -0.0019936655 0.46445039 4289437847
-0.013347192 -0.0019947384 0.46470034 4289437849
-0.012595307 -0.0019942019 0.46457538 4289569435
-0.011847012 -0.0019942019 0.46457538 4289569435
-0.011086773 -0.0019920559 0.46407542 4289635228
-0.010291944 -0.0019829352 0.46195066 4289701021
-0.0095478771 -0.0019829352 0.46195066 4289635228
-0.0087633152 -0.0019738146 0.45982587 4289635228
-0.0080095856 -0.0019705957 0.45907596 4289766814
-0.0072562932 -0.0019668401 0.45820105 4289569949
-0.0065182648 -0.0019668401 0.45820105 4289504156
-0.0057755066 -0.0019652306 0.45782608 4289504156
-0.0050339564 -0.001963621 0.45745113 4289504156
-0.004294788 -0.0019625479 0.45720115 4289504671
-0.0035583703 -0.0019625479 0.45720115 4289504671
-0.0028196385 -0.0019609386 0.45682621 4289570464
-0.0020804037 -0.0019577194 0.45607626 4289570464
-0.0013446918 -0.0019561099 0.45570132 4289504669
-0.00061069004 -0.0019561099 0.45570132 4289504669
0.00012297355 -0.0019507448 0.45445144 4289569949
0.0008526108 -0.0019453798 0.45320159 4289701535
0.0015825862 -0.0019453798 0.45320159 4289767328
0.0023074595 -0.0019410877 0.45220169 4289635742
0.0030274333 -0.0019357225 0.45095181 4289569949
0.0037444215 -0.001930894 0.44982696 4289569949
0.0044689616 -0.001930894 0.44982696 4289569949
0.0051848427 -0.0019276749 0.44907701 4289504156
0.0059032422 -0.0019260654 0.44870207 4289570464
0.0066241245 -0.0019255289 0.44857708 4289636257
0.0073466511 -0.0019255289 0.44857708 4289570464
0.0080669289 -0.0019249923 0.44845209 4289504671
0.0087770075 -0.0019223099 0.44782716 4289438624
0.0094850715 -0.0019196273 0.44720224 4289570210
0.010205383 -0.0019196273 0.44720224 4289635490
0.010904321 -0.0019158717 0.44632733 4289635490
0.011603693 -0.0019126526 0.44557738 4289767330
0.012307564 -0.0019105066 0.44507745 4289635744
0.013024454 -0.0019105066 0.44507745 4289701535
0.013725909 -0.0019083606 0.44457752 4289767328
0.014429812 -0.0019067511 0.44420254 4289635742
0.015132509 -0.0019051416 0.4438276 4289635742
0.015847385 -0.0019051416 0.4438276 4289569951
0.01654827 -0.0019035321 0.44345263 4289569951
0.017247947 -0.0019019225 0.44307765 4289569951
0.017941348 -0.0018997765 0.44257772 4289569951
0.018654212 -0.0018997765 0.44257772 4289569951
0.019345198 -0.0018976305 0.44207779 4289635744
0.02002323 -0.0018944114 0.44132784 4289569951
0.020698849 -0.0018911923 0.44057792 4289569951
0.021408493 -0.0018911923 0.44057792 4289504158
0.022080487 -0.0018879733 0.43982801 4289504158
0.022756541 -0.0018852907 0.43920308 4289570464
0.023430584 -0.0018826083 0.43857816 4289636257
0.024137005 -0.0018826083 0.43857816 4289701537
0.024822185 -0.0018809987 0.43820319 4289701537
0.02551344 -0.0018799256 0.4379532 4289767330
0.026203891 -0.0018788527 0.43770325 4289898916
0.026908904 -0.0018788527 0.43770325 4289898662
0.027598146 -0.0018777796 0.43745327 4289898662
0.02828658 -0.0018767066 0.43720329 4289898662
0.0289825 -0.00187617 0.4370783 4289964455
0.029686505 -0.00187617 0.4370783 4289964968
0.030381821 -0.0018756336 0.43695331 4289964968
0.031076733 -0.0018750972 0.43682835 4289899175
0.031771243 -0.0018745606 0.43670335 4289964968
0.032474648 -0.0018745606 0.43670335 4290030761
0.033178046 -0.0018745606 0.43670335 4290030761
0.033881448 -0.0018745606 0.43670335 4290030761
0.034574952 -0.001874024 0.43657836 4289964968
0.035278153 -0.001874024 0.43657836 4290030763
0.03598135 -0.001874024 0.43657836 4290096556
0.036674049 -0.0018734876 0.43645337 4290096556
0.037377048 -0.0018734876 0.43645337 4290162349
0.038080048 -0.0018734876 0.43645337 4290031280
0.038783047 -0.0018734876 0.43645337 4290031280
0.039486043 -0.0018734876 0.43645337 4289965487
0.040177535 -0.001872951 0.43632838 4290031280
0.04088033 -0.001872951 0.43632838 4290162866
0.041583132 -0.001872951 0.43632838 4290031280
0.042273816 -0.0018724145 0.43620339 4289966000
0.042976409 -0.0018724145 0.43620339 4290163379
0.043679006 -0.0018724145 0.43620339 4290229425
0.044381604 -0.0018724145 0.43620339 4290229425
0.04509712 -0.001872951 0.43632838 4290163632
0.045799918 -0.001872951 0.43632838 4290163632
0.046516035 -0.0018734876 0.43645337 4290163632
0.047259603 -0.0018750972 0.43682835 4290163632
0.048018094 -0.0018772432 0.43732828 4290295218
0.048722506 -0.0018772432 0.43732828 4290295218
0.049483415 -0.0018793892 0.43782821 4290361009
0.050231613 -0.0018809987 0.43820319 4290361009
0.050981019 -0.0018826083 0.43857816 4290361009
0.051702164 -0.0018831447 0.43870312 4290361009
0.052408788 -0.0018831447 0.43870312 4290558388
0.053115409 -0.0018831447 0.43870312 4290558388
0.05383737 -0.0018836812 0.43882811 4290558388
0.054559726 -0.0018842177 0.4389531 4290426802
0.055266753 -0.0018842177 0.4389531 4290426802
0.056005657 -0.0018852907 0.43920308 4290426802
0.056761499 -0.0018869003 0.43957803 4290426802
0.057518553 -0.0018885098 0.439953 4290558388
0.058293354 -0.0018906558 0.44045293 4290624181
0.059002798 -0.0018906558 0.44045293 4290689974
0.059746128 -0.0018917288 0.44070292 4290624181
0.060507413 -0.0018933384 0.44107789 4290558388
0.061235204 -0.001893875 0.44120288 4290624181
0.061963398 -0.0018944114 0.44132784 4290689974
0.062674247 -0.0018944114 0.44132784 4290689976
0.063385099 -0.0018944114 0.44132784 4290755769
0.064095944 -0.0018944114 0.44132784 4290755769
0.064806797 -0.0018944114 0.44132784 4290755769
0.065517649 -0.0018944114 0.44132784 4290755769
0.066247262 -0.0018949478 0.44145283 4290755769
0.066996232 -0.001896021 0.44170281 4290821562
0.067745999 -0.001897094 0.44195279 4290821562
0.068457857 -0.001897094 0.44195279 4290821562
0.069228396 -0.0018987034 0.44232774 4290887355
0.070000149 -0.0019003131 0.44270271 4290887102
0.07079307 -0.001902459 0.44320264 4290821309
0.071567431 -0.0019040686 0.44357762 4290887102
0.072281912 -0.0019040686 0.44357762 4290887102
0.073058084 -0.0019056781 0.44395256 4290887102
0.073856249 -0.0019078242 0.44445252 4290887102
0.074656002 -0.0019099701 0.44495246 4290756286
0.075499728 -0.0019131892 0.44570237 4290756286
0.076217622 -0.0019131892 0.44570237 4290887872
0.077086546 -0.0019169447 0.44657728 4290756286
0.078001842 -0.0019217733 0.44770217 4290953665
0.078920752 -0.001926602 0.44882706 4290953665
0.079843283 -0.0019314304 0.44995192 4290888129
0.08056803 -0.0019314304 0.44995192 4290822336
0.081496 -0.0019362591 0.45107681 4290822338
0.082382038 -0.0019400147 0.45195171 4290953924
0.083224915 -0.0019426971 0.45257664 4290953924
0.084069811 -0.0019453798 0.45320159 4290888131
0.084799789 -0.0019453798 0.45320159 4291085510
0.085624114 -0.0019475258 0.45370153 4290888131
0.086450055 -0.0019496719 0.45420149 4290953922
0.08730159 -0.0019523543 0.45482641 4290953922
0.088203527 -0.0019561099 0.45570132 4290953922
0.088937528 -0.0019561099 0.45570132 4290888129
0.089868292 -0.0019604019 0.45670122 4290888129
0.090827055 -0.0019652306 0.45782608 4290953922
0.091764458 -0.0019695226 0.45882598 4290888129
0.092705086 -0.0019738146 0.45982587 4290822336
0.093445726 -0.0019738146 0.45982587 4290888129
0.094365582 -0.0019775701 0.46070078 4290822336
0.09539146 -0.0019834717 0.46207562 4290756286
0.096499778 -0.0019909828 0.46382543 4290558907
-0.014840193 -0.0012459067 0.46457538 4289175189
-0.014091898 -0.0012459067 0.46457538 4289240982
-0.013354371 -0.0012469122 0.46495032 4289437851
-0.01261225 -0.0012475826 0.4652003 4289569437
-0.011866136 -0.0012479178 0.4653253 4289569435
-0.011095731 -0.0012455714 0.46445039 4289635228
-0.010305867 -0.0012405436 0.46257558 4289635228
-0.0095607927 -0.0012405436 0.46257558 4289635228
-0.0087776072 -0.0012351805 0.46057579 4289504156
-0.0080248499 -0.0012335045 0.45995086 4289635742
-0.007272128 -0.0012314934 0.45920095 4289569949
-0.0065324893 -0.0012314934 0.45920095 4289504156
-0.0057881204 -0.0012304878 0.45882598 4289438363
-0.0050449595 -0.0012294822 0.45845103 4289438363
-0.0043030065 -0.0012284766 0.45807606 4289504669
-0.0035651796 -0.0012284766 0.45807606 4289504669
-0.0028258099 -0.0012278062 0.45782608 4289504669
-0.0020843947 -0.00122546 0.45695117 4289504669
-0.0013461671 -0.0012234488 0.45620126 4289504669
-0.00061136001 -0.0012234488 0.45620126 4289570462
0.00012310884 -0.001220097 0.45495141 4289635742
0.00085308106 -0.0012160746 0.45345154 4289701535
0.0015834591 -0.0012160746 0.45345154 4289701535
0.0023087352 -0.0012133931 0.45245168 4289569949
0.0030307898 -0.0012107115 0.45145178 4289569949
0.0037475426 -0.0012073596 0.4502019 4289569949
0.0044726864 -0.0012073596 0.4502019 4289504156
0.005189172 -0.0012053484 0.44945198 4289504156
0.0059098192 -0.0012046781 0.449202 4289570462
0.0066315071 -0.0012043428 0.44907701 4289373083
0.0073548388 -0.0012043428 0.44907701 4289636257
0.00807817 -0.0012043428 0.44907701 4289438878
0.0087892553 -0.0012026669 0.44845209 4289504417
0.0094956746 -0.0012006558 0.44770217 4289636003
0.010216792 -0.0012006558 0.44770217 4289570210
0.010910427 -0.001197639 0.44657728 4289570210
0.011613458 -0.0011959631 0.44595236 4289636257
0.012317933 -0.0011946224 0.44545242 4289504671
0.013035427 -0.0011946224 0.44545242 4289636255
0.013737485 -0.0011932815 0.44495246 4289636255
0.014441993 -0.001192276 0.44457752 4289504669
0.015145293 -0.0011912704 0.44420254 4289504669
0.015860774 -0.0011912704 0.44420254 4289438876
0.016566927 -0.0011906 0.44395256 4289438876
0.017267408 -0.0011895945 0.44357762 4289504669
0.017966682 -0.0011885889 0.44320264 4289438876
0.018680552 -0.0011885889 0.44320264 4289504669
0.019372545 -0.0011872482 0.44270271 4289570462
0.020062925 -0.0011859073 0.44220275 4289570462
0.020739952 -0.0011838962 0.44145283 4289438876
0.021451006 -0.0011838962 0.44145283 4289438876
0.02212441 -0.001181885 0.44070292 4289438876
0.022801874 -0.0011802091 0.44007799 4289570464
0.023470648 -0.001178198 0.43932807 4289636257
0.024178276 -0.001178198 0.43932807 4289701537
0.024857584 -0.0011768572 0.43882811 4289635744
0.025542567 -0.0011758517 0.43845317 4289701283
0.026226338 -0.0011748461 0.43807819 4289767076
0.026931955 -0.0011748461 0.43807819 4289767076
0.0276218 -0.0011741756 0.43782821 4289767076
0.028310841 -0.0011735053 0.43757826 4289767076
0.029007364 -0.0011731701 0.43745327 4289898662
0.029711973 -0.0011731701 0.43745327 4289899175
0.030399201 -0.0011724997 0.43720329 4289899175
0.031094516 -0.0011721645 0.4370783 4289899175
0.031798523 -0.0011721645 0.4370783 4289964968
0.032502528 -0.0011721645 0.4370783 4290030761
0.033206534 -0.0011721645 0.4370783 4290030761
0.033910539 -0.0011721645 0.4370783 4289964968
0.034614544 -0.0011721645 0.4370783 4290030761
0.03531855 -0.0011721645 0.4370783 4290030763
0.036022555 -0.0011721645 0.4370783 4290030763
0.03672656 -0.0011721645 0.4370783 4290096556
0.037430566 -0.0011721645 0.4370783 4290096556
0.038123667 -0.0011718293 0.43695331 4290096556
0.038827471 -0.0011718293 0.43695331 4290030763
0.039531272 -0.0011718293 0.43695331 4289899947
0.040223572 -0.0011714941 0.43682835 4290031533
0.040915463 -0.001171159 0.43670335 4290163119
0.041618865 -0.001171159 0.43670335 4290031533
0.042322271 -0.001171159 0.43670335 4290031533
0.043025669 -0.001171159 0.43670335 4290163119
0.043729071 -0.001171159 0.43670335 4290294705
0.044432472 -0.001171159 0.43670335 4290294705
0.045135874 -0.001171159 0.43670335 4290163632
0.045839276 -0.001171159 0.43670335 4290163632
0.046569318 -0.0011718293 0.43695331 4290163632
0.047327213 -0.0011731701 0.43745327 4290229425
0.04808671 -0.0011745108 0.4379532 4290295218
0.048792128 -0.0011745108 0.4379532 4290229425
0.04953992 -0.0011755164 0.43832818 4290361009
0.050288919 -0.001176522 0.43870312 4290361009
0.051039133 -0.0011775276 0.43907809 4290361009
0.051761087 -0.0011778628 0.43920308 4290361009
0.052468516 -0.0011778628 0.43920308 4290361011
0.053191077 -0.001178198 0.43932807 4290426804
0.05391404 -0.0011785332 0.43945307 4290361011
0.054637402 -0.0011788683 0.43957803 4290426804
0.05537691 -0.0011795387 0.43982801 4290426804
0.056085344 -0.0011795387 0.43982801 4290361011
0.0568422 -0.0011805443 0.44020298 4290426802
0.057616595 -0.001181885 0.44070292 4290558388
0.058376066 -0.0011828906 0.44107789 4290624181
0.059086516 -0.0011828906 0.44107789 4290624181
0.059847794 -0.0011838962 0.44145283 4290624181
0.060593139 -0.0011845666 0.44170281 4290624181
0.061321937 -0.0011849018 0.4418278 4290624181
0.062051143 -0.001185237 0.44195279 4290624181
0.062745251 -0.0011849018 0.4418278 4290624183
0.063456908 -0.0011849018 0.4418278 4290689976
0.064168558 -0.0011849018 0.4418278 4290689976
0.064880215 -0.0011849018 0.4418278 4290689976
0.065591872 -0.0011849018 0.4418278 4290755769
0.066322289 -0.001185237 0.44195279 4290689976
0.067072056 -0.0011859073 0.44220275 4290755769
0.067822628 -0.0011865777 0.44245273 4290755769
0.068535298 -0.0011865777 0.44245273 4290755516
0.069326207 -0.0011879186 0.44295269 4290821309
0.0700792 -0.0011885889 0.44320264 4290821309
0.070872933 -0.0011899297 0.44370261 4290755516
0.07166826 -0.0011912704 0.44420254 4290821309
0.072383739 -0.0011912704 0.44420254 4290887102
0.073160931 -0.001192276 0.44457752 4290756286
0.073960096 -0.0011936168 0.44507745 4290756286
0.074781828 -0.0011952927 0.44570237 4290756286
0.075626761 -0.0011973039 0.44645229 4290756286
0.076345861 -0.0011973039 0.44645229 4290887872
0.077215992 -0.0011996501 0.4473272 4290887872
0.078132495 -0.0012026669 0.44845209 4290953665
0.079096571 -0.0012063541 0.44982696 4290953665
0.080020718 -0.0012093708 0.45095181 4290888129
0.080747068 -0.0012093708 0.45095181 4290822336
0.081631489 -0.001211717 0.45182672 4290822338
0.08249595 -0.0012137282 0.45257664 4290888131
0.083339833 -0.0012154042 0.45320159 4290953924
0.084162548 -0.001216745 0.45370153 4290953924
0.084893331 -0.001216745 0.45370153 4291019717
0.085742056 -0.0012184209 0.45432645 4290888131
0.086569004 -0.0012197617 0.45482641 4290888131
0.087445535 -0.0012217729 0.45557633 4290888131
0.088348679 -0.0012241192 0.45645124 4290953922
0.089083888 -0.0012241192 0.45645124 4290953922
0.090015858 -0.0012268007 0.45745113 4290888129
0.091050215 -0.001230823 0.45895097 4290690750
0.091914438 -0.0012324989 0.45957589 4290822336
0.092780679 -0.0012341749 0.46020085 4290690750
0.09352193 -0.0012341749 0.46020085 4290625210
0.09441679 -0.0012361861 0.46095076 4290559417
0.095726892 -0.0012435603 0.46370047 4290690746
-0.014840193 -0.00049761136 0.46457538 4289109913
-0.014091898 -0.00049761136 0.46457538 4289109913
-0.013354371 -0.00049801293 0.46495032 4289240732
