# .PCD v0.7 - Point Cloud Data file format
VERSION 0.7
FIELDS x y z rgba
SIZE 4 4 4 4
TYPE F F F U
COUNT 1 1 1 1
WIDTH 1006
HEIGHT 1
VIEWPOINT 0 0 0 1 0 0 0
POINTS 1006
DATA ascii
-0.03092372 -0.035974916 0.45895097 4293123814
-0.030250249 -0.036053296 0.45995086 4293123814
-0.029565534 -0.036121875 0.46082577 4293058021
-0.02887018 -0.036180656 0.46157569 4293123814
-0.028126718 -0.036180656 0.46157569 4293059045
-0.027427744 -0.036239438 0.4623256 4293059045
-0.02671914 -0.036288422 0.46295053 4293189861
-0.026015537 -0.036347207 0.46370047 4293453033
-0.025302704 -0.036396194 0.4643254 4293584106
-0.024554813 -0.036396194 0.4643254 4293584106
-0.023845369 -0.036454976 0.46507531 4293518313
-0.023133511 -0.036513757 0.46582523 4293452520
-0.022425244 -0.036582336 0.46670014 4293452520
-0.021708351 -0.036641117 0.46745005 4293255141
-0.020955425 -0.036641117 0.46745005 4293124068
-0.020240311 -0.0367097 0.46832496 4293255654
-0.01952238 -0.036778279 0.46919987 4293320934
-0.018791633 -0.036827266 0.46982482 4293584106
-0.018063668 -0.036886048 0.47057474 4293781485
-0.017305709 -0.036886048 0.47057474 4293715692
-0.016569726 -0.036935031 0.47119966 4293715692
-0.015835924 -0.036993816 0.47194958 4293781485
-0.015099706 -0.037052598 0.47269949 4293649645
-0.014368655 -0.037130974 0.47369939 4293715438
-0.013605664 -0.037130974 0.47369939 4293649645
-0.012869781 -0.037209351 0.47469929 4293518059
-0.012140239 -0.03731712 0.47607413 4293584106
-0.011406268 -0.037424888 0.477449 4293518313
-0.010665082 -0.037522856 0.47869885 4293518311
-0.0099224551 -0.037630625 0.48007372 4294044655
-0.0091491966 -0.037630625 0.48007372 4293320932
-0.008397744 -0.037728596 0.48132357 4293255139
-0.0076402868 -0.03781677 0.48244846 4293058273
-0.0068792053 -0.037904944 0.48357335 4292466136
-0.0061145001 -0.037993118 0.48469821 4292400343
-0.0053489222 -0.038100887 0.48607308 4292268757
-0.0045660008 -0.038100887 0.48607308 4292268755
-0.0037957248 -0.038228247 0.4876979 4292202962
-0.0030209862 -0.038365409 0.48944771 4292071629
-0.0022428909 -0.038541753 0.49169746 4292071629
-0.0014568109 -0.038698509 0.49369726 4291940041
-0.00066395372 -0.038835667 0.49544707 4291940041
0.00013450655 -0.038963031 0.49707189 4291677639
0.00093514426 -0.038963031 0.49707189 4291677639
0.001740583 -0.0390708 0.49844676 4291546053
-0.13171901 -0.03675181 0.47869885 4289240994
-0.13057187 -0.036646258 0.47732401 4289306527
-0.12949714 -0.036559895 0.47619912 4289438113
-0.12873012 -0.036559895 0.47619912 4289569697
-0.12752649 -0.036435153 0.4745743 4289503904
-0.12676209 -0.036435153 0.4745743 4289635490
-0.12350892 -0.035715468 0.4652003 4289635490
-0.12246279 -0.035629105 0.46407542 4289504417
-0.12171528 -0.035629105 0.46407542 4289438624
-0.12096781 -0.035629105 0.46407542 4289307808
-0.12031746 -0.035657894 0.46445039 4289307808
-0.1196337 -0.035677083 0.46470034 4289373601
-0.11894917 -0.035696276 0.46495032 4289373601
-0.1180414 -0.035648298 0.4643254 4289439396
-0.11719878 -0.035619508 0.46395043 4289505189
-0.11638876 -0.03560032 0.46370047 4289833384
-0.11554836 -0.03557153 0.4633255 4289701798
-0.11474013 -0.035552341 0.46307552 4289833384
-0.11396348 -0.035542745 0.46295053 4289833384
-0.1132178 -0.035542745 0.46295053 4289833382
-0.11228994 -0.035485171 0.46220061 4289701796
-0.111274 -0.035398807 0.46107575 4289701796
-0.11026168 -0.035312448 0.45995086 4289833382
-0.10952083 -0.035312448 0.45995086 4289833382
-0.10848438 -0.035216488 0.45870098 4289833382
-0.10751069 -0.035139725 0.45770112 4289833382
-0.10677347 -0.035139725 0.45770112 4289899175
-0.10592041 -0.035101339 0.45720115 4289768359
-0.10495396 -0.035024572 0.45620126 4289834152
-0.10399073 -0.034947805 0.45520136 4289834152
-0.10325753 -0.034947805 0.45520136 4289834152
-0.10218653 -0.034832656 0.45370153 4289834152
-0.10109241 -0.034707911 0.4520767 4289899945
-0.10036425 -0.034707911 0.4520767 4290163117
-0.09938816 -0.034621552 0.45095181 4290031531
-0.098634467 -0.034611955 0.45082682 4290031531
-0.097881176 -0.034602359 0.45070186 4290163117
-0.097155221 -0.034602359 0.45070186 4290228910
-0.096402533 -0.034592763 0.45057687 4290294703
-0.095623709 -0.03457357 0.45032689 4290294703
-0.094898358 -0.03457357 0.45032689 4290294703
-0.094146878 -0.034563977 0.4502019 4290360496
-0.093369856 -0.034544785 0.44995192 4290360496
-0.092619382 -0.034535188 0.44982696 4290492084
-0.09189485 -0.034535188 0.44982696 4290492084
-0.091144972 -0.034525592 0.44970196 4290623670
-0.090395503 -0.034515996 0.44957697 4290492084
-0.089646436 -0.034506403 0.44945198 4290558390
-0.088922493 -0.034506403 0.44945198 4290624183
-0.088198565 -0.034506403 0.44945198 4290624183
-0.087474629 -0.034506403 0.44945198 4290689976
-0.086750694 -0.034506403 0.44945198 4290689976
-0.086050674 -0.034515996 0.44957697 4290755769
-0.085350268 -0.034525592 0.44970196 4290755769
-0.08462593 -0.034525592 0.44970196 4290821562
-0.083901584 -0.034525592 0.44970196 4290756539
-0.083200365 -0.034535188 0.44982696 4290690746
-0.082498737 -0.034544785 0.44995192 4290888125
-0.081774004 -0.034544785 0.44995192 4290888125
-0.081049256 -0.034544785 0.44995192 4290888125
-0.080324516 -0.034544785 0.44995192 4290756539
-0.079599775 -0.034544785 0.44995192 4291019711
-0.078809306 -0.034515996 0.44957697 4290953918
-0.077998333 -0.034477614 0.44907701 4290953918
-0.077188976 -0.034439232 0.44857708 4290953918
-0.076466449 -0.034439232 0.44857708 4291085251
-0.075701706 -0.03442004 0.44832709 4291085251
-0.074937783 -0.034400847 0.44807714 4291085251
-0.074195363 -0.034391254 0.44795215 4291085251
-0.073473841 -0.034391254 0.44795215 4291151297
-0.072752319 -0.034391254 0.44795215 4291217090
-0.072030798 -0.034391254 0.44795215 4291348676
-0.071289383 -0.034381658 0.44782716 4291151297
-0.070568062 -0.034381658 0.44782716 4291348676
-0.069846742 -0.034381658 0.44782716 4291217090
-0.069144718 -0.034391254 0.44795215 4291216837
-0.068423197 -0.034391254 0.44795215 4291348423
-0.06772057 -0.034400847 0.44807714 4291414216
-0.066998847 -0.034400847 0.44807714 4291414216
-0.066295609 -0.034410443 0.4482021 4291610825
-0.065573685 -0.034410443 0.4482021 4291676618
-0.064869843 -0.03442004 0.44832709 4291676618
-0.064165615 -0.034429636 0.44845209 4291610825
-0.063443288 -0.034429636 0.44845209 4291545802
-0.062720962 -0.034429636 0.44845209 4291611595
-0.061998632 -0.034429636 0.44845209 4291677388
-0.061276305 -0.034429636 0.44845209 4291874767
-0.060553983 -0.034429636 0.44845209 4291874769
-0.059848335 -0.034439232 0.44857708 4291940562
-0.05914228 -0.034448829 0.44870207 4291940562
-0.0584521 -0.034468018 0.44895205 4291940562
-0.057728972 -0.034468018 0.44895205 4292202964
-0.057037577 -0.03448721 0.449202 4292268757
-0.056345381 -0.034506403 0.44945198 4292137171
-0.055636913 -0.034515996 0.44957697 4292071378
-0.054928046 -0.034525592 0.44970196 4292071378
-0.054203704 -0.034525592 0.44970196 4292202964
-0.053494234 -0.034535188 0.44982696 4292137171
-0.05278435 -0.034544785 0.44995192 4292268757
-0.052074071 -0.034554381 0.45007691 4292269527
-0.05134913 -0.034554381 0.45007691 4292269527
-0.050638244 -0.034563977 0.4502019 4292269527
-0.049940817 -0.034583166 0.45045188 4292335320
-0.049242582 -0.034602359 0.45070186 4292072148
-0.048516635 -0.034602359 0.45070186 4292269527
-0.047817186 -0.034621552 0.45095181 4292401113
-0.047116939 -0.034640741 0.4512018 4292401113
-0.046441585 -0.034679126 0.45170173 4292531927
-0.045739323 -0.034698315 0.45195171 4292531927
-0.045011364 -0.034698315 0.45195171 4292597720
-0.04432014 -0.034727104 0.45232669 4292729306
-0.043615665 -0.034746293 0.45257664 4292860892
-0.042922229 -0.034775082 0.45295161 4292531927
-0.04221594 -0.034794275 0.45320159 4292663513
-0.041485965 -0.034794275 0.45320159 4292860892
-0.040778466 -0.034813464 0.45345154 4292926685
-0.040070169 -0.034832656 0.45370153 4292860892
-0.039361063 -0.034851849 0.45395151 4292663515
-0.038629882 -0.034851849 0.45395151 4292926687
-0.037909131 -0.034861445 0.4540765 4292597722
-0.037187979 -0.034871042 0.45420149 4293058273
-0.036476456 -0.034890231 0.45445144 4292991967
-0.035764128 -0.034909423 0.45470142 4292991967
-0.03503174 -0.034909423 0.45470142 4293057760
-0.034337059 -0.034947805 0.45520136 4293057760
-0.033640772 -0.03498619 0.45570132 4293057762
-0.032978974 -0.035062958 0.45670122 4293057762
-0.032331601 -0.035158914 0.45795107 4293189348
-0.031593975 -0.035158914 0.45795107 4293123555
-0.030940564 -0.035254873 0.45920095 4293058275
-0.030274909 -0.035341233 0.46032581 4293058275
-0.029581571 -0.035398807 0.46107575 4293123814
-0.028885815 -0.035456382 0.46182567 4293058021
-0.028141951 -0.035456382 0.46182567 4292992998
-0.027442575 -0.035513956 0.46257558 4292992998
-0.026733566 -0.035561934 0.46320051 4293189607
-0.026029559 -0.035619508 0.46395043 4293386986
-0.025316328 -0.03566749 0.46457538 4293584106
-0.024568032 -0.03566749 0.46457538 4293584106
-0.023858188 -0.035725065 0.4653253 4293649127
-0.023145925 -0.035782639 0.46607521 4293583334
-0.022437254 -0.03584981 0.46695012 4293583334
-0.021719959 -0.035907384 0.46770003 4293451748
-0.02096663 -0.035907384 0.46770003 4293255139
-0.020256517 -0.035984151 0.46869993 4293255139
-0.019532781 -0.036041725 0.46944985 4293320932
-0.018806629 -0.0360993 0.47019976 4293649897
-0.018078061 -0.036156874 0.47094968 4293650410
-0.017319497 -0.036156874 0.47094968 4293584617
-0.016582912 -0.036204856 0.47157463 4293584106
-0.015852699 -0.036272023 0.47244954 4293518313
-0.01511967 -0.036339194 0.47332445 4293649645
-0.014387611 -0.036415961 0.47432432 4293715438
-0.013655921 -0.03650232 0.4754492 4293649645
-0.012890112 -0.03650232 0.4754492 4293518059
-0.012156175 -0.03659828 0.47669908 4293518059
-0.011424184 -0.036713429 0.47819892 4293452266
-0.01068179 -0.036809385 0.47944877 4293518313
-0.0099405386 -0.036924537 0.48094863 4293584106
-0.0091873081 -0.037010897 0.48207349 4293124066
-0.0084108282 -0.037010897 0.48207349 4292992480
-0.0076521626 -0.03709726 0.48319837 4292926687
-0.0068898736 -0.037183624 0.48432326 4292860894
-0.0061255372 -0.03727958 0.48557311 4292860894
-0.0053585502 -0.037385132 0.48694798 4292268757
-0.0045742192 -0.037385132 0.48694798 4292202962
-0.0038025342 -0.037509877 0.48857281 4292071376
-0.0030271576 -0.037653815 0.49044761 4292071376
-0.0022463116 -0.037807345 0.49244738 4292005583
-0.0014582861 -0.037941687 0.49419719 4291940043
-0.00066428876 -0.038056839 0.49569705 4291940043
0.00013457419 -0.038181584 0.49732187 4291677641
0.00093561452 -0.038181584 0.49732187 4291611848
0.00173971 -0.038248755 0.49819678 4291480262
-0.13057187 -0.035877429 0.47732401 4289109661
-0.12949714 -0.035792876 0.47619912 4289109661
-0.12873012 -0.035792876 0.47619912 4289306525
-0.12752649 -0.03567075 0.4745743 4289438111
-0.12676209 -0.03567075 0.4745743 4289569951
-0.12350892 -0.034966167 0.4652003 4289635744
-0.12229788 -0.034834642 0.46345049 4289569951
-0.12155139 -0.034834642 0.46345049 4289504158
-0.12080491 -0.034834642 0.46345049 4289438878
-0.12018794 -0.034872219 0.46395043 4289504671
-0.1196337 -0.034928586 0.46470034 4289307808
-0.11894917 -0.034947377 0.46495032 4289373601
-0.11813672 -0.034928586 0.46470034 4289505187
-0.11726192 -0.034891009 0.46420041 4289505187
-0.11638876 -0.034853432 0.46370047 4289570980
-0.11564187 -0.034853432 0.46370047 4289570980
-0.11480207 -0.034825247 0.4633255 4289701796
-0.11396348 -0.034797065 0.46295053 4289701796
-0.1132178 -0.034797065 0.46295053 4289768359
-0.11235067 -0.034759488 0.46245059 4289702566
-0.11136449 -0.03468433 0.4614507 4289505187
-0.11035156 -0.034599781 0.46032581 4289570980
-0.10961011 -0.034599781 0.46032581 4289702566
-0.10860262 -0.034515232 0.45920095 4289505187
-0.1077162 -0.03446826 0.45857602 4289570980
-0.10697757 -0.03446826 0.45857602 4289702566
-0.10606519 -0.034411892 0.45782608 4289702566
-0.10515524 -0.034355525 0.45707616 4289834152
-0.1041906 -0.034280371 0.45607626 4289834152
-0.103456 -0.034280371 0.45607626 4289834152
-0.10243989 -0.034186427 0.45482641 4289834152
-0.1012042 -0.034017324 0.45257664 4289899945
-0.10047523 -0.034017324 0.45257664 4290031531
-0.099553436 -0.033951562 0.45170173 4289965738
-0.098689154 -0.03390459 0.45107681 4290031531
-0.097908311 -0.033885803 0.45082682 4290163117
-0.097182162 -0.033885803 0.45082682 4290228910
-0.096429273 -0.033876408 0.45070186 4290228910
-0.095676787 -0.033867016 0.45057687 4290294703
-0.094951041 -0.033867016 0.45057687 4290360496
-0.094173014 -0.033848226 0.45032689 4290360496
-0.093395792 -0.033829436 0.45007691 4290360496
-0.092645116 -0.033820041 0.44995192 4290426291
-0.091920376 -0.033820041 0.44995192 4290426291
-0.091170304 -0.033810649 0.44982696 4290492084
-0.090420634 -0.033801254 0.44970196 4290492084
-0.089671366 -0.033791859 0.44957697 4290558390
-0.088947222 -0.033791859 0.44957697 4290624183
-0.088223092 -0.033791859 0.44957697 4290558390
-0.087498955 -0.033791859 0.44957697 4290624183
-0.086798944 -0.033801254 0.44970196 4290689976
-0.086074598 -0.033801254 0.44970196 4290755769
-0.08537399 -0.033810649 0.44982696 4290755769
-0.084649451 -0.033810649 0.44982696 4290755769
-0.083924904 -0.033810649 0.44982696 4290887355
-0.083223477 -0.033820041 0.44995192 4290821562
-0.082498737 -0.033820041 0.44995192 4291018941
-0.081774004 -0.033820041 0.44995192 4291018941
-0.081049256 -0.033820041 0.44995192 4291084734
-0.080324516 -0.033820041 0.44995192 4290887355
-0.079599775 -0.033820041 0.44995192 4291084734
-0.078809306 -0.033791859 0.44957697 4291018941
-0.078020044 -0.033763673 0.449202 4290887872
-0.077210486 -0.033726096 0.44870207 4290953665
-0.076487757 -0.033726096 0.44870207 4291085251
-0.075722814 -0.03370731 0.44845209 4291085251
-0.074979581 -0.033697914 0.44832709 4291085251
-0.074236766 -0.033688519 0.4482021 4291151044
-0.073514841 -0.033688519 0.4482021 4291281860
-0.07279291 -0.033688519 0.4482021 4291347653
-0.072050899 -0.033679124 0.44807714 4291479492
-0.071329176 -0.033679124 0.44807714 4291282113
-0.070607454 -0.033679124 0.44807714 4291281860
-0.069885731 -0.033679124 0.44807714 4291347653
-0.069164008 -0.033679124 0.44807714 4291348423
-0.068442285 -0.033679124 0.44807714 4291348423
-0.067739457 -0.033688519 0.4482021 4291610825
-0.067017533 -0.033688519 0.4482021 4291808204
-0.066295609 -0.033688519 0.4482021 4291610825
-0.065591969 -0.033697914 0.44832709 4291676618
-0.064887933 -0.03370731 0.44845209 4291610825
-0.064165615 -0.03370731 0.44845209 4291676618
-0.063443288 -0.03370731 0.44845209 4291545802
-0.062720962 -0.03370731 0.44845209 4291545802
-0.061998632 -0.03370731 0.44845209 4291677388
-0.061276305 -0.03370731 0.44845209 4291808974
-0.060553983 -0.03370731 0.44845209 4291874767
-0.059848335 -0.033716701 0.44857708 4291940560
-0.05914228 -0.033726096 0.44870207 4291940562
-0.0584521 -0.033744887 0.44895205 4291874769
-0.057728972 -0.033744887 0.44895205 4292202964
-0.057037577 -0.033763673 0.449202 4292531929
-0.056345381 -0.033782464 0.44945198 4292202964
-0.05565238 -0.033801254 0.44970196 4292071378
-0.054943312 -0.033810649 0.44982696 4292071378
-0.054218769 -0.033810649 0.44982696 4292137171
-0.053509094 -0.033820041 0.44995192 4292137171
-0.052799013 -0.033829436 0.45007691 4292202964
-0.052088533 -0.033838831 0.4502019 4292137943
-0.05136339 -0.033838831 0.4502019 4292269529
-0.050666362 -0.033857621 0.45045188 4292072150
-0.049968533 -0.033876408 0.45070186 4292269529
-0.049256235 -0.033885803 0.45082682 4292269527
-0.048530087 -0.033885803 0.45082682 4292269527
-0.047843695 -0.033913985 0.4512018 4292269527
-0.047143042 -0.033932775 0.45145178 4292335320
-0.046454437 -0.033960957 0.45182672 4292269527
-0.045751974 -0.033979747 0.4520767 4292335320
-0.045023814 -0.033979747 0.4520767 4292401113
-0.044332389 -0.034007933 0.45245168 4292401113
-0.043627713 -0.03402672 0.45270163 4292598492
-0.042922229 -0.03404551 0.45295161 4292466906
-0.04221594 -0.034064297 0.45320159 4292466906
-0.041485965 -0.034064297 0.45320159 4292466906
-0.040778466 -0.034083087 0.45345154 4292598492
-0.040070169 -0.034101874 0.45370153 4292466906
-0.039361063 -0.034120664 0.45395151 4292466906
-0.038629882 -0.034120664 0.45395151 4292532699
-0.037909131 -0.034130059 0.4540765 4293124066
-0.037198208 -0.034148846 0.45432645 4292992480
-0.036476456 -0.034158241 0.45445144 4292926687
-0.035773959 -0.034186427 0.45482641 4292926687
-0.035041369 -0.034186427 0.45482641 4293123553
-0.034346487 -0.034224004 0.45532635 4293057760
-0.033668451 -0.034280371 0.45607626 4293057760
-0.032997023 -0.03434613 0.45695117 4292991967
-0.032349247 -0.034440074 0.45820105 4293123553
-0.031611223 -0.034440074 0.45820105 4293057760
-0.030965827 -0.034543414 0.45957589 4292992482
-0.030291349 -0.034618571 0.46057579 4293058275
-0.029597607 -0.034674935 0.46132571 4293124068
-0.028909268 -0.034740698 0.46220061 4293058275
-0.0281648 -0.034740698 0.46220061 4292993252
-0.027457405 -0.03478767 0.46282557 4292993252
-0.026747994 -0.034834642 0.46345049 4293255654
-0.026036572 -0.034881614 0.46407542 4293387240
-0.025323138 -0.034928586 0.46470034 4293518826
-0.024574641 -0.034928586 0.46470034 4293518826
-0.023864595 -0.034984954 0.46545029 4293518311
-0.02315834 -0.035050716 0.46632519 4293518311
-0.022449266 -0.035116479 0.4672001 4293584104
-0.021737373 -0.035182238 0.46807501 4293452518
-0.020983441 -0.035182238 0.46807501 4293649897
-0.020267321 -0.035248 0.46894991 4293189346
-0.019548383 -0.035313763 0.46982482 4293452518
-0.018821627 -0.035370126 0.47057474 4293649897
-0.018092455 -0.035426494 0.47132465 4293518824
-0.017360866 -0.035482861 0.47207457 4293518824
-0.016600491 -0.035482861 0.47207457 4293387240
-0.015869474 -0.03554862 0.47294948 4293453033
-0.015139632 -0.035623778 0.47394937 4293584106
-0.014410358 -0.035708327 0.47507423 4293584106
-0.013677461 -0.035792876 0.47619912 4293518313
-0.012910443 -0.035792876 0.47619912 4293452520
-0.012181672 -0.035905611 0.47769895 4293518313
-0.011445086 -0.03600895 0.47907382 4293452520
-0.010704067 -0.03611229 0.48044866 4293518826
-0.0099560376 -0.036206234 0.48169854 4293453033
-0.0092016002 -0.036290783 0.48282343 4293189346
-0.0084239123 -0.036290783 0.48282343 4293123553
-0.0076640388 -0.036375333 0.48394829 4292794588
-0.0069005415 -0.036459886 0.48507318 4292597209
-0.0061349981 -0.03655383 0.48632306 4292466136
-0.0053681778 -0.036666561 0.48782289 4292400343
-0.0045824382 -0.036666561 0.48782289 4292202962
-0.0038103163 -0.036798086 0.4895727 4291939790
-0.0030333293 -0.036939003 0.49144751 4292071376
-0.0022497326 -0.037070524 0.49319732 4291939790
-0.0014593926 -0.037173864 0.49457216 4291939790
-0.00066428876 -0.037258413 0.49569705 4291939790
0.00013457419 -0.037380543 0.49732187 4291808457
0.00093561452 -0.037380543 0.49732187 4291808457
0.00173971 -0.037446301 0.49819678 4291480262
-0.12223191 -0.034069777 0.46320051 4289438878
-0.12148582 -0.034069777 0.46320051 4289438878
-0.12073974 -0.034069777 0.46320051 4289438878
-0.12018794 -0.034124933 0.46395043 4289438878
-0.1196337 -0.034180094 0.46470034 4289308062
-0.11894917 -0.034198478 0.46495032 4289505441
-0.11820027 -0.034198478 0.46495032 4289570980
-0.11738822 -0.034180094 0.46470034 4289570980
-0.11654561 -0.034152515 0.4643254 4289570980
-0.11579772 -0.034152515 0.4643254 4289570980
-0.11495692 -0.034124933 0.46395043 4289570980
-0.11408656 -0.034088161 0.46345049 4289505187
-0.11334007 -0.034088161 0.46345049 4289702566
-0.1124114 -0.034033004 0.46270058 4289702566
-0.11148515 -0.033977844 0.46195066 4289505187
-0.11047141 -0.033895105 0.46082577 4289505187
-0.10972916 -0.033895105 0.46082577 4289570980
-0.10877998 -0.033830754 0.45995086 4289570980
-0.10786299 -0.033775594 0.45920095 4289505187
-0.10712335 -0.033775594 0.45920095 4289570980
-0.10623893 -0.033729631 0.45857602 4289768359
-0.10538527 -0.033692855 0.45807606 4289834152
-0.10444757 -0.033628505 0.45720115 4289834152
-0.10371117 -0.033628505 0.45720115 4289834152
-0.10269324 -0.033536576 0.4559513 4289834152
-0.10137191 -0.03334352 0.45332658 4289834152
-0.10064173 -0.03334352 0.45332658 4289965738
-0.099691175 -0.033269972 0.45232669 4289965738
-0.098798543 -0.033214815 0.45157677 4290031531
-0.098016888 -0.033196427 0.45132679 4290163117
-0.097289935 -0.033196427 0.45132679 4290228910
-0.096536234 -0.033187233 0.4512018 4290294703
-0.095756404 -0.033168849 0.45095181 4290294703
-0.094951041 -0.03314127 0.45057687 4290294703
-0.094225287 -0.03314127 0.45057687 4290294703
-0.093447663 -0.033122882 0.45032689 4290228910
-0.09267085 -0.033104494 0.45007691 4290360496
-0.091945909 -0.033104494 0.45007691 4290426289
-0.091195635 -0.0330953 0.44995192 4290426804
-0.090445764 -0.03308611 0.44982696 4290426804
-0.089696296 -0.033076916 0.44970196 4290558390
-0.088971958 -0.033076916 0.44970196 4290558390
-0.08824762 -0.033076916 0.44970196 4290426804
-0.087523282 -0.033076916 0.44970196 4290558390
-0.086798944 -0.033076916 0.44970196 4290493367
-0.086098522 -0.03308611 0.44982696 4290493367
-0.085397705 -0.0330953 0.44995192 4290558907
-0.084672965 -0.0330953 0.44995192 4290624700
-0.083948225 -0.0330953 0.44995192 4290690746
-0.083246596 -0.033104494 0.45007691 4290690746
-0.082521655 -0.033104494 0.45007691 4290756539
-0.081796713 -0.033104494 0.45007691 4290756539
-0.081071772 -0.033104494 0.45007691 4290953918
-0.080324516 -0.0330953 0.44995192 4290756539
-0.079599775 -0.0330953 0.44995192 4290888125
-0.078831211 -0.033076916 0.44970196 4290953918
-0.078041755 -0.033049338 0.44932699 4290887872
-0.077253498 -0.033021759 0.44895205 4290953665
-0.076530367 -0.033021759 0.44895205 4291019458
-0.075765021 -0.033003371 0.44870207 4291019458
-0.075000487 -0.032984983 0.44845209 4291085251
-0.074278168 -0.032984983 0.44845209 4291019458
-0.073555842 -0.032984983 0.44845209 4291150274
-0.072813213 -0.032975789 0.44832709 4291281860
-0.072091088 -0.032975789 0.44832709 4291347653
-0.07136897 -0.032975789 0.44832709 4291281860
-0.070646845 -0.032975789 0.44832709 4291347653
-0.069905221 -0.032966599 0.4482021 4291347653
-0.069183297 -0.032966599 0.4482021 4291216837
-0.068480469 -0.032975789 0.44832709 4291348423
-0.067758352 -0.032975789 0.44832709 4291545032
-0.067036226 -0.032975789 0.44832709 4291676618
-0.066314101 -0.032975789 0.44832709 4291610825
-0.06561026 -0.032984983 0.44845209 4291545032
-0.064887933 -0.032984983 0.44845209 4291347653
-0.064165615 -0.032984983 0.44845209 4291676618
-0.063443288 -0.032984983 0.44845209 4291480009
-0.062720962 -0.032984983 0.44845209 4291545802
-0.061998632 -0.032984983 0.44845209 4291677388
-0.061276305 -0.032984983 0.44845209 4291808974
-0.060553983 -0.032984983 0.44845209 4291874767
-0.059848335 -0.032994177 0.44857708 4291874767
-0.059158754 -0.033012565 0.44882706 4291940560
-0.058468368 -0.03303095 0.44907701 4292269525
-0.057745039 -0.03303095 0.44907701 4292137171
-0.05705345 -0.033049338 0.44932699 4292202964
-0.056361053 -0.033067722 0.44957697 4292202964
-0.05565238 -0.033076916 0.44970196 4292071378
-0.054958574 -0.0330953 0.44995192 4292071378
-0.05423383 -0.0330953 0.44995192 4292137171
-0.053523958 -0.033104494 0.45007691 4292137173
-0.052813675 -0.033113688 0.4502019 4292202966
-0.052102994 -0.033122882 0.45032689 4292269529
-0.05137765 -0.033122882 0.45032689 4292137943
-0.050680421 -0.03314127 0.45057687 4292072150
-0.049982384 -0.033159655 0.45082682 4292269529
-0.049283545 -0.033178039 0.45107681 4292269529
-0.048556995 -0.033178039 0.45107681 4292137943
-0.047856949 -0.033196427 0.45132679 4292137943
-0.047169145 -0.033224005 0.45170173 4292269529
-0.046467289 -0.033242393 0.45195171 4292269529
-0.045777272 -0.033269972 0.45232669 4292269529
-0.04504871 -0.033269972 0.45232669 4292269529
-0.044344634 -0.033288356 0.45257664 4292269529
-0.043651801 -0.033315938 0.45295161 4292269529
-0.042945918 -0.033334326 0.45320159 4292401115
-0.042239223 -0.03335271 0.45345154 4292466908
-0.041508846 -0.03335271 0.45345154 4292466908
-0.040800948 -0.033371095 0.45370153 4292598492
-0.040081207 -0.033380289 0.45382652 4292532699
-0.0393719 -0.033398677 0.4540765 4292401113
-0.038640518 -0.033398677 0.4540765 4292401113
-0.037919566 -0.033407871 0.45420149 4292400343
-0.037208445 -0.033426255 0.45445144 4292860894
-0.036486488 -0.033435449 0.45457643 4292992480
-0.03578379 -0.033463027 0.45495141 4292926687
-0.035050999 -0.033463027 0.45495141 4292992480
-0.034365345 -0.033508994 0.45557633 4292992480
-0.033696134 -0.033573344 0.45645124 4293058273
-0.033042151 -0.033656083 0.45757613 4292992480
-0.032384545 -0.033738822 0.45870098 4293058273
-0.031645712 -0.033738822 0.45870098 4292926687
-0.030991094 -0.033830754 0.45995086 4292991967
-0.03031601 -0.033904299 0.46095076 4293123553
-0.029621664 -0.03395946 0.46170068 4293584104
-0.028924903 -0.034014616 0.46245059 4293189346
-0.028180033 -0.034014616 0.46245059 4293124066
-0.027472233 -0.034060583 0.46307552 4293518824
-0.026755208 -0.034097355 0.46357548 4293584617
-0.026043585 -0.034143321 0.46420041 4293387238
-0.025336759 -0.034198478 0.46495032 4293518824
-0.02458786 -0.034198478 0.46495032 4293518824
-0.02387741 -0.034253638 0.46570024 4293518313
-0.023164546 -0.034308795 0.46645015 4293452520
-0.022455271 -0.034373149 0.46732506 4293452520
-0.021743177 -0.0344375 0.46819997 4293518313
-0.020989042 -0.0344375 0.46819997 4293649897
-0.020278124 -0.034511045 0.46919987 4293320932
-0.019563984 -0.034584589 0.47019976 4293452520
-0.018836623 -0.03463975 0.47094968 4293518313
-0.018106848 -0.034694906 0.4716996 4293387240
-0.017379252 -0.034759261 0.4725745 4293584619
-0.016618073 -0.034759261 0.4725745 4293518826
-0.015886249 -0.034823611 0.47344941 4293518826
-0.015155601 -0.034897156 0.47444931 4293584106
-0.014429315 -0.034989089 0.47569919 4293649899
-0.013699 -0.035081021 0.47694904 4293649127
-0.012930775 -0.035081021 0.47694904 4293780713
-0.012200797 -0.035191339 0.4784489 4293584104
-0.011463 -0.035292462 0.47982374 4293452518
-0.010720775 -0.035393585 0.48119858 4293453033
-0.0099715376 -0.035485517 0.48244846 4293453033
-0.0092158923 -0.035568256 0.48357335 4293189346
-0.0084369965 -0.035568256 0.48357335 4293057760
-0.007673936 -0.035641804 0.48457325 4292794586
-0.0069094319 -0.035724539 0.4856981 4292597207
-0.0061428812 -0.035816472 0.48694798 4292597207
-0.0053750547 -0.035926789 0.48844782 4292465621
-0.0046059196 -0.036064688 0.49032262 4292202702
-0.0038161529 -0.036064688 0.49032262 4292071116
-0.0030379579 -0.036202583 0.49219742 4292071116
-0.002252013 -0.0363129 0.49369726 4292005323
-0.001460499 -0.036404833 0.49494714 4291873737
-0.00066462369 -0.036478378 0.495947 4291807944
0.00013460802 -0.036588695 0.49744686 4291807944
0.00093584968 -0.036588695 0.49744686 4291873737
0.00173971 -0.036643855 0.49819678 4291611078
-0.12223191 -0.033323694 0.46320051 4289373083
-0.12148582 -0.033323694 0.46320051 4289438876
-0.12073974 -0.033323694 0.46320051 4289373083
-0.12018794 -0.033377644 0.46395043 4289373083
-0.1196337 -0.033431593 0.46470034 4289242269
-0.11898114 -0.033458572 0.46507531 4289505441
-0.11823205 -0.033458572 0.46507531 4289505187
-0.11748294 -0.033458572 0.46507531 4289570980
-0.1166711 -0.033440586 0.46482533 4289570980
-0.1159224 -0.033440586 0.46482533 4289570980
-0.1150808 -0.033413611 0.46445039 4289505187
-0.11417886 -0.033368651 0.46382543 4289439394
-0.11343177 -0.033368651 0.46382543 4289505187
-0.11259359 -0.033341676 0.46345049 4289570980
-0.11157563 -0.033260752 0.4623256 4289570980
-0.11059126 -0.033188816 0.46132571 4289505187
-0.1098482 -0.033188816 0.46132571 4289505187
-0.10892778 -0.033134863 0.46057579 4289570980
-0.10800978 -0.033080913 0.45982587 4289570980
-0.10726913 -0.033080913 0.45982587 4289570980
-0.10638371 -0.033035956 0.45920095 4289899175
-0.10558656 -0.033017971 0.45895097 4289833382
-0.10479021 -0.032999985 0.45870098 4289964968
-0.10405138 -0.032999985 0.45870098 4289964968
-0.10303105 -0.032910071 0.45745113 4289964968
-0.10170729 -0.03272124 0.45482641 4289964968
-0.1009747 -0.03272124 0.45482641 4290030761
-0.099883996 -0.032604348 0.45320159 4290096554
-0.098989956 -0.032550398 0.45245168 4290096554
-0.098179758 -0.03252342 0.4520767 4290162347
-0.09745159 -0.03252342 0.4520767 4290228910
-0.096669942 -0.032505438 0.45182672 4290228910
-0.095836028 -0.03246947 0.45132679 4290294703
-0.095030054 -0.032442495 0.45095181 4290294703
-0.094303697 -0.032442495 0.45095181 4290228910
-0.093499541 -0.03241552 0.45057687 4290228910
-0.092696585 -0.032388542 0.4502019 4290295218
-0.091971442 -0.032388542 0.4502019 4290361011
-0.091220967 -0.032379553 0.45007691 4290361011
-0.090470888 -0.03237056 0.44995192 4290295218
-0.089721225 -0.032361567 0.44982696 4290426804
-0.088996686 -0.032361567 0.44982696 4290426804
-0.088272147 -0.032361567 0.44982696 4290558390
-0.087547608 -0.032361567 0.44982696 4290558390
-0.086823069 -0.032361567 0.44982696 4290427574
-0.086122446 -0.03237056 0.44995192 4290624953
-0.085397705 -0.03237056 0.44995192 4290558907
-0.084672965 -0.03237056 0.44995192 4290558907
-0.083971538 -0.032379553 0.45007691 4290624953
-0.083269715 -0.032388542 0.4502019 4290690746
-0.082544573 -0.032388542 0.4502019 4290756539
-0.08181943 -0.032388542 0.4502019 4290756539
-0.081094287 -0.032388542 0.4502019 4290887355
-0.08034683 -0.032379553 0.45007691 4290887355
-0.079621881 -0.032379553 0.45007691 4291018941
-0.078853123 -0.032361567 0.44982696 4291018941
-0.078063466 -0.032334592 0.44945198 4290887872
-0.07729651 -0.032316606 0.449202 4290953665
-0.076572977 -0.032316606 0.449202 4291019458
-0.075786129 -0.032289635 0.44882706 4291019458
-0.075042292 -0.032280643 0.44870207 4291019458
-0.074298866 -0.03227165 0.44857708 4291019458
-0.073576339 -0.03227165 0.44857708 4291150274
-0.072853811 -0.03227165 0.44857708 4291216067
-0.072131284 -0.03227165 0.44857708 4291281860
-0.071388863 -0.032262657 0.44845209 4291281860
-0.070666537 -0.032262657 0.44845209 4291347653
-0.06994421 -0.032262657 0.44845209 4291347653
-0.069221884 -0.032262657 0.44845209 4291479239
-0.068499558 -0.032262657 0.44845209 4291545032
-0.067796133 -0.03227165 0.44857708 4291545032
-0.067073599 -0.03227165 0.44857708 4291545032
-0.066351071 -0.03227165 0.44857708 4291545032
-0.065628543 -0.03227165 0.44857708 4291479239
-0.064906016 -0.03227165 0.44857708 4291479239
-0.064183496 -0.03227165 0.44857708 4291610825
-0.063460968 -0.03227165 0.44857708 4291480009
-0.062738441 -0.03227165 0.44857708 4291545802
-0.06201591 -0.03227165 0.44857708 4291677388
-0.061293382 -0.03227165 0.44857708 4291808974
-0.060570862 -0.03227165 0.44857708 4291808974
-0.059865009 -0.032280643 0.44870207 4291808974
-0.059175231 -0.032298625 0.44895205 4291940562
-0.058468368 -0.032307617 0.44907701 4292072148
-0.057745039 -0.032307617 0.44907701 4292137171
-0.05705345 -0.032325599 0.44932699 4292071378
-0.056361053 -0.032343585 0.44957697 4292268757
-0.05565238 -0.032352578 0.44970196 4292137171
-0.054958574 -0.03237056 0.44995192 4292137173
-0.05423383 -0.03237056 0.44995192 4292137173
-0.053523958 -0.032379553 0.45007691 4292072150
-0.052813675 -0.032388542 0.4502019 4292137943
-0.052102994 -0.032397535 0.45032689 4292072150
-0.05137765 -0.032397535 0.45032689 4292137943
-0.050680421 -0.03241552 0.45057687 4292137943
-0.049982384 -0.032433502 0.45082682 4292401115
-0.049283545 -0.032451484 0.45107681 4292006103
-0.048556995 -0.032451484 0.45107681 4292006103
-0.047856949 -0.03246947 0.45132679 4292072150
-0.047169145 -0.032496445 0.45170173 4292269529
-0.046467289 -0.032514427 0.45195171 4292269529
-0.045777272 -0.032541405 0.45232669 4292269529
-0.04504871 -0.032541405 0.45232669 4292137943
-0.044344634 -0.032559387 0.45257664 4292335322
-0.043651801 -0.032586362 0.45295161 4292335322
-0.042945918 -0.032604348 0.45320159 4292401115
-0.042239223 -0.03262233 0.45345154 4292466908
-0.041508846 -0.03262233 0.45345154 4292466908
-0.040800948 -0.032640316 0.45370153 4292532701
-0.040081207 -0.032649305 0.45382652 4292466908
-0.0393719 -0.03266729 0.4540765 4292466906
-0.038640518 -0.03266729 0.4540765 4292466906
-0.037919566 -0.032676283 0.45420149 4293255652
-0.037208445 -0.032694265 0.45445144 4292926687
-0.036486488 -0.032703258 0.45457643 4292926687
-0.03578379 -0.032730233 0.45495141 4292860894
-0.035050999 -0.032730233 0.45495141 4292992480
-0.034365345 -0.032775193 0.45557633 4292992480
-0.033696134 -0.032838136 0.45645124 4292926687
-0.033042151 -0.03291906 0.45757613 4292992480
-0.032384545 -0.032999985 0.45870098 4293058273
-0.031645712 -0.032999985 0.45870098 4292992480
-0.030991094 -0.033089906 0.45995086 4293123551
-0.03031601 -0.033161841 0.46095076 4293189344
-0.029621664 -0.033215791 0.46170068 4293780711
-0.028924903 -0.033269741 0.46245059 4293451746
-0.028180033 -0.033269741 0.46245059 4293123551
-0.027472233 -0.033314701 0.46307552 4293518309
-0.026755208 -0.033350669 0.46357548 4293518311
-0.026043585 -0.033395626 0.46420041 4293320932
-0.025336759 -0.033449579 0.46495032 4293320932
-0.02458786 -0.033449579 0.46495032 4293518311
-0.02387741 -0.033503529 0.46570024 4293584104
-0.023164546 -0.033557478 0.46645015 4293518311
-0.022455271 -0.033620421 0.46732506 4293452520
-0.021743177 -0.033683363 0.46819997 4293518313
-0.020989042 -0.033683363 0.46819997 4293714922
-0.020278124 -0.033755299 0.46919987 4293451750
-0.019563984 -0.033827234 0.47019976 4293518313
-0.018836623 -0.033881184 0.47094968 4293518313
-0.018106848 -0.033935137 0.4716996 4293452520
-0.017379252 -0.03399808 0.4725745 4293715692
-0.016618073 -0.03399808 0.4725745 4293715692
-0.015886249 -0.034061022 0.47344941 4293649899
-0.015155601 -0.034132957 0.47444931 4293846508
-0.014429315 -0.034222875 0.47569919 4293780715
-0.013699 -0.034312792 0.47694904 4293714922
-0.012930775 -0.034312792 0.47694904 4293846508
-0.012200797 -0.034420695 0.4784489 4293780715
-0.011463 -0.034519605 0.47982374 4293583336
-0.010720775 -0.034618516 0.48119858 4293452520
-0.0099715376 -0.034708433 0.48244846 4293518313
-0.0092158923 -0.034789361 0.48357335 4293189346
-0.0084369965 -0.034789361 0.48357335 4293057760
-0.007673936 -0.034861296 0.48457325 4292794586
-0.0069094319 -0.034942221 0.4856981 4292663000
-0.0061428812 -0.035032138 0.48694798 4292466134
-0.0053750547 -0.035140041 0.48844782 4292400341
-0.0046059196 -0.035274919 0.49032262 4292202702
-0.0038161529 -0.035274919 0.49032262 4292071116
-0.0030379579 -0.035409797 0.49219742 4292071116
-0.002252013 -0.035517696 0.49369726 4292005323
-0.001460499 -0.035607617 0.49494714 4291873737
-0.00066462369 -0.035679549 0.495947 4291807944
0.00013450655 -0.035760477 0.49707189 4291807944
0.00093514426 -0.035760477 0.49707189 4291807944
0.0017370913 -0.035787452 0.49744686 4291545285
-0.12223191 -0.032577615 0.46320051 4289241497
-0.12148582 -0.032577615 0.46320051 4289373083
-0.12073974 -0.032577615 0.46320051 4289438876
-0.12018794 -0.032630358 0.46395043 4289373083
-0.1196337 -0.032683101 0.46470034 4289308060
-0.11898114 -0.032709472 0.46507531 4289505439
-0.11823205 -0.032709472 0.46507531 4289505441
-0.11748294 -0.032709472 0.46507531 4289439648
-0.1166711 -0.032691889 0.46482533 4289571234
-0.1159224 -0.032691889 0.46482533 4289571234
-0.1150808 -0.032665521 0.46445039 4289439648
-0.11417886 -0.032621566 0.46382543 4289373855
-0.11343177 -0.032621566 0.46382543 4289439394
-0.11259359 -0.032595195 0.46345049 4289570980
-0.11157563 -0.032516081 0.4623256 4289570980
-0.11059126 -0.032445755 0.46132571 4289570980
-0.1098482 -0.032445755 0.46132571 4289505187
-0.10892778 -0.032393012 0.46057579 4289570980
-0.10800978 -0.03234027 0.45982587 4289833382
-0.10726913 -0.03234027 0.45982587 4289636003
-0.10638371 -0.032296319 0.45920095 4289701796
-0.10558656 -0.032278735 0.45895097 4289833382
-0.10479021 -0.032261156 0.45870098 4289899175
-0.10405138 -0.032261156 0.45870098 4289964968
-0.10303105 -0.03217325 0.45745113 4289899175
-0.10170729 -0.031988651 0.45482641 4289964968
-0.1009747 -0.031988651 0.45482641 4290030761
-0.099883996 -0.031874374 0.45320159 4290096554
-0.098989956 -0.031821631 0.45245168 4290096554
-0.098179758 -0.03179526 0.4520767 4290096554
-0.09745159 -0.03179526 0.4520767 4290293933
-0.096669942 -0.031777676 0.45182672 4290359726
-0.095836028 -0.031742517 0.45132679 4290294703
-0.095030054 -0.031716146 0.45095181 4290294703
-0.094303697 -0.031716146 0.45095181 4290294705
-0.093499541 -0.031689774 0.45057687 4290360498
-0.092696585 -0.031663403 0.4502019 4290229425
-0.091971442 -0.031663403 0.4502019 4290295218
-0.091220967 -0.031654611 0.45007691 4290361011
-0.090470888 -0.03164582 0.44995192 4290295218
-0.089721225 -0.031637032 0.44982696 4290426804
-0.088996686 -0.031637032 0.44982696 4290426804
-0.088272147 -0.031637032 0.44982696 4290624183
-0.087547608 -0.031637032 0.44982696 4290558390
-0.086823069 -0.031637032 0.44982696 4290493367
-0.086122446 -0.03164582 0.44995192 4290624953
-0.085397705 -0.03164582 0.44995192 4290559160
-0.084672965 -0.03164582 0.44995192 4290559160
-0.083971538 -0.031654611 0.45007691 4290559160
-0.083269715 -0.031663403 0.4502019 4290624953
-0.082544573 -0.031663403 0.4502019 4290690746
-0.08181943 -0.031663403 0.4502019 4290690746
-0.081094287 -0.031663403 0.4502019 4290821562
-0.08034683 -0.031654611 0.45007691 4291018941
-0.079621881 -0.031654611 0.45007691 4291018941
-0.078853123 -0.031637032 0.44982696 4291018941
-0.078063466 -0.03161066 0.44945198 4291018941
-0.07729651 -0.031593077 0.449202 4291084734
-0.076572977 -0.031593077 0.449202 4291150274
-0.075786129 -0.031566706 0.44882706 4291150274
-0.075042292 -0.031557914 0.44870207 4291216067
-0.074298866 -0.031549126 0.44857708 4291084481
-0.073576339 -0.031549126 0.44857708 4291150274
-0.072853811 -0.031549126 0.44857708 4291216067
-0.072131284 -0.031549126 0.44857708 4291216067
-0.071388863 -0.031540334 0.44845209 4291347653
-0.070666537 -0.031540334 0.44845209 4291281860
-0.06994421 -0.031540334 0.44845209 4291347653
-0.069221884 -0.031540334 0.44845209 4291479239
-0.068499558 -0.031540334 0.44845209 4291347653
-0.067796133 -0.031549126 0.44857708 4291545032
-0.067073599 -0.031549126 0.44857708 4291347653
-0.066351071 -0.031549126 0.44857708 4291479239
-0.065628543 -0.031549126 0.44857708 4291479239
-0.064906016 -0.031549126 0.44857708 4291479239
-0.064183496 -0.031549126 0.44857708 4291610825
-0.063460968 -0.031549126 0.44857708 4291480009
-0.062738441 -0.031549126 0.44857708 4291545802
-0.06201591 -0.031549126 0.44857708 4291611597
-0.061293382 -0.031549126 0.44857708 4291677390
-0.060570862 -0.031549126 0.44857708 4291677390
-0.059865009 -0.031557914 0.44870207 4291940562
-0.059175231 -0.031575497 0.44895205 4291874769
-0.058468368 -0.031584285 0.44907701 4292006355
-0.057745039 -0.031584285 0.44907701 4292006355
-0.05705345 -0.031601869 0.44932699 4291940562
-0.056361053 -0.031619448 0.44957697 4292071378
-0.055667847 -0.031637032 0.44982696 4292071378
-0.054958574 -0.03164582 0.44995192 4291940564
-0.05423383 -0.03164582 0.44995192 4291940564
-0.053538822 -0.031663403 0.4502019 4292006357
-0.052828338 -0.031672191 0.45032689 4292006357
-0.052131917 -0.031689774 0.45057687 4292006357
-0.051406167 -0.031689774 0.45057687 4292269529
-0.050708532 -0.031707354 0.45082682 4292269529
-0.049996242 -0.031716146 0.45095181 4291940564
-0.049310859 -0.031742517 0.45132679 4292006614
-0.048610814 -0.031760097 0.45157677 4292006614
-0.047883455 -0.031760097 0.45157677 4292006614
-0.047195248 -0.031786468 0.45195171 4292072407
-0.04649299 -0.031804051 0.45220169 4292335322
-0.045802571 -0.031830419 0.45257664 4292269529
-0.045073602 -0.031830419 0.45257664 4292137943
-0.044381373 -0.031856794 0.45295161 4292335322
-0.043675892 -0.031874374 0.45320159 4292531931
-0.042969603 -0.031891953 0.45345154 4292663517
-0.042262509 -0.031909537 0.45370153 4292597724
-0.04153173 -0.031909537 0.45370153 4292531931
-0.040812187 -0.031918325 0.45382652 4292663517
-0.040103287 -0.031935908 0.4540765 4292663517
-0.039382737 -0.0319447 0.45420149 4292597724
-0.038651153 -0.0319447 0.45420149 4292663517
-0.037930001 -0.031953488 0.45432645 4292860894
-0.037218679 -0.031971067 0.45457643 4292663515
-0.036506556 -0.031988651 0.45482641 4292729308
-0.035803452 -0.032015022 0.45520136 4292926687
-0.035070255 -0.032015022 0.45520136 4293123553
-0.034393627 -0.032067765 0.4559513 4293057760
-0.033723813 -0.032129299 0.45682621 4292860894
-0.033078253 -0.032217205 0.45807606 4292926687
-0.032428667 -0.03230511 0.45932594 4292992480
-0.031688828 -0.03230511 0.45932594 4292926687
-0.031024778 -0.032384221 0.4604508 4293058271
-0.03034067 -0.032445755 0.46132571 4293124064
-0.029653739 -0.032507289 0.46220061 4292991965
-0.02894054 -0.032542452 0.46270058 4293320930
-0.028195266 -0.032542452 0.46270058 4293189344
-0.027479649 -0.032577615 0.46320051 4293255137
-0.026769634 -0.032621566 0.46382543 4293320932
-0.02605761 -0.032665521 0.46445039 4293320932
-0.025336759 -0.03270068 0.46495032 4293320932
-0.02458786 -0.03270068 0.46495032 4293781483
-0.02387741 -0.032753423 0.46570024 4293649897
-0.023170752 -0.032814957 0.46657515 4293452518
-0.022461277 -0.032876492 0.46745005 4293452518
-0.021754785 -0.032946814 0.46844995 4293518311
-0.021000249 -0.032946814 0.46844995 4293714920
-0.020288927 -0.03301714 0.46944985 4293649127
-0.019574385 -0.033087462 0.47044975 4293583334
-0.018851621 -0.033148997 0.47132465 4293583334
-0.018126041 -0.033210531 0.47219956 4293452520
-0.017397638 -0.033272065 0.47307447 4293584106
-0.016635653 -0.033272065 0.47307447 4293715692
-0.015903026 -0.0333336 0.47394937 4293584106
-0.015175564 -0.03341271 0.47507423 4293649899
-0.014440688 -0.033483036 0.47607413 4293649899
-0.013709771 -0.033570942 0.47732401 4293714922
-0.01294094 -0.033570942 0.47732401 4293714922
-0.012207171 -0.033667635 0.47869885 4293714922
-0.011471959 -0.033773124 0.48019871 4293649129
-0.010726344 -0.033861026 0.48144856 4293452520
-0.0099767046 -0.033948932 0.48269844 4293452520
-0.0092230383 -0.034036838 0.48394829 4293189348
-0.0084435381 -0.034036838 0.48394829 4293057762
-0.0076798736 -0.034107164 0.48494819 4292860894
-0.006914766 -0.034186278 0.48607308 4292531929
-0.0061491881 -0.034282971 0.48744792 4292268755
-0.0053833071 -0.03440604 0.48919773 4292137169
-0.0046129641 -0.034537897 0.49107254 4292005836
-0.0038219893 -0.034537897 0.49107254 4292071629
-0.0030418152 -0.034660965 0.49282235 4292005323
-0.0022542935 -0.034757659 0.49419719 4292005323
-0.0014616054 -0.034836773 0.49532208 4292005323
-0.00066479121 -0.034889515 0.49607199 4291873737
0.00013447274 -0.03495105 0.4969469 4291808457
0.0009349091 -0.03495105 0.4969469 4291742664
0.0017370913 -0.034986213 0.49744686 4291545285
0.0025383329 -0.034986213 0.49744686 4291545285
-0.13128814 -0.033575136 0.48857281 4289373083
-0.1305012 -0.033575136 0.48857281 4289438874
-0.12702638 -0.032879412 0.4784489 4289373081
-0.12625574 -0.032879412 0.4784489 4289175702
-0.12384605 -0.032449953 0.47219956 4289373081
-0.12165198 -0.03207203 0.46670014 4289438874
-0.12083551 -0.032054849 0.46645015 4289504667
-0.12001983 -0.032037672 0.4662002 4289308060
-0.11926892 -0.032037672 0.4662002 4289439646
-0.11839092 -0.032003313 0.46570024 4289439646
-0.11760923 -0.031994727 0.46557525 4289439646
-0.11676522 -0.031968959 0.4652003 4289636257
-0.11601591 -0.031968959 0.4652003 4289636257
-0.1151737 -0.031943191 0.46482533 4289505441
-0.11430193 -0.031908836 0.4643254 4289505441
-0.11343177 -0.031874478 0.46382543 4289505441
-0.11268468 -0.031874478 0.46382543 4289571234
-0.1116963 -0.031805765 0.46282557 4289505441
-0.11068115 -0.031728461 0.46170068 4289439648
-0.10993748 -0.031728461 0.46170068 4289439648
-0.10904602 -0.031685516 0.46107575 4289505441
-0.10815657 -0.031642567 0.4604508 4289570980
-0.10729829 -0.031608213 0.45995086 4289505187
-0.10655744 -0.031608213 0.45995086 4289701796
-0.10575908 -0.031591035 0.45970088 4289833382
-0.10496153 -0.031573854 0.4594509 4289702566
-0.10422149 -0.031573854 0.4594509 4289834152
-0.1032281 -0.031496555 0.45832604 4289768359
-0.10212653 -0.031384896 0.45670122 4289834152
-0.10139092 -0.031384896 0.45670122 4290030761
-0.10010438 -0.031213112 0.45420149 4290096554
-0.099126682 -0.031135809 0.4530766 4290096554
-0.098369762 -0.031127218 0.45295161 4290096554
-0.097640187 -0.031127218 0.45295161 4290162347
-0.096723422 -0.031067094 0.4520767 4290162347
-0.095942184 -0.031049915 0.45182672 4290163117
-0.095056392 -0.030998381 0.45107681 4290294703
-0.094329834 -0.030998381 0.45107681 4290228912
-0.093525477 -0.030972613 0.45070186 4290360498
-0.092722319 -0.030946845 0.45032689 4290294965
-0.091971442 -0.030938257 0.4502019 4290294965
-0.091220967 -0.030929666 0.45007691 4290294965
-0.090470888 -0.030921077 0.44995192 4290229172
-0.089746147 -0.030921077 0.44995192 4290360758
-0.089021407 -0.030921077 0.44995192 4290360758
-0.088296667 -0.030921077 0.44995192 4290558390
-0.087571926 -0.030921077 0.44995192 4290558390
-0.086847186 -0.030921077 0.44995192 4290689976
-0.086122446 -0.030921077 0.44995192 4290755769
-0.085421428 -0.030929666 0.45007691 4290689976
-0.084696487 -0.030929666 0.45007691 4290689976
-0.083994858 -0.030938257 0.4502019 4290689976
-0.083269715 -0.030938257 0.4502019 4290755769
-0.082544573 -0.030938257 0.4502019 4290755769
-0.08181943 -0.030938257 0.4502019 4290755769
-0.081094287 -0.030938257 0.4502019 4290821562
-0.080369145 -0.030938257 0.4502019 4291018941
-0.079643995 -0.030938257 0.4502019 4291018941
-0.078875028 -0.030921077 0.44995192 4291018941
-0.07810688 -0.0309039 0.44970196 4291018941
-0.07731802 -0.030878132 0.44932699 4291018941
-0.076594278 -0.030878132 0.44932699 4291084734
-0.075828336 -0.030860953 0.44907701 4291084734
-0.075084105 -0.030852364 0.44895205 4291150527
-0.074340276 -0.030843776 0.44882706 4291084734
-0.073617347 -0.030843776 0.44882706 4291084734
-0.072894417 -0.030843776 0.44882706 4291150527
-0.072151385 -0.030835187 0.44870207 4291216320
-0.071428664 -0.030835187 0.44870207 4291150527
-0.070705928 -0.030835187 0.44870207 4291216320
-0.069983199 -0.030835187 0.44870207 4291347906
-0.069260471 -0.030835187 0.44870207 4291479492
-0.068537742 -0.030835187 0.44870207 4291347906
-0.067815021 -0.030835187 0.44870207 4291479492
-0.067092292 -0.030835187 0.44870207 4291347906
-0.066388048 -0.030843776 0.44882706 4291347653
-0.065665118 -0.030843776 0.44882706 4291479239
-0.064942189 -0.030843776 0.44882706 4291479239
-0.064219266 -0.030843776 0.44882706 4291545032
-0.063496336 -0.030843776 0.44882706 4291480009
-0.06275592 -0.030835187 0.44870207 4291480009
-0.062033191 -0.030835187 0.44870207 4291545804
-0.061310463 -0.030835187 0.44870207 4291677390
-0.060587738 -0.030835187 0.44870207 4291677392
-0.059898362 -0.030852364 0.44895205 4292137943
-0.059208177 -0.030869542 0.449202 4291808978
-0.058500916 -0.030878132 0.44932699 4292006357
-0.057777185 -0.030878132 0.44932699 4292006357
-0.05706932 -0.030886721 0.44945198 4292006357
-0.056376722 -0.0309039 0.44970196 4291874771
-0.055667847 -0.030912489 0.44982696 4291940564
-0.054973841 -0.030929666 0.45007691 4291940564
-0.054248895 -0.030929666 0.45007691 4291940564
-0.053538822 -0.030938257 0.4502019 4291940564
-0.052843001 -0.030955436 0.45045188 4292006357
-0.052146379 -0.030972613 0.45070186 4292072150
-0.051420428 -0.030972613 0.45070186 4292072150
-0.050722592 -0.03098979 0.45095181 4292072407
-0.050037816 -0.03101556 0.45132679 4291940821
-0.049338169 -0.031032737 0.45157677 4292006614
-0.048637722 -0.031049915 0.45182672 4292006614
-0.04790996 -0.031049915 0.45182672 4292006614
-0.047221351 -0.031075684 0.45220169 4292072407
-0.046518691 -0.031092862 0.45245168 4292268759
-0.045840517 -0.031127218 0.45295161 4292268759
-0.045110948 -0.031127218 0.45295161 4292268757
-0.044405866 -0.031144397 0.45320159 4292268757
-0.043699984 -0.031161575 0.45345154 4292466138
-0.042993292 -0.031178754 0.45370153 4292531931
-0.042285796 -0.031195933 0.45395151 4292597470
-0.041554615 -0.031195933 0.45395151 4292531677
-0.040845908 -0.031213112 0.45420149 4292531677
