# .PCD v0.7 - Point Cloud Data file format
VERSION 0.7
FIELDS x y z rgba
SIZE 4 4 4 4
TYPE F F F U
COUNT 1 1 1 1
WIDTH 1059
HEIGHT 1
VIEWPOINT 0 0 0 1 0 0 0
POINTS 1059
DATA ascii
0.048547171 0.1245006 0.39570773 4289639337
0.049200073 0.12453993 0.39583272 4289639337
0.049837645 0.12453993 0.39583272 4289967532
0.050475217 0.12453993 0.39583272 4289770153
0.051128931 0.12457925 0.39595771 4289834917
0.051766697 0.12457925 0.39595771 4290163882
0.052421015 0.12461858 0.3960827 4290952883
0.053058989 0.12461858 0.3960827 4289110679
0.053713903 0.1246579 0.39620766 4287005816
0.054352079 0.1246579 0.39620766 4284834647
0.055024944 0.12473655 0.39645764 4282203958
0.055663526 0.12473655 0.39645764 4280230168
0.056302104 0.12473655 0.39645764 4280428063
0.056976587 0.1248152 0.39670762 4280230684
0.057651866 0.12489385 0.39695761 4280230686
0.058291249 0.12489385 0.39695761 4280230686
0.058949187 0.12493317 0.39708257 4280295709
0.059607528 0.12497249 0.39720756 4280361502
0.060285233 0.12505114 0.39745754 4280295709
0.060944576 0.12509046 0.39758253 4280295709
0.061584964 0.12509046 0.39758253 4280295707
0.062244918 0.12512979 0.39770752 4280229914
0.062905274 0.12516911 0.39783251 4280098330
0.063566029 0.12520844 0.39795747 4280164123
0.064207017 0.12520844 0.39795747 4280164123
0.064868376 0.12524776 0.39808246 4280295709
0.065550715 0.12532641 0.39833245 4280164893
0.066213079 0.12536573 0.39845744 4280230686
0.066854872 0.12536573 0.39845744 4280296479
0.067623705 0.12560168 0.39920735 4280493858
0.068309464 0.12568033 0.39945734 4280623645
0.06899602 0.12575898 0.39970729 4283650123
0.069639832 0.12575898 0.39970729 4288848794
0.070327595 0.12583762 0.39995727 4291809479
0.07103835 0.1259556 0.40033224 4291151552
0.071727924 0.12603424 0.40058219 4291348931
0.07241831 0.12611289 0.40083218 4291349701
0.073063932 0.12611289 0.40083218 4291349701
0.073755525 0.12619154 0.40108216 4291349701
0.074447915 0.12627019 0.40133211 4291876045
0.075445145 0.12686005 0.40320691 4289245097
-0.17929137 0.11288504 0.35696188 4292666082
-0.17871639 0.11288504 0.35696188 4292666082
-0.17814143 0.11288504 0.35696188 4292862691
-0.17756647 0.11288504 0.35696188 4292731105
-0.17699151 0.11288504 0.35696188 4292402138
-0.17616946 0.11272693 0.35646191 4292336345
-0.1755953 0.11272693 0.35646191 4292533975
-0.17502114 0.11272693 0.35646191 4292731354
-0.17450815 0.11276646 0.3565869 4290625208
-0.17399476 0.11280599 0.35671189 4287861902
-0.17342021 0.11280599 0.35671189 4286214769
-0.17296678 0.11288504 0.35696188 4284438358
-0.17245217 0.11292456 0.35708684 4285224794
-0.171877 0.11292456 0.35708684 4285356380
-0.1713618 0.11296409 0.35721183 4285158740
-0.17084619 0.11300361 0.35733682 4285158740
-0.17027064 0.11300361 0.35733682 4285684818
-0.082708254 0.11059256 0.34971264 4286874251
-0.082144976 0.11059256 0.34971264 4287072655
-0.081844106 0.11094829 0.35083753 4287598999
-0.081539609 0.11130401 0.35196239 4287928218
-0.080972694 0.11130401 0.35196239 4288125597
-0.080548555 0.11150165 0.35258734 4288126367
-0.080008999 0.11154117 0.35271233 4288323746
-0.079440884 0.11154117 0.35271233 4288389539
-0.078872763 0.11154117 0.35271233 4288389539
-0.07855437 0.11189689 0.35383719 4288455078
-0.078783296 0.11304314 0.35746181 4288520871
-0.079684176 0.11517752 0.36421108 4288718250
-0.079097539 0.11517752 0.36421108 4288718250
-0.078645617 0.11537515 0.36483604 4288718250
-0.078138195 0.11549373 0.36521098 4288718250
-0.077603027 0.11557278 0.36546096 4288718250
-0.077067055 0.11565183 0.36571094 4288718250
-0.076478004 0.11565183 0.36571094 4288784043
-0.076018624 0.11584946 0.36633587 4288981422
-0.075608708 0.11612613 0.36721078 4289112238
-0.075017244 0.11612613 0.36721078 4289178031
-0.074425772 0.11612613 0.36721078 4289178031
-0.073884569 0.11620519 0.36746076 4289046445
-0.073342547 0.11628424 0.36771071 4289112492
-0.072799727 0.11636329 0.36796069 4289178285
-0.072207056 0.11636329 0.36796069 4289375410
-0.071687356 0.11648187 0.36833566 4289375410
-0.071431808 0.11703522 0.37008545 4289572019
-0.071385935 0.11794431 0.37296015 4289637812
-0.071164757 0.11857672 0.37495995 4289637812
-0.070560805 0.11857672 0.37495995 4289769398
-0.069094054 0.11711428 0.37033543 4289703348
-0.068497546 0.11711428 0.37033543 4289834934
-0.067580216 0.11656091 0.36858562 4289834934
-0.066918395 0.11644235 0.36821067 4289966520
-0.066325314 0.11644235 0.36821067 4289966520
-0.065732233 0.11644235 0.36821067 4289966520
-0.065139152 0.11644235 0.36821067 4290032313
-0.064567983 0.11648187 0.36833566 4289966520
-0.064061537 0.11663997 0.3688356 4290032313
-0.063747041 0.1171538 0.37046042 4290229692
-0.063363396 0.11754906 0.3717103 4290229692
-0.062764674 0.11754906 0.3717103 4290163899
-0.062270474 0.11774669 0.37233523 4290032570
-0.06152584 0.11747 0.37146032 4290032570
-0.060927525 0.11747 0.37146032 4290032570
-0.060166817 0.1171538 0.37046042 4290229949
-0.059570111 0.1171538 0.37046042 4290032570
-0.058973413 0.1171538 0.37046042 4290229949
-0.058416098 0.11723285 0.3707104 4290229949
-0.05781899 0.11723285 0.3707104 4290229949
-0.057299051 0.11739095 0.37121034 4290361789
-0.056777507 0.11754906 0.3717103 4290361789
-0.056254353 0.11770716 0.37221023 4290230201
-0.055654831 0.11770716 0.37221023 4290230201
-0.055129256 0.11786526 0.37271017 4290361787
-0.054638647 0.11810242 0.37346011 4290427580
-0.054145616 0.11833957 0.37421003 4290427580
-0.053560764 0.1183791 0.37433502 4290493373
-0.052957818 0.1183791 0.37433502 4290230973
-0.052372348 0.11841862 0.37445998 4290033594
-0.051786482 0.11845814 0.37458497 4289572021
-0.051234368 0.11857672 0.37495995 4286611336
-0.050630424 0.11857672 0.37495995 4283388515
-0.050126523 0.11881387 0.37570986 4281809483
-0.049521364 0.11881387 0.37570986 4281285451
-0.048916202 0.11881387 0.37570986 4281548623
-0.048278905 0.11873482 0.37545988 4281285187
-0.047578927 0.11849767 0.37470996 4281614152
-0.046944037 0.11841862 0.37445998 4283320409
-0.046093412 0.11778621 0.37246022 4285557371
-0.045340825 0.11739095 0.37121034 4286872968
-0.044742912 0.11739095 0.37121034 4290359997
-0.04396664 0.11691665 0.36971051 4290098360
-0.043341815 0.1168376 0.36946052 4290427325
-0.042746726 0.1168376 0.36946052 4290558911
-0.04227997 0.11719333 0.37058541 4290493118
-0.041683063 0.11719333 0.37058541 4290427582
-0.041307874 0.11782574 0.37258521 4290427582
-0.040926237 0.11845814 0.37458497 4290427580
-0.040484346 0.11893246 0.37608483 4290164408
-0.039944846 0.11913008 0.37670976 4290098615
-0.039390281 0.11928818 0.37720969 4289703857
-0.038846962 0.11948582 0.37783465 4289245879
-0.03823838 0.11948582 0.37783465 4289180086
-0.03769204 0.11968344 0.37845957 4287272091
-0.037217163 0.12011822 0.37983441 4284837750
-0.037159439 0.1219364 0.38558382 4282927180
-0.037568793 0.12537512 0.39645764 4281808699
0.019984828 0.12197591 0.38570878 4280822053
0.020606091 0.12197591 0.38570878 4281019432
0.02106227 0.12102731 0.38270912 4280756260
0.021664543 0.12094826 0.38245913 4282072120
0.022280574 0.12094826 0.38245913 4286348663
0.022896603 0.12094826 0.38245913 4289967278
0.023512634 0.12094826 0.38245913 4289441186
0.024168091 0.12114589 0.38308409 4289572772
0.024914509 0.12177829 0.38508385 4289835169
0.025659086 0.12237117 0.38695866 4289769376
0.026401209 0.12292454 0.38870847 4289770146
0.027070759 0.12312216 0.3893334 4288849044
0.027697859 0.12312216 0.3893334 4284901469
0.028370429 0.1233198 0.38995835 4281217061
0.029035717 0.12347789 0.39045829 4280756260
0.029683622 0.12355695 0.39070827 4280624674
0.03031294 0.12355695 0.39070827 4280427042
0.030971948 0.12367552 0.39108321 4280361249
0.03163217 0.1237941 0.39145818 4280164640
0.032293595 0.12391267 0.39183313 4280098847
0.03294573 0.12399173 0.39208311 4279968031
0.033577263 0.12399173 0.39208311 4279968031
0.034230605 0.12407078 0.39233309 4279968284
0.034884751 0.12414983 0.39258307 4280034077
0.035528392 0.12418935 0.39270803 4280099870
0.036160931 0.12418935 0.39270803 4280034077
0.036816891 0.12426841 0.39295802 4280099617
0.037473656 0.12434746 0.393208 4280296996
0.038131226 0.12442651 0.39345798 4280952359
0.038789596 0.12450556 0.39370793 4281018152
0.039423745 0.12450556 0.39370793 4280753697
0.040083326 0.12458461 0.39395791 4281872178
0.0407308 0.12462413 0.3940829 4283650125
0.041378673 0.12466367 0.39420789 4285887087
0.042013623 0.12466367 0.39420789 4288387738
0.042662103 0.12470319 0.39433289 4288848289
0.043393318 0.12497987 0.39520779 4289440683
0.044043805 0.12501939 0.39533275 4289309097
0.044680569 0.12501939 0.39533275 4289112739
0.045331664 0.12505892 0.39545774 4289178532
0.045983162 0.12509844 0.39558274 4289245095
0.046635062 0.12513797 0.39570773 4289376681
0.047272433 0.12513797 0.39570773 4289770669
0.0479098 0.12513797 0.39570773 4289770669
0.048547171 0.12513797 0.39570773 4289901739
0.049200073 0.12517749 0.39583272 4289901739
0.049837645 0.12517749 0.39583272 4289901739
0.050475217 0.12517749 0.39583272 4289901739
0.051128931 0.12521702 0.39595771 4289770153
0.051766697 0.12521702 0.39595771 4289901739
0.052421015 0.12525655 0.3960827 4290164652
0.053058989 0.12525655 0.3960827 4290427824
0.053713903 0.12529607 0.39620766 4290230697
0.054352079 0.12529607 0.39620766 4288849044
0.055024944 0.12537512 0.39645764 4286218869
0.055663526 0.12537512 0.39645764 4283389770
0.056302104 0.12537512 0.39645764 4280823591
0.056976587 0.12545417 0.39670762 4280034075
0.057651866 0.12553322 0.39695761 4280492829
0.058291249 0.12553322 0.39695761 4280756001
0.058949187 0.12557274 0.39708257 4280427036
0.059607528 0.12561227 0.39720756 4280624415
0.060285233 0.12569132 0.39745754 4280361500
0.060944576 0.12573086 0.39758253 4280295707
0.061584964 0.12573086 0.39758253 4280361243
0.062244918 0.12577038 0.39770752 4280295450
0.062905274 0.12580991 0.39783251 4280229659
0.063566029 0.12584943 0.39795747 4280295452
0.064207017 0.12584943 0.39795747 4280295452
0.064868376 0.12588896 0.39808246 4280427038
0.065550715 0.12596801 0.39833245 4280427295
0.066213079 0.12600753 0.39845744 4280361502
0.066854872 0.12600753 0.39845744 4280296477
0.067539021 0.12608659 0.39870742 4280559649
0.068223968 0.12616563 0.39895737 4281743150
0.06890972 0.12624468 0.39920735 4286019695
0.069552727 0.12624468 0.39920735 4290625208
0.070239685 0.12632374 0.39945734 4291612103
0.070949629 0.12644231 0.39983228 4291414724
0.071660787 0.1265609 0.40020725 4291414724
0.072350562 0.12663993 0.4004572 4291415494
0.072995588 0.12663993 0.4004572 4291415494
0.07368657 0.12671898 0.40070719 4291087299
0.074378364 0.12679805 0.40095717 4290889920
0.075351603 0.1273514 0.40270698 4288059283
-0.17904025 0.1133011 0.35646191 4292666595
-0.17846607 0.1133011 0.35646191 4292666595
-0.17782955 0.11326137 0.35633692 4292928486
-0.1772556 0.11326137 0.35633692 4292796900
-0.17668164 0.11326137 0.35633692 4292730083
-0.17610769 0.11326137 0.35633692 4292532704
-0.1755953 0.1133011 0.35646191 4292402140
-0.17502114 0.1133011 0.35646191 4292270554
-0.17450815 0.11334082 0.3565869 4292336598
-0.17399476 0.11338055 0.35671189 4291612875
-0.17342021 0.11338055 0.35671189 4289307808
-0.17296678 0.11346001 0.35696188 4287399811
-0.17245217 0.11349973 0.35708684 4285159771
-0.1715762 0.1133011 0.35646191 4285620322
-0.17100206 0.1133011 0.35646191 4285487705
-0.17042789 0.1133011 0.35646191 4285553498
-0.16979419 0.11326137 0.35633692 4285619287
-0.16922024 0.11326137 0.35633692 4285816666
-0.082673423 0.11187093 0.35196239 4287138450
-0.082106516 0.11187093 0.35196239 4288059552
-0.081597522 0.11195038 0.35221237 4287533460
-0.081030205 0.11195038 0.35221237 4287928218
-0.080462895 0.11195038 0.35221237 4288256413
-0.079895586 0.11195038 0.35221237 4288387999
-0.079356425 0.11199011 0.35233736 4288389539
-0.078788914 0.11199011 0.35233736 4288455332
-0.078221403 0.11199011 0.35233736 4288455332
-0.077956893 0.11242711 0.3537122 4288586918
-0.078234881 0.11365864 0.3575868 4288849836
-0.078744665 0.11524772 0.36258626 4288849836
-0.078187592 0.11528745 0.36271125 4288784043
-0.07763011 0.11532717 0.36283624 4288718250
-0.077072233 0.1153669 0.36296123 4288784043
-0.076487608 0.1153669 0.36296123 4288784043
-0.07637345 0.11608198 0.36521098 4288849836
-0.075940818 0.11632034 0.3659609 4288915629
-0.075480036 0.11651898 0.36658585 4289047215
-0.07499171 0.11667789 0.36708578 4289178801
-0.07440044 0.11667789 0.36708578 4289047215
-0.073859438 0.11675734 0.36733577 4288981422
-0.073292695 0.11679707 0.36746076 4289112492
-0.07275027 0.11687652 0.36771071 4289178285
-0.072158001 0.11687652 0.36771071 4289375664
-0.071614377 0.11695597 0.36796069 4289375664
-0.071238823 0.11731352 0.36908558 4289507250
-0.07083571 0.11763132 0.37008545 4289507250
-0.070690326 0.11838614 0.37246022 4289638836
-0.069667034 0.11767106 0.37021044 4289902008
-0.068837546 0.11727379 0.36896059 4289901238
-0.068243258 0.11727379 0.36896059 4289703859
-0.067557298 0.11711488 0.36846063 4289835188
-0.066918395 0.11703543 0.36821067 4289966774
-0.066325314 0.11703543 0.36821067 4289966774
-0.065732233 0.11703543 0.36821067 4289835188
-0.065139152 0.11703543 0.36821067 4289966774
-0.064567983 0.11707516 0.36833566 4290098360
-0.064061537 0.11723407 0.3688356 4290229946
-0.063747041 0.11775051 0.37046042 4290295739
-0.063363396 0.11814778 0.3717103 4290229946
-0.062764674 0.11814778 0.3717103 4290164153
-0.062270474 0.11834642 0.37233523 4290164153
-0.06152584 0.11806833 0.37146032 4290098360
-0.060927525 0.11806833 0.37146032 4290098617
-0.060166817 0.11775051 0.37046042 4290032824
-0.059570111 0.11775051 0.37046042 4289967031
-0.058973413 0.11775051 0.37046042 4290230203
-0.058416098 0.11782997 0.3707104 4290230203
-0.05781899 0.11782997 0.3707104 4290230203
-0.057299051 0.11798887 0.37121034 4290230203
-0.056777507 0.11814778 0.3717103 4290427582
-0.056178797 0.11814778 0.3717103 4290361787
-0.055580076 0.11814778 0.3717103 4290361787
-0.05503682 0.11826696 0.37208524 4290361787
-0.054474071 0.11834642 0.37233523 4290361787
-0.053964768 0.11854505 0.37296015 4290427580
-0.053364042 0.11854505 0.37296015 4290427580
-0.052816361 0.11866423 0.37333512 4290230201
-0.052267466 0.11878341 0.37371007 4290230201
-0.051717367 0.11890259 0.37408504 4289573041
-0.051148981 0.11898205 0.37433502 4285691254
-0.050546039 0.11898205 0.37433502 4282401872
-0.050126523 0.11941904 0.37570986 4282401872
-0.049422517 0.11918068 0.37495995 4281943119
-0.048818566 0.11918068 0.37495995 4281679947
-0.048053902 0.11878341 0.37371007 4281745225
-0.047325 0.11846559 0.37271017 4282008397
-0.046724673 0.11846559 0.37271017 4282465098
-0.046062477 0.11830669 0.37221023 4283780958
-0.045325559 0.11794914 0.37108535 4287399825
-0.044712782 0.11790942 0.37096035 4291150026
-0.04396664 0.11751215 0.36971051 4290164153
-0.043341815 0.11743269 0.36946052 4290295739
-0.042746726 0.11743269 0.36946052 4290493373
-0.042251449 0.11771078 0.37033543 4290427580
-0.041654944 0.11771078 0.37033543 4290427580
-0.041307874 0.11842588 0.37258521 4290427580
-0.040871613 0.11890259 0.37408504 4290361787
-0.040336344 0.11910123 0.37470996 4289901236
-0.039838821 0.11941904 0.37570986 4289770420
-0.039338075 0.11973686 0.37670976 4289112490
-0.038782708 0.11989576 0.37720969 4288654257
-0.038175132 0.11989576 0.37720969 4287535776
-0.037642248 0.12013412 0.37795961 4284243556
-0.037217163 0.12073003 0.37983441 4282138180
-0.037183531 0.12263691 0.38583377 4281544496
0.019984828 0.12259719 0.38570878 4280821800
0.020606091 0.12259719 0.38570878 4281019179
0.021137934 0.12208074 0.38408396 4280756260
0.021664543 0.12156429 0.38245913 4284506461
0.022280574 0.12156429 0.38245913 4288389270
0.022896603 0.12156429 0.38245913 4289639337
0.023512634 0.12156429 0.38245913 4289376165
0.024168091 0.12176293 0.38308409 4289507751
0.024914509 0.12239856 0.38508385 4289770149
0.025659086 0.12299446 0.38695866 4289572770
0.026401209 0.12355064 0.38870847 4290098857
0.027070759 0.12374927 0.3893334 4286875000
0.027697859 0.12374927 0.3893334 4282401335
0.028370429 0.12394791 0.38995835 4281085475
0.029035717 0.12410682 0.39045829 4280756258
0.029683622 0.12418627 0.39070827 4280558879
0.03031294 0.12418627 0.39070827 4280427295
0.030971948 0.12430545 0.39108321 4280361502
0.03163217 0.12442463 0.39145818 4280230686
0.032293595 0.12454381 0.39183313 4280164893
0.03294573 0.12462326 0.39208311 4280099098
0.033577263 0.12462326 0.39208311 4280099098
0.034230605 0.12470272 0.39233309 4280034075
0.034884751 0.12478217 0.39258307 4280034075
0.035528392 0.12482189 0.39270803 4280296477
0.036160931 0.12482189 0.39270803 4280099098
0.036816891 0.12490135 0.39295802 4280034077
0.037473656 0.12498081 0.393208 4280099870
0.038131226 0.12506026 0.39345798 4280624674
0.038789596 0.12513971 0.39370793 4280558881
0.039423745 0.12513971 0.39370793 4280361245
0.040083326 0.12521917 0.39395791 4280427038
0.0407308 0.12525889 0.3940829 4280623645
0.041378673 0.12529862 0.39420789 4282400056
0.042013623 0.12529862 0.39420789 4284702298
0.042662103 0.12533835 0.39433289 4287136639
0.043310978 0.12537807 0.39445785 4288256405
0.043960258 0.1254178 0.39458284 4289111714
0.044595815 0.1254178 0.39458284 4289046948
0.045245703 0.12545753 0.39470783 4289112741
0.045881461 0.12545753 0.39470783 4289310118
0.046531949 0.12549725 0.39483282 4289507497
0.047167912 0.12549725 0.39483282 4289901485
0.047819003 0.12553698 0.39495781 4289769899
0.048470501 0.12557672 0.3950828 4289967021
0.049122397 0.12561645 0.39520779 4289967021
0.049758963 0.12561645 0.39520779 4289901739
0.05039553 0.12561645 0.39520779 4289901739
0.05104823 0.12565616 0.39533275 4289967532
0.051684991 0.12565616 0.39533275 4290033325
0.052321758 0.12565616 0.39533275 4290164652
0.052958526 0.12565616 0.39533275 4290164652
0.053612236 0.12569588 0.39545774 4290230445
0.054249205 0.12569588 0.39545774 4290690996
0.054920863 0.12577534 0.39570773 4289837232
0.055558234 0.12577534 0.39570773 4287600270
0.056213357 0.12581508 0.39583272 4284836964
0.056886829 0.12589453 0.3960827 4282402623
0.05754295 0.12593424 0.39620766 4280756253
0.058181126 0.12593424 0.39620766 4280690460
0.058856413 0.12601371 0.39645764 4280623899
0.059513748 0.12605344 0.39658263 4280887071
0.060171485 0.12609316 0.39670762 4280558879
0.060810462 0.12609316 0.39670762 4280295707
0.061468802 0.12613289 0.39683262 4280361500
0.062127549 0.12617262 0.39695761 4280295707
0.062806457 0.12625207 0.39720756 4280295452
0.063466206 0.1262918 0.39733255 4280361245
0.064106189 0.1262918 0.39733255 4280361245
0.064786911 0.12637125 0.39758253 4280492831
0.065447874 0.12641098 0.39770752 4280427042
0.066129997 0.12649043 0.39795747 4280427042
0.066770986 0.12649043 0.39795747 4280690214
0.067433156 0.12653016 0.39808246 4280690214
0.068117097 0.12660961 0.39833245 4283453771
0.06880185 0.12668906 0.39858243 4288519832
0.069443852 0.12668906 0.39858243 4291744461
0.070129797 0.12676851 0.39883238 4291152324
0.070860915 0.12692742 0.39933234 4291218887
0.071571261 0.1270466 0.39970729 4291218887
0.07221508 0.1270466 0.39970729 4291284680
0.07295002 0.12720552 0.40020725 4291218887
0.0736406 0.12728496 0.4004572 4291415496
0.074331991 0.12736441 0.40070719 4289836464
-0.17872636 0.11367561 0.35583699 4292534757
-0.1781532 0.11367561 0.35583699 4292468964
-0.17758006 0.11367561 0.35583699 4292796648
-0.17700692 0.11367561 0.35583699 4292796648
-0.17643376 0.11367561 0.35583699 4292730857
-0.17586061 0.11367561 0.35583699 4292599271
-0.17528746 0.11367561 0.35583699 4293059050
-0.17471431 0.11367561 0.35583699 4292993257
-0.17420232 0.11371554 0.35596198 4292271324
-0.17362899 0.11371554 0.35596198 4292073945
-0.17305562 0.11371554 0.35596198 4292401616
-0.17254284 0.11375547 0.35608697 4290098861
-0.17208999 0.11383532 0.35633692 4287728006
-0.17151605 0.11383532 0.35633692 4285359458
-0.17100206 0.11387525 0.35646191 4285226077
-0.17042789 0.11387525 0.35646191 4285489249
-0.16979419 0.11383532 0.35633692 4285685593
-0.16922024 0.11383532 0.35633692 4285817179
-0.082164831 0.11251769 0.35221237 4285755777
-0.081597522 0.11251769 0.35221237 4287664024
-0.081087716 0.11259755 0.35246235 4287729817
-0.080462895 0.11251769 0.35221237 4287927191
-0.079895586 0.11251769 0.35221237 4288321949
-0.079356425 0.11255762 0.35233736 4288257183
-0.078788914 0.11255762 0.35233736 4288586148
-0.078054912 0.11231805 0.35158744 4288455078
-0.077488609 0.11231805 0.35158744 4288718250
-0.077387169 0.11299682 0.3537122 4288849836
-0.077984639 0.11471374 0.35908663 4288849836
-0.078187592 0.11587166 0.36271125 4288784043
-0.07763011 0.11591159 0.36283624 4288718250
-0.077072233 0.11595152 0.36296123 4288849838
-0.076276898 0.11563209 0.36196133 4288849838
-0.075693883 0.11563209 0.36196133 4288915629
-0.075759262 0.11663029 0.36508599 4288981422
-0.075402834 0.11698965 0.36621088 4289178801
-0.074966177 0.11722922 0.36696079 4289244594
-0.074375108 0.11722922 0.36696079 4289178801
-0.0738343 0.11730908 0.36721078 4289047215
-0.073292695 0.11738894 0.36746076 4289375664
-0.072725542 0.11742886 0.36758572 4289375664
-0.072133474 0.11742886 0.36758572 4289375664
-0.071590051 0.11750872 0.3678357 4289375664
-0.071069948 0.11762851 0.36821067 4289507250
-0.070644327 0.117908 0.36908558 4289441457
-0.070121005 0.11802778 0.36946052 4289638834
-0.069502391 0.11798786 0.36933553 4289836213
-0.068814225 0.11782815 0.3688356 4289901236
-0.068220139 0.11782815 0.3688356 4289769650
-0.067511469 0.11762851 0.36821067 4289966772
-0.066827528 0.11746879 0.36771071 4289966772
-0.066235252 0.11746879 0.36771071 4290032565
-0.065642983 0.11746879 0.36771071 4290032565
-0.065050706 0.11746879 0.36771071 4290032565
-0.064480342 0.11750872 0.3678357 4290164151
-0.063996404 0.11770836 0.36846063 4290098360
-0.063510463 0.117908 0.36908558 4290164153
-0.062915973 0.117908 0.36908558 4290229946
-0.062553629 0.11834721 0.37046042 4290229946
-0.062186856 0.11878642 0.37183526 4290164153
-0.061360225 0.11834721 0.37046042 4290098360
-0.060763519 0.11834721 0.37046042 4290164153
-0.060126215 0.11826735 0.37021044 4290098360
-0.059529915 0.11826735 0.37021044 4290032824
-0.058933616 0.11826735 0.37021044 4290164410
-0.058357012 0.11830728 0.37033543 4290361789
-0.057760507 0.11830728 0.37033543 4290361789
-0.057221886 0.11842707 0.3707104 4290361789
-0.056701139 0.11858678 0.37121034 4290427582
-0.056178797 0.1187465 0.3717103 4290361787
-0.055580076 0.1187465 0.3717103 4290361787
-0.05503682 0.11886627 0.37208524 4290427580
-0.054474071 0.11894614 0.37233523 4290361787
-0.053964768 0.11914577 0.37296015 4290427580
-0.053364042 0.11914577 0.37296015 4290427580
-0.052816361 0.11926556 0.37333512 4290427580
-0.052267466 0.11938534 0.37371007 4290230201
-0.051717367 0.11950513 0.37408504 4290494141
-0.051148981 0.11958499 0.37433502 4288191386
-0.050546039 0.11958499 0.37433502 4284310121
-0.050126523 0.1200242 0.37570986 4282336331
-0.049422517 0.11978463 0.37495995 4282202948
-0.048818566 0.11978463 0.37495995 4282137155
-0.048053902 0.11938534 0.37371007 4282005567
-0.047325 0.11906592 0.37271017 4282005567
-0.046724673 0.11906592 0.37271017 4284241250
-0.046062477 0.11890621 0.37221023 4286478212
-0.045325559 0.11854685 0.37108535 4289637557
-0.044697721 0.118467 0.37083539 4290229694
-0.044100411 0.118467 0.37083539 4290229944
-0.043444455 0.11830728 0.37033543 4290427323
-0.042847954 0.11830728 0.37033543 4290493373
-0.042251449 0.11830728 0.37033543 4290427580
-0.041654944 0.11830728 0.37033543 4290230971
-0.041307874 0.119026 0.37258521 4290033592
-0.040871613 0.11950513 0.37408504 4289967797
-0.040336344 0.11970477 0.37470996 4289046695
-0.039772555 0.11982456 0.37508494 4289574324
-0.039168403 0.11982456 0.37508494 4288784808
-0.038564254 0.11982456 0.37508494 4286219399
-0.037998043 0.11994433 0.37545988 4283850851
-0.037642248 0.1207429 0.37795961 4282070327
0.01935729 0.12317853 0.38558382 4280690984
0.019978354 0.12317853 0.38558382 4280888363
0.020606091 0.12321845 0.38570878 4280954156
0.021137934 0.12269938 0.38408396 4282006325
0.021664543 0.12218032 0.38245913 4287203972
0.022280574 0.12218032 0.38245913 4289771693
0.022896603 0.12218032 0.38245913 4289311142
0.023512634 0.12218032 0.38245913 4289311142
0.024160206 0.12234004 0.3829591 4289376935
0.024914509 0.12301881 0.38508385 4289771691
0.025650797 0.1235778 0.38683367 4289705898
0.026375741 0.12405694 0.3883335 4288914585
0.027001234 0.12405694 0.3883335 4284703833
0.027671184 0.12425659 0.38895845 4281085477
0.028334057 0.1244163 0.38945839 4281085477
0.028998541 0.12457602 0.38995835 4280756512
0.029645637 0.12465587 0.3902083 4280559133
0.030274151 0.12465587 0.3902083 4280427293
0.030932356 0.12477566 0.39058328 4280361500
0.031581674 0.12485551 0.39083326 4280296477
0.032231789 0.12493537 0.39108321 4280296477
0.032893222 0.12505515 0.39145818 4279704594
0.033523746 0.12505515 0.39145818 4280494110
0.034176081 0.125135 0.39170817 4280690719
0.034818113 0.12517492 0.39183313 4280624926
0.035471857 0.12525479 0.39208311 4280295707
0.03610339 0.12525479 0.39208311 4280229914
0.036758341 0.12533465 0.39233309 4280034077
0.0374141 0.12541451 0.39258307 4280099870
0.03807066 0.12549436 0.39283302 4280427295
0.038703397 0.12549436 0.39283302 4280361502
0.039361171 0.12557422 0.39308301 4280295709
0.040007029 0.12561415 0.393208 4280427295
0.040666208 0.12569401 0.39345798 4280559133
0.041299958 0.12569401 0.39345798 4280427547
0.0419337 0.12569401 0.39345798 4281412898
0.042580966 0.12573393 0.39358294 4282991930
0.043228637 0.12577386 0.39370793 4285295202
0.043862786 0.12577386 0.39370793 4287729543
0.044496935 0.12577386 0.39370793 4289572263
0.045145411 0.12581378 0.39383292 4289506470
0.04579429 0.12585372 0.39395791 4289177762
0.04644357 0.12589364 0.3940829 4289506727
0.047078326 0.12589364 0.3940829 4289769642
0.047728207 0.12593357 0.39420789 4289835435
0.048378497 0.12597351 0.39433289 4290098091
0.049029183 0.12601343 0.39445785 4290098091
0.049664542 0.12601343 0.39445785 4290098861
0.050315838 0.12605335 0.39458284 4290033068
0.050951395 0.12605335 0.39458284 4290033068
0.051603291 0.12609328 0.39470783 4290098861
0.052239049 0.12609328 0.39470783 4290230445
0.052874811 0.12609328 0.39470783 4290296238
0.053510573 0.12609328 0.39470783 4290296238
0.054163478 0.12613322 0.39483282 4290033066
0.054816782 0.12617314 0.39495781 4289770923
0.055452943 0.12617314 0.39495781 4290560439
0.056124609 0.12625299 0.39520779 4289507497
0.05677912 0.12629291 0.39533275 4287402121
0.057452187 0.12637278 0.39558274 4284507481
0.058089357 0.12637278 0.39558274 4282138933
0.058745082 0.1264127 0.39570773 4280756253
0.05940121 0.12645264 0.39583272 4280756253
0.060057741 0.12649257 0.39595771 4280756001
0.06069551 0.12649257 0.39595771 4280690208
0.061352644 0.1265325 0.3960827 4280624672
0.062029738 0.12661235 0.39633265 4280427293
0.062687881 0.12665227 0.39645764 4280361500
0.063326456 0.12665227 0.39645764 4280361500
0.06400536 0.12673214 0.39670762 4280361502
0.064685076 0.126812 0.39695761 4280427295
0.065345027 0.12685192 0.39708257 4280624421
0.065984614 0.12685192 0.39708257 4280756007
0.06664516 0.12689185 0.39720756 4280756011
0.067327298 0.12697171 0.39745754 4281150769
0.068010233 0.12705156 0.39770752 4285559919
0.068693973 0.12713142 0.39795747 4290231222
0.069334969 0.12713142 0.39795747 4291021508
0.070019908 0.12721127 0.39820746 4291021508
0.070750028 0.127371 0.39870742 4291087814
0.071504124 0.12757063 0.39933234 4291153607
0.07214734 0.12757063 0.39933234 4291153607
0.072881676 0.12773034 0.39983228 4291087814
0.073594637 0.12785013 0.40020725 4291679436
0.074331991 0.12800984 0.40070719 4288323993
-0.17872636 0.11424876 0.35583699 4292337380
-0.1781532 0.11424876 0.35583699 4292666345
-0.17758006 0.11424876 0.35583699 4292665834
-0.17700692 0.11424876 0.35583699 4292600041
-0.1761239 0.11404811 0.35521206 4292600041
-0.17555176 0.11404811 0.35521206 4292600041
-0.17504117 0.11408823 0.35533702 4292731625
-0.17446883 0.11408823 0.35533702 4292534246
-0.17389649 0.11408823 0.35533702 4292468705
-0.17338511 0.11412837 0.35546201 4291942361
-0.17281257 0.11412837 0.35546201 4292073426
-0.17224002 0.11412837 0.35546201 4292336598
-0.17172784 0.11416849 0.35558701 4291085504
-0.1711551 0.11416849 0.35558701 4288256405
-0.1706423 0.11420862 0.355712 4286083953
-0.17006935 0.11420862 0.355712 4284636507
-0.1693773 0.11412837 0.35546201 4285555292
-0.16868605 0.11404811 0.35521206 4285555292
-0.1681139 0.11404811 0.35521206 4285751127
-0.16754176 0.11404811 0.35521206 4285948506
-0.082164831 0.113085 0.35221237 4283387229
-0.081597522 0.113085 0.35221237 4286412426
-0.081058964 0.11312513 0.35233736 4287991458
-0.080462895 0.113085 0.35221237 4287597972
-0.079895586 0.113085 0.35221237 4287795351
-0.079328276 0.113085 0.35221237 4288190366
-0.078621216 0.11288436 0.35158744 4288387745
-0.078054912 0.11288436 0.35158744 4288323494
-0.077488609 0.11288436 0.35158744 4288586666
-0.077387169 0.11356655 0.3537122 4288718252
-0.077984639 0.11529212 0.35908663 4288849838
-0.078295358 0.11661639 0.36321118 4288849838
-0.07771033 0.11661639 0.36321118 4288784045
-0.077178389 0.11669666 0.36346117 4288915631
-0.076276898 0.1162151 0.36196133 4288915631
-0.075693883 0.1162151 0.36196133 4289047217
-0.075759262 0.11721834 0.36508599 4289178803
-0.075402834 0.1175795 0.36621088 4289244594
-0.074966177 0.11782029 0.36696079 4289244594
-0.074375108 0.11782029 0.36696079 4289244594
-0.0738343 0.11790054 0.36721078 4289244594
-0.073292695 0.11798081 0.36746076 4289376434
-0.072725542 0.11802093 0.36758572 4289376434
-0.072133474 0.11802093 0.36758572 4289310641
-0.071590051 0.11810119 0.3678357 4289310641
-0.070997573 0.11810119 0.3678357 4289638836
-0.070452943 0.11818145 0.36808568 4289507250
-0.069860071 0.11818145 0.36808568 4289770422
-0.069431834 0.11846236 0.36896059 4289836215
-0.068674311 0.11818145 0.36808568 4289901236
-0.068081431 0.11818145 0.36808568 4289769650
-0.067373976 0.11798081 0.36746076 4290098358
-0.066600382 0.11765977 0.36646086 4290098358
-0.066010125 0.11765977 0.36646086 4290098358
-0.065464482 0.11774002 0.36671081 4290098358
-0.064873815 0.11774002 0.36671081 4290032565
-0.064370789 0.11790054 0.36721078 4290032565
-0.063909575 0.11814132 0.36796069 4290098360
-0.063445941 0.1183821 0.36871061 4290164153
-0.062852055 0.1183821 0.36871061 4290229946
-0.062427003 0.11870313 0.36971051 4290229946
-0.061956923 0.11894391 0.37046042 4290164153
-0.061318818 0.11886365 0.37021044 4290098360
-0.060722519 0.11886365 0.37021044 4290164410
-0.060085621 0.11878339 0.36996049 4290230203
-0.059489723 0.11878339 0.36996049 4290098617
-0.058913719 0.11882351 0.37008545 4290032824
-0.05831762 0.11882351 0.37008545 4290427582
-0.057721518 0.11882351 0.37008545 4290427582
-0.057183299 0.11894391 0.37046042 4290427582
-0.056624778 0.11902417 0.3707104 4290427582
-0.056084342 0.11914455 0.37108535 4290361787
-0.055486631 0.11914455 0.37108535 4290427580
-0.054907408 0.11918469 0.37121034 4290427580
-0.054382641 0.11934521 0.3717103 4290427580
-0.053856261 0.11950573 0.37221023 4290296764
-0.053256743 0.11950573 0.37221023 4290296764
-0.052692585 0.11958598 0.37246022 4290296764
-0.052127618 0.11966623 0.37271017 4290230971
-0.051596411 0.11982676 0.37321013 4290494143
-0.050995275 0.11982676 0.37321013 4290033592
-0.050444774 0.11994714 0.37358508 4288520101
-0.049859714 0.11998727 0.37371007 4286546311
-0.049290724 0.12006754 0.37396005 4285228393
-0.048590746 0.11982676 0.37321013 4284438877
-0.04790926 0.11962611 0.37258521 4284438875
-0.047261521 0.11950573 0.37221023 4285623149
-0.046661999 0.11950573 0.37221023 4287926167
-0.046031538 0.11942546 0.37196025 4290163129
-0.045325559 0.11914455 0.37108535 4290295485
-0.044697721 0.1190643 0.37083539 4290098106
-0.044100411 0.1190643 0.37083539 4290427323
-0.04347378 0.11898404 0.37058541 4290493116
-0.042876877 0.11898404 0.37058541 4290361787
-0.042436823 0.11942546 0.37196025 4290230201
-0.042034522 0.11998727 0.37371007 4290033592
-0.041626584 0.12054909 0.37545988 4289638834
-0.040939894 0.12030831 0.37470996 4289705910
-0.040336344 0.12030831 0.37470996 4288982187
-0.039772555 0.1204287 0.37508494 4288522408
-0.039168403 0.1204287 0.37508494 4285824895
-0.038564254 0.1204287 0.37508494 4283322708
-0.037998043 0.12054909 0.37545988 4281809469
0.018730154 0.12375946 0.38545883 4280756777
0.019351015 0.12375946 0.38545883 4280954156
0.019978354 0.12379958 0.38558382 4281150765
0.020606091 0.12383971 0.38570878 4281150765
0.021220479 0.12379958 0.38558382 4284440661
0.021749502 0.1232779 0.383959 4288717206
0.022367951 0.1232779 0.383959 4290100654
0.022896603 0.12279634 0.38245913 4289508517
0.023512634 0.12279634 0.38245913 4289442728
0.024160206 0.12295686 0.3829591 4289442728
0.024914509 0.12363906 0.38508385 4289770923
0.025642511 0.12416074 0.38670868 4289968302
0.026350275 0.12456205 0.38795856 4286677625
0.026975164 0.12456205 0.38795856 4282730045
0.027635617 0.12472256 0.38845849 4280558881
0.028297685 0.12488309 0.38895845 4280887846
0.028952066 0.12500347 0.3893334 4280690719
0.029607655 0.12512386 0.38970837 4280559133
0.030235363 0.12512386 0.38970837 4280559133
0.030882865 0.12520412 0.38995835 4280427547
0.031531174 0.12528437 0.3902083 4280559133
0.032180287 0.12536463 0.39045829 4280624926
0.032809202 0.12536463 0.39045829 4280559901
0.033459526 0.12544489 0.39070827 4284441688
0.034110647 0.12552515 0.39095822 4284704862
0.034751475 0.12556528 0.39108321 4283520588
0.035404012 0.12564555 0.39133319 4281348140
0.036034334 0.12564555 0.39133319 4280295452
0.036688078 0.12572581 0.39158317 4280033307
0.037342627 0.12580605 0.39183313 4280164893
0.037997983 0.12588632 0.39208311 4280361502
0.038629513 0.12588632 0.39208311 4280295709
0.039286077 0.12596658 0.39233309 4280295707
0.039930727 0.12600671 0.39245808 4280361500
0.040588699 0.12608697 0.39270803 4280361752
0.041221239 0.12608697 0.39270803 4280624924
0.041853774 0.12608697 0.39270803 4280624922
0.042499837 0.12612709 0.39283302 4280164371
0.043146297 0.12616722 0.39295802 4281348390
0.043779239 0.12616722 0.39295802 4283256387
0.044412177 0.12616722 0.39295802 4286674807
0.045059446 0.12620735 0.39308301 4288977562
0.045707118 0.12624748 0.393208 4289572522
0.046340462 0.12624748 0.393208 4289572522
0.046973806 0.12624748 0.393208 4289572517
0.047637414 0.12632775 0.39345798 4289638310
0.048271161 0.12632775 0.39345798 4289835689
0.048935972 0.126408 0.39370793 4289967275
0.049570121 0.126408 0.39370793 4290033068
0.050204273 0.126408 0.39370793 4290033068
0.05085456 0.12644812 0.39383292 4290033066
0.051505249 0.12648827 0.39395791 4290230445
0.0521398 0.12648827 0.39395791 4290296238
0.052774355 0.12648827 0.39395791 4290296238
0.053408906 0.12648827 0.39395791 4290296238
0.054077752 0.12656853 0.39420789 4290296238
0.054712702 0.12656853 0.39420789 4290230445
0.055365205 0.12660865 0.39433289 4290296238
0.056018107 0.12664877 0.39445785 4290560185
0.056689367 0.12672904 0.39470783 4290691771
0.057361428 0.1268093 0.39495781 4288718751
0.057997592 0.1268093 0.39495781 4286481789
0.058652308 0.12684943 0.3950828 4283783758
0.05930743 0.12688956 0.39520779 4281546796
0.059962951 0.12692969 0.39533275 4280624667
0.060599711 0.12692969 0.39533275 4280756253
0.061255839 0.12696981 0.39545774 4280625696
0.062029738 0.12725072 0.39633265 4280494110
0.062687881 0.12729084 0.39645764 4280494110
0.063326456 0.12729084 0.39645764 4280494110
0.06400536 0.12737112 0.39670762 4280427293
0.064685076 0.12745138 0.39695761 4280558879
0.065345027 0.12749149 0.39708257 4280690214
0.065984614 0.12749149 0.39708257 4280821800
0.06664516 0.12753163 0.39720756 4280623916
0.067327298 0.12761189 0.39745754 4283255636
0.068010233 0.12769215 0.39770752 4287863444
0.068693973 0.12777241 0.39795747 4291284680
0.069334969 0.12777241 0.39795747 4290956228
0.070019908 0.12785266 0.39820746 4291022021
0.070750028 0.12801319 0.39870742 4291022021
0.071504124 0.12821384 0.39933234 4291087814
0.07214734 0.12821384 0.39933234 4291022019
0.072881676 0.12837435 0.39983228 4291153605
0.073594637 0.12849474 0.40020725 4290166710
-0.17841248 0.11462026 0.35521206 4292007902
-0.17784032 0.11462026 0.35521206 4291810523
-0.17726819 0.11462026 0.35521206 4292336097
-0.17669605 0.11462026 0.35521206 4292665062
-0.1761239 0.11462026 0.35521206 4292600039
-0.17555176 0.11462026 0.35521206 4292600039
-0.17504117 0.11466058 0.35533702 4292534246
-0.17446883 0.11466058 0.35533702 4292468453
-0.17389649 0.11466058 0.35533702 4292337378
-0.17338511 0.11470091 0.35546201 4292074206
-0.17256951 0.11453959 0.35496208 4292008667
-0.17199777 0.11453959 0.35496208 4292074460
-0.17142603 0.11453959 0.35496208 4291810001
-0.17085429 0.11453959 0.35496208 4291678415
-0.17028256 0.11453959 0.35496208 4289703079
-0.16971081 0.11453959 0.35496208 4286413429
-0.16907951 0.11449926 0.35483709 4285885543
-0.16844863 0.11445893 0.3547121 4285359199
-0.16787729 0.11445893 0.3547121 4285817433
-0.16730595 0.11445893 0.3547121 4285883226
-0.16673461 0.11445893 0.3547121 4286473818
-0.16616327 0.11445893 0.3547121 4286671197
-0.16559194 0.11445893 0.3547121 4286604887
-0.081626475 0.11369265 0.35233736 4282924118
-0.081058964 0.11369265 0.35233736 4285753217
-0.080462895 0.11365232 0.35221237 4287794585
-0.079895586 0.11365232 0.35221237 4287399827
-0.079328276 0.11365232 0.35221237 4287729560
-0.078621216 0.11345066 0.35158744 4287795353
-0.078027166 0.11341033 0.35146245 4287927968
-0.077461056 0.11341033 0.35146245 4288454312
-0.077359833 0.11409596 0.35358724 4288520873
-0.077930346 0.11578985 0.35883665 4288718252
-0.078295358 0.11720143 0.36321118 4288980654
-0.07771033 0.11720143 0.36321118 4288980654
-0.076567963 0.11635448 0.36058646 4288981422
-0.075987168 0.11635448 0.36058646 4289047215
-0.075667739 0.1167578 0.36183634 4289376180
-0.075733326 0.11776606 0.364961 4289310387
-0.075351357 0.11808871 0.3659609 4289310387
-0.074915104 0.11833069 0.36671081 4289376180
-0.074324444 0.11833069 0.36671081 4289310900
-0.073784038 0.11841135 0.36696079 4289376693
-0.073242836 0.11849202 0.36721078 4289442227
-0.072700821 0.11857268 0.36746076 4289376434
-0.072108954 0.11857268 0.36746076 4289310641
-0.071565725 0.11865334 0.36771071 4289442227
-0.070997573 0.11869367 0.3678357 4289638582
-0.070452943 0.11877434 0.36808568 4289770168
-0.069860071 0.11877434 0.36808568 4289836215
-0.069431834 0.11905665 0.36896059 4289836215
-0.068674311 0.11877434 0.36808568 4289769652
-0.068081431 0.11877434 0.36808568 4289901238
-0.067373976 0.11857268 0.36746076 4290098617
-0.066600382 0.11825003 0.36646086 4289967031
-0.066010125 0.11825003 0.36646086 4290032824
-0.065464482 0.11833069 0.36671081 4290032824
-0.064873815 0.11833069 0.36671081 4289967031
-0.064370789 0.11849202 0.36721078 4290098617
-0.063909575 0.118734 0.36796069 4290164408
-0.063445941 0.11897599 0.36871061 4290098615
-0.062852055 0.11897599 0.36871061 4290164408
-0.062321484 0.11909699 0.36908558 4290164408
-0.061810602 0.11925831 0.36958551 4290164408
-0.061277419 0.1193793 0.36996049 4290098615
-0.060681522 0.1193793 0.36996049 4290230201
-0.060045023 0.11929864 0.36971051 4290361787
-0.059449524 0.11929864 0.36971051 4290164408
-0.058893826 0.1193793 0.36996049 4290230201
-0.058278233 0.11933897 0.3698355 4290361789
-0.057682533 0.11933897 0.3698355 4290361789
-0.057125419 0.11941963 0.37008545 4290427580
-0.056567501 0.11950029 0.37033543 4290427580
-0.055989895 0.11954062 0.37046042 4290361787
-0.055393189 0.11954062 0.37046042 4290427580
-0.054851949 0.11966161 0.37083539 4290296764
-0.054291207 0.11974227 0.37108535 4290362557
-0.053747755 0.11986327 0.37146032 4290230971
-0.053149443 0.11986327 0.37146032 4290230971
-0.052621853 0.12002458 0.37196025 4290296764
-0.052057698 0.12010525 0.37221023 4290230971
-0.051492732 0.12018592 0.37246022 4290230971
-0.050892808 0.12018592 0.37246022 4289902006
-0.050309766 0.12022625 0.37258521 4290494145
-0.049726311 0.12026657 0.37271017 4289902008
-0.049125981 0.12026657 0.37271017 4289769393
-0.048476838 0.12014558 0.37233523 4289506221
-0.047861047 0.12010525 0.37221023 4289506221
-0.047245651 0.12006492 0.37208524 4289572014
-0.046646331 0.12006492 0.37208524 4290821313
-0.046031538 0.12002458 0.37196025 4290755520
-0.045325559 0.11974227 0.37108535 4290295485
-0.044697721 0.11966161 0.37083539 4290229692
-0.044100411 0.11966161 0.37083539 4290361789
-0.04347378 0.11958095 0.37058541 4290230203
-0.042876877 0.11958095 0.37058541 4290230201
-0.042436823 0.12002458 0.37196025 4290098615
-0.042034522 0.12058922 0.37371007 4289769650
-0.041626584 0.12115385 0.37545988 4289506478
-0.040939894 0.12091187 0.37470996 4288982187
-0.040336344 0.12091187 0.37470996 4287534741
-0.039693039 0.12079088 0.37433502 4285099635
-0.039090093 0.12079088 0.37433502 4282402122
-0.038487151 0.12079088 0.37433502 4282728772
-0.037998043 0.12115385 0.37545988 4282662979
0.018718006 0.12429966 0.38520885 4280888616
0.019338466 0.12429966 0.38520885 4281020202
0.019958925 0.12429966 0.38520885 4280690467
0.02058606 0.12433999 0.38533384 4283256394
0.021151692 0.12401734 0.38433394 4287664516
0.021749502 0.12389635 0.383959 4290756787
0.022367951 0.12389635 0.383959 4289969068
0.022986395 0.12389635 0.383959 4289771689
0.02360484 0.12389635 0.383959 4289640105
0.024231171 0.12393668 0.38408396 4289442726
0.02493877 0.12438032 0.38545883 4289638565
0.025634222 0.1247433 0.38658369 4288585877
0.026316317 0.12502562 0.38745859 4284308055
0.026940402 0.12502562 0.38745859 4281084198
0.027591158 0.12514661 0.38783357 4280756779
0.028261311 0.12534826 0.38845849 4280625193
0.028905595 0.12542893 0.38870847 4280559649
0.029550681 0.12550959 0.38895845 4280428063
0.030177182 0.12550959 0.38895845 4280559133
0.030833371 0.12563057 0.3893334 4280559133
0.031470574 0.12567091 0.38945839 4280559903
0.032118481 0.12575157 0.38970837 4280033559
0.032746188 0.12575157 0.38970837 4283126596
0.033395302 0.12583223 0.38995835 4286942590
0.034034312 0.12587255 0.39008331 4288719516
0.034751475 0.12619521 0.39108321 4287403656
0.035404012 0.12627587 0.39133319 4285034856
0.036034334 0.12627587 0.39133319 4282797894
0.036688078 0.12635654 0.39158317 4280429087
0.037342627 0.12643719 0.39183313 4279639571
0.037997983 0.12651786 0.39208311 4280558106
0.038629513 0.12651786 0.39208311 4280558106
0.039286077 0.12659852 0.39233309 4280361497
0.039930727 0.12663884 0.39245808 4280427290
0.040588699 0.1267195 0.39270803 4280295959
0.041221239 0.1267195 0.39270803 4280427545
0.041853774 0.1267195 0.39270803 4280559131
0.042499837 0.12675984 0.39283302 4280559131
0.043146297 0.12680016 0.39295802 4280690460
0.043779239 0.12680016 0.39295802 4280427288
0.044412177 0.12680016 0.39295802 4282397748
0.045059446 0.1268405 0.39308301 4284897882
0.045707118 0.12688084 0.393208 4286348412
0.046340462 0.12688084 0.393208 4288782753
0.046973806 0.12688084 0.393208 4290230704
0.047637414 0.1269615 0.39345798 4289572774
0.048271161 0.1269615 0.39345798 4289572772
0.048935972 0.12704216 0.39370793 4289770151
0.049570121 0.12704216 0.39370793 4289901739
0.050204273 0.12704216 0.39370793 4289901739
0.05085456 0.12708248 0.39383292 4289967532
0.051505249 0.12712282 0.39395791 4290362290
0.0521398 0.12712282 0.39395791 4290427824
0.052774355 0.12712282 0.39395791 4290296238
0.053408906 0.12712282 0.39395791 4290427824
0.054077752 0.12720348 0.39420789 4290493617
0.054712702 0.12720348 0.39420789 4290427824
0.055365205 0.12724382 0.39433289 4290427824
0.056018107 0.12728414 0.39445785 4290427829
0.056689367 0.1273648 0.39470783 4290230450
0.057361428 0.12744547 0.39495781 4290560955
0.057997592 0.12744547 0.39495781 4290560955
0.058652308 0.1274858 0.3950828 4288127897
0.05930743 0.12752613 0.39520779 4285825142
0.059962951 0.12756646 0.39533275 4283717965
0.060599711 0.12756646 0.39533275 4281415210
0.061255839 0.12760679 0.39545774 4280757282
0.06193193 0.12768745 0.39570773 4280494110
0.062608831 0.12776811 0.39595771 4280888098
0.0632466 0.12776811 0.39595771 4280756512
0.063904539 0.12780845 0.3960827 4280624672
0.064583242 0.1278891 0.39633265 4280624672
0.065242186 0.12792943 0.39645764 4280690216
0.065880768 0.12792943 0.39645764 4280756009
0.066561282 0.12801009 0.39670762 4281741112
0.06722144 0.12805043 0.39683262 4285820278
0.067903362 0.12813109 0.39708257 4290362806
0.06854295 0.12813109 0.39708257 4291218115
0.069204308 0.12817141 0.39720756 4291022019
0.069910027 0.12829241 0.39758253 4291153605
0.070639126 0.12845373 0.39808246 4291022019
0.071392231 0.12865539 0.39870742 4291087812
0.072034433 0.12865539 0.39870742 4291022019
0.072813332 0.12889738 0.39945734 4291614156
0.073571652 0.12909903 0.40008226 4288587419
-0.17809859 0.11498974 0.35458711 4291088081
-0.17752743 0.11498974 0.35458711 4291614425
-0.1769563 0.11498974 0.35458711 4292795876
-0.17638516 0.11498974 0.35458711 4292730083
-0.17587601 0.11503027 0.3547121 4292599521
-0.17530467 0.11503027 0.3547121 4292796900
-0.17473334 0.11503027 0.3547121 4292468705
-0.17416199 0.11503027 0.3547121 4292600291
-0.17365183 0.1150708 0.35483709 4292402912
-0.17314126 0.11511134 0.35496208 4292402912
-0.17256951 0.11511134 0.35496208 4292205792
-0.17199777 0.11511134 0.35496208 4292468964
-0.17142603 0.11511134 0.35496208 4291941589
-0.17085429 0.11511134 0.35496208 4291744210
-0.17028256 0.11511134 0.35496208 4292533205
-0.16971081 0.11511134 0.35496208 4289572520
-0.16907951 0.1150708 0.35483709 4287267707
-0.16821121 0.11486814 0.35421216 4286609777
-0.16764067 0.11486814 0.35421216 4286015582
-0.16707015 0.11486814 0.35421216 4286015582
-0.1664996 0.11486814 0.35421216 4286080344
-0.16592908 0.11486814 0.35421216 4286080344
-0.16535854 0.11486814 0.35421216 4286145619
-0.16478801 0.11486814 0.35421216 4286211412
-0.080491446 0.11426016 0.35233736 4284504431
-0.079895586 0.11421962 0.35221237 4287004565
-0.079328276 0.11421962 0.35221237 4287203475
-0.078649171 0.1140575 0.35171244 4287269268
-0.078027166 0.11397643 0.35146245 4287599003
-0.077461056 0.11397643 0.35146245 4287862175
-0.077359833 0.11466549 0.35358724 4288059552
-0.077930346 0.11636782 0.35883665 4288585896
-0.078376189 0.11790805 0.36358616 4288914859
-0.077790558 0.11790805 0.36358616 4288980652
-0.076567963 0.11693528 0.36058646 4289112238
-0.075987168 0.11693528 0.36058646 4289375410
-0.075667739 0.1173406 0.36183634 4289507250
-0.075733326 0.1183539 0.364961 4289507250
-0.075299896 0.11859711 0.36571094 4289376434
-0.074787438 0.11871869 0.36608589 4289442227
-0.074197784 0.11871869 0.36608589 4289376434
-0.073733777 0.11892135 0.36671081 4289508020
-0.073192969 0.11900242 0.36696079 4289508020
-0.072651364 0.11908349 0.36721078 4289508020
-0.0720599 0.11908349 0.36721078 4289441973
-0.071492754 0.11912402 0.36733577 4289639352
-0.070925206 0.11916456 0.36746076 4289638582
-0.07042902 0.11932667 0.36796069 4289770168
-0.069836348 0.11932667 0.36796069 4289770168
-0.069196627 0.11924561 0.36771071 4289770168
-0.068511076 0.11908349 0.36721078 4289770168
-0.067919612 0.11908349 0.36721078 4289770168
-0.067167722 0.11879976 0.36633587 4290098363
-0.066486806 0.11863763 0.36583591 4290032570
-0.065897547 0.11863763 0.36583591 4290032824
-0.065285988 0.11859711 0.36571094 4290032824
-0.06469693 0.11859711 0.36571094 4290098617
-0.064195514 0.11875923 0.36621088 4290164410
-0.06373591 0.11900242 0.36696079 4290164408
-0.063338406 0.11936721 0.36808568 4290098615
-0.062745526 0.11936721 0.36808568 4290230201
-0.062321484 0.11969147 0.36908558 4290164408
-0.061810602 0.11985359 0.36958551 4290164408
-0.061277419 0.11997519 0.36996049 4290098615
-0.060681522 0.11997519 0.36996049 4290295737
-0.060045023 0.11989412 0.36971051 4290295737
-0.059449524 0.11989412 0.36971051 4290295737
-0.058893826 0.11997519 0.36996049 4290427323
-0.058278233 0.11993466 0.3698355 4290427323
-0.057682533 0.11993466 0.3698355 4290493116
-0.057125419 0.12001572 0.37008545 4290493116
-0.056567501 0.12009679 0.37033543 4290558909
-0.055989895 0.12013732 0.37046042 4290493114
