# .PCD v0.7 - Point Cloud Data file format
VERSION 0.7
FIELDS x y z rgba
SIZE 4 4 4 4
TYPE F F F U
COUNT 1 1 1 1
WIDTH 1052
HEIGHT 1
VIEWPOINT 0 0 0 1 0 0 0
POINTS 1052
DATA ascii
0.12612529 0.062433567 0.52144432 4291284429
0.12702604 0.062463492 0.52169424 4291481808
0.032757275 0.055872343 0.4604508 4291282113
0.033462558 0.055811681 0.45995086 4291282113
0.034194112 0.055796515 0.45982587 4291347906
0.034934755 0.055796515 0.45982587 4291479492
0.035656005 0.05576618 0.45957589 4291347906
0.036386348 0.055751015 0.4594509 4291347906
0.037106194 0.055720683 0.45920095 4291545285
0.037835527 0.055705518 0.45907596 4291545285
0.038564466 0.055690352 0.45895097 4291611078
0.039282292 0.055660017 0.45870098 4291611078
0.040010221 0.055644855 0.45857602 4291611078
0.040737748 0.055629689 0.45845103 4291545285
0.041476179 0.055629689 0.45845103 4291479492
0.042191591 0.055599354 0.45820105 4291545285
0.042906195 0.055569019 0.45795107 4291545285
0.043620002 0.055538692 0.45770112 4291611078
0.044357225 0.055538692 0.45770112 4291611078
0.045082133 0.055523526 0.45757613 4291545285
0.045806639 0.055508357 0.45745113 4291545285
0.046530742 0.055493191 0.45732614 4291479492
0.099326417 0.05661549 0.46657515 4291809235
0.10026559 0.056721654 0.46745005 4291809235
0.10120759 0.056827817 0.46832496 4291875028
0.10196193 0.056827817 0.46832496 4291940821
0.10290815 0.05693398 0.46919987 4291743440
0.1038572 0.057040144 0.47007477 4291743440
0.10478124 0.057131141 0.47082469 4291808976
0.1055396 0.057131141 0.47082469 4291808976
0.10643906 0.057206973 0.47144964 4291808976
0.10731211 0.057267636 0.47194958 4291874769
0.10818676 0.057328306 0.47244954 4291808974
0.10909185 0.057404134 0.47307447 4291677388
0.10985383 0.057404134 0.47307447 4291743440
0.11073271 0.057464797 0.4735744 4291743440
0.11164264 0.057540633 0.47419935 4291744210
0.11255457 0.057616461 0.47482428 4291612624
0.11331937 0.057616461 0.47482428 4291612624
0.12516527 0.063212797 0.52094436 4291415245
0.12612529 0.063273467 0.52144432 4291415245
0.12702604 0.063303791 0.52169424 4291612624
0.032757275 0.056613993 0.4604508 4291282113
0.033462558 0.056552526 0.45995086 4291282113
0.034194112 0.056537159 0.45982587 4291282113
0.034934755 0.056537159 0.45982587 4291347906
0.035656005 0.056506421 0.45957589 4291347906
0.036386348 0.056491055 0.4594509 4291347906
0.037106194 0.056460321 0.45920095 4291479492
0.037845828 0.056460321 0.45920095 4291545285
0.038564466 0.056429584 0.45895097 4291545285
0.039282292 0.05639885 0.45870098 4291545285
0.040010221 0.056383483 0.45857602 4291545285
0.040737748 0.056368116 0.45845103 4291545285
0.041476179 0.056368116 0.45845103 4291479239
0.042191591 0.056337379 0.45820105 4291545032
0.042906195 0.056306645 0.45795107 4291545285
0.043620002 0.056275912 0.45770112 4291611078
0.044357225 0.056275912 0.45770112 4291611078
0.045082133 0.056260545 0.45757613 4291545285
0.045806639 0.056245174 0.45745113 4291545285
0.046530742 0.056229807 0.45732614 4291479492
0.099326417 0.057367004 0.46657515 4291481040
0.10026559 0.057474576 0.46745005 4291481040
0.10120759 0.057582151 0.46832496 4291678419
0.10196193 0.057582151 0.46832496 4291744212
0.10290815 0.057689723 0.46919987 4291611856
0.1038572 0.057797294 0.47007477 4291743442
0.10478124 0.057889499 0.47082469 4291809233
0.1055396 0.057889499 0.47082469 4291743440
0.10643906 0.05796634 0.47144964 4291808976
0.10731211 0.058027808 0.47194958 4291874769
0.10818676 0.058089282 0.47244954 4291808976
0.10909185 0.058166116 0.47307447 4291677390
0.10985383 0.058166116 0.47307447 4291611597
0.11073271 0.058227587 0.4735744 4291611597
0.11164264 0.058304425 0.47419935 4291743440
0.11255457 0.058381263 0.47482428 4291546061
0.11331937 0.058381263 0.47482428 4291611854
0.12522534 0.064082623 0.52119434 4291611854
0.12615551 0.064128719 0.52156925 4291611854
0.12708691 0.064174823 0.52194422 4291743440
0.031273972 0.057355646 0.4604508 4291216320
0.032015625 0.057355646 0.4604508 4291216320
0.032730602 0.057308942 0.46007586 4291282113
0.033435278 0.057246666 0.45957589 4291216320
0.034166228 0.057231095 0.4594509 4291282113
0.034906264 0.057231095 0.4594509 4291282113
0.035646308 0.057231095 0.4594509 4291347906
0.03637645 0.05721553 0.45932594 4291347906
0.037106194 0.057199962 0.45920095 4291545285
0.037845828 0.057199962 0.45920095 4291545285
0.038553961 0.057153255 0.45882598 4291545285
0.039282292 0.057137683 0.45870098 4291611078
0.039999317 0.057106547 0.45845103 4291545285
0.040726643 0.057090979 0.45832604 4291479492
0.041464869 0.057090979 0.45832604 4291479239
0.042180084 0.057059839 0.45807606 4291347653
0.042894486 0.057028703 0.45782608 4291545285
0.043620002 0.057013135 0.45770112 4291611078
0.044357225 0.057013135 0.45770112 4291545285
0.045069817 0.056981996 0.45745113 4291545285
0.045794126 0.056966428 0.45732614 4291611078
0.046518024 0.05695086 0.45720115 4291545285
0.099353023 0.05813409 0.46670014 4291415247
0.10026559 0.058227506 0.46745005 4291415247
0.10120759 0.058336485 0.46832496 4291612626
0.10196193 0.058336485 0.46832496 4291612626
0.10293557 0.058461037 0.46932486 4291415247
0.10388481 0.05857002 0.47019976 4291612626
0.10480905 0.058663432 0.47094968 4291809233
0.10556762 0.058663432 0.47094968 4291809233
0.10646728 0.058741279 0.47157463 4291808976
0.10736895 0.058819123 0.47219956 4291808976
0.10824399 0.058881395 0.47269949 4291808976
0.10912067 0.058943674 0.47319946 4291677390
0.10988285 0.058943674 0.47319946 4291611597
0.11076194 0.059005946 0.47369939 4291480011
0.11164264 0.059068225 0.47419935 4291743440
0.11252494 0.059130497 0.47469929 4291546061
0.11328954 0.059130497 0.47469929 4291611854
0.12480491 0.06470415 0.51944453 4291743440
0.12615551 0.064968817 0.52156925 4291480268
0.12711734 0.065031089 0.52206922 4291611854
0.031256996 0.058065761 0.46020085 4291216320
0.031998247 0.058065761 0.46020085 4291216320
0.03268614 0.057971135 0.4594509 4291216320
0.033426184 0.057971135 0.4594509 4291282113
0.034166228 0.057971135 0.4594509 4291216320
0.034906264 0.057971135 0.4594509 4291216320
0.035636615 0.057955369 0.45932594 4291347906
0.03637645 0.057955369 0.45932594 4291347906
0.037096094 0.057923827 0.45907596 4291479492
0.037835527 0.057923827 0.45907596 4291479492
0.038553961 0.057892285 0.45882598 4291545285
0.039282292 0.057876516 0.45870098 4291545285
0.039999317 0.057844978 0.45845103 4291348676
0.040726643 0.057829209 0.45832604 4291348676
0.041464869 0.057829209 0.45832604 4291414216
0.042180084 0.057797667 0.45807606 4291414216
0.042894486 0.057766125 0.45782608 4291545285
0.043608092 0.057734586 0.45757613 4291545285
0.044345114 0.057734586 0.45757613 4291545285
0.045069817 0.057718817 0.45745113 4291479492
0.045794126 0.057703044 0.45732614 4291545285
0.046518024 0.057687275 0.45720115 4291545285
0.098469272 0.058806956 0.46607521 4291415245
0.099406242 0.058917347 0.46695012 4291415245
0.10031921 0.05901197 0.46770003 4291481038
0.10126161 0.059122361 0.46857494 4291547601
0.10201635 0.059122361 0.46857494 4291350222
0.10296298 0.059232753 0.46944985 4291415245
0.10394004 0.059358913 0.47044975 4291612624
0.10486469 0.059453532 0.47119966 4291744210
0.10562366 0.059453532 0.47119966 4291481038
0.10652371 0.059532382 0.47182459 4291743440
0.10736895 0.059579697 0.47219956 4291809233
0.10824399 0.059642773 0.47269949 4291743440
0.10912067 0.059705857 0.47319946 4291611854
0.10988285 0.059705857 0.47319946 4291611597
0.11073271 0.059753165 0.4735744 4291677390
0.11161321 0.059816249 0.47407436 4291743440
0.11252494 0.059895098 0.47469929 4291546061
0.11328954 0.059895098 0.47469929 4291546063
0.12480491 0.06554082 0.51944453 4291611856
0.12615551 0.065808907 0.52156925 4291743442
0.12714778 0.065887764 0.52219421 4291546063
0.031248506 0.058791038 0.46007586 4291084734
0.031989556 0.058791038 0.46007586 4291150527
0.03268614 0.058711179 0.4594509 4291216320
0.033426184 0.058711179 0.4594509 4291216320
0.034166228 0.058711179 0.4594509 4291216320
0.034906264 0.058711179 0.4594509 4291150527
0.035636615 0.058695212 0.45932594 4291282113
0.03637645 0.058695212 0.45932594 4291282113
0.037096094 0.058663268 0.45907596 4291347906
0.037835527 0.058663268 0.45907596 4291479492
0.038553961 0.058631323 0.45882598 4291545285
0.039282292 0.058615349 0.45870098 4291479492
0.039999317 0.058583409 0.45845103 4291347653
0.040726643 0.058567438 0.45832604 4291347653
0.041464869 0.058567438 0.45832604 4291479239
0.042180084 0.058535494 0.45807606 4291545032
0.042882778 0.058487583 0.45770112 4291545032
0.043608092 0.058471609 0.45757613 4291479239
0.044345114 0.058471609 0.45757613 4291545032
0.045069817 0.058455639 0.45745113 4291347653
0.045781609 0.058423694 0.45720115 4291479492
0.046505306 0.05840772 0.45707616 4291479492
0.047241524 0.05840772 0.45707616 4291479492
0.047964621 0.05839175 0.45695117 4291479492
0.098495685 0.059573643 0.4662002 4291415245
0.099432848 0.059685443 0.46707511 4291415245
0.10037283 0.059797242 0.46795002 4291678417
0.10128862 0.059893072 0.46869993 4291350222
0.10204356 0.059893072 0.46869993 4291284429
0.10301781 0.060020842 0.46969983 4291284429
0.10399527 0.060148615 0.47069973 4291481808
0.10492032 0.060244445 0.47144964 4291809233
0.10567969 0.060244445 0.47144964 4291611854
0.10658015 0.0603243 0.47207457 4291611854
0.1074542 0.060388185 0.4725745 4291611854
0.10827261 0.060420129 0.47282448 4291611854
0.10912067 0.060468044 0.47319946 4291546061
0.10988285 0.060468044 0.47319946 4291611597
0.11073271 0.060515959 0.4735744 4291808976
0.11161321 0.060579844 0.47407436 4291611856
0.11252494 0.060659703 0.47469929 4291546063
0.11328954 0.060659703 0.47469929 4291546063
0.12480491 0.066377498 0.51944453 4291480270
0.1258532 0.066489294 0.5203194 4291611602
0.12714778 0.066728868 0.52219421 4291545809
0.031248506 0.059532087 0.46007586 4291084734
0.031989556 0.059532087 0.46007586 4291150527
0.03268614 0.059451222 0.4594509 4291216320
0.033426184 0.059451222 0.4594509 4291216320
0.034166228 0.059451222 0.4594509 4291084734
0.034906264 0.059451222 0.4594509 4291150527
0.035636615 0.059435051 0.45932594 4291216320
0.03637645 0.059435051 0.45932594 4291216320
0.037096094 0.059402704 0.45907596 4291282113
0.037835527 0.059402704 0.45907596 4291347906
0.038553961 0.059370358 0.45882598 4291347653
0.039282292 0.059354186 0.45870098 4291347653
0.039999317 0.059321843 0.45845103 4291347653
0.040726643 0.059305668 0.45832604 4291347653
0.041464869 0.059305668 0.45832604 4291347653
0.042180084 0.059273321 0.45807606 4291479239
0.042882778 0.059224807 0.45770112 4291545032
0.043608092 0.059208632 0.45757613 4291347653
0.044345114 0.059208632 0.45757613 4291545032
0.045069817 0.05919246 0.45745113 4291479239
0.045781609 0.059160113 0.45720115 4291479239
0.046505306 0.059143938 0.45707616 4291545032
0.047241524 0.059143938 0.45707616 4291479239
0.047964621 0.059127767 0.45695117 4291610825
0.098495685 0.060324557 0.4662002 4291480268
0.099432848 0.060437765 0.46707511 4291349452
0.10037283 0.060550977 0.46795002 4291481038
0.10128862 0.060648013 0.46869993 4291283659
0.10204356 0.060648013 0.46869993 4291415245
0.10301781 0.060777396 0.46969983 4291415245
0.10399527 0.060906779 0.47069973 4291415245
0.10492032 0.061003812 0.47144964 4291611854
0.10567969 0.061003812 0.47144964 4291546061
0.10658015 0.061084677 0.47207457 4291546061
0.1074542 0.061149366 0.4725745 4291546061
0.10827261 0.061181713 0.47282448 4291546061
0.10912067 0.061230231 0.47319946 4291611854
0.10988285 0.061230231 0.47319946 4291808976
0.11073271 0.061278749 0.4735744 4291677390
0.11161321 0.061343443 0.47407436 4291546063
0.11252494 0.061424304 0.47469929 4291480270
0.11328954 0.061424304 0.47469929 4291414477
0.12501511 0.06732738 0.5203194 4291414477
0.1258532 0.06732738 0.5203194 4291480270
0.14887673 0.07911735 0.6114347 4291546063
0.031248506 0.060273137 0.46007586 4291150014
0.031989556 0.060273137 0.46007586 4291215807
0.03268614 0.060191263 0.4594509 4291216320
0.033426184 0.060191263 0.4594509 4291216320
0.034166228 0.060191263 0.4594509 4291150527
0.034906264 0.060191263 0.4594509 4291216320
0.035636615 0.060174894 0.45932594 4291216320
0.03637645 0.060174894 0.45932594 4291216320
0.037096094 0.060142145 0.45907596 4291282113
0.037835527 0.060142145 0.45907596 4291282113
0.038553961 0.060109396 0.45882598 4291150274
0.039282292 0.060093019 0.45870098 4291281860
0.039999317 0.060060274 0.45845103 4291347653
0.040726643 0.060043901 0.45832604 4291347653
0.041464869 0.060043901 0.45832604 4291347653
0.042180084 0.060011148 0.45807606 4291479239
0.042882778 0.059962031 0.45770112 4291545032
0.043596178 0.059929281 0.45745113 4291347653
0.044333 0.059929281 0.45745113 4291479239
0.045057505 0.059912905 0.45732614 4291347653
0.045781609 0.059896532 0.45720115 4291479239
0.046505306 0.059880156 0.45707616 4291545032
0.047241524 0.059880156 0.45707616 4291545032
0.047964621 0.059863783 0.45695117 4291545032
0.048687316 0.059847411 0.45682621 4291545032
0.049409609 0.059831038 0.45670122 4291610825
0.098495685 0.061075471 0.4662002 4291546059
0.099459462 0.061206464 0.4672001 4291480266
0.10042644 0.061337452 0.46819997 4291546059
0.10136965 0.061452072 0.46907488 4291349452
0.10212519 0.061452072 0.46907488 4291481038
0.10310004 0.061583064 0.47007477 4291415245
0.10407811 0.061714057 0.47107467 4291349452
0.10497595 0.061795928 0.4716996 4291546061
0.10573572 0.061795928 0.4716996 4291546061
0.10663658 0.061877802 0.47232455 4291611854
0.10751104 0.061943296 0.47282448 4291546061
0.10832986 0.061976045 0.47307447 4291480268
0.10914949 0.062008794 0.47332445 4291611854
0.10991188 0.062008794 0.47332445 4291611856
0.11076194 0.062057916 0.47369939 4291611856
0.11161321 0.062107038 0.47407436 4291480270
0.11252494 0.062188908 0.47469929 4291414477
0.11328954 0.062188908 0.47469929 4291414477
0.11429439 0.062319901 0.47569919 4291480270
0.14758955 0.079938449 0.61018479 4291480268
0.14887673 0.080102198 0.6114347 4291414475
0.031256996 0.061030757 0.46020085 4291150014
0.031998247 0.061030757 0.46020085 4291215807
0.03268614 0.060931299 0.4594509 4291150527
0.033426184 0.060931299 0.4594509 4291084734
0.034166228 0.060931299 0.4594509 4291150527
0.034906264 0.060931299 0.4594509 4291216320
0.035646308 0.060931299 0.4594509 4291216320
0.03637645 0.060914729 0.45932594 4291216320
0.037096094 0.060881577 0.45907596 4291282113
0.037835527 0.060881577 0.45907596 4291282113
0.038553961 0.060848422 0.45882598 4291216320
0.039282292 0.060831849 0.45870098 4291216320
0.039999317 0.060798701 0.45845103 4291347906
0.040726643 0.060782123 0.45832604 4291282113
0.041464869 0.060782123 0.45832604 4291347906
0.042180084 0.060748972 0.45807606 4291347906
0.042882778 0.060699247 0.45770112 4291479492
0.043596178 0.060666095 0.45745113 4291347906
0.044333 0.060666095 0.45745113 4291216067
0.045057505 0.060649518 0.45732614 4291347653
0.045781609 0.060632944 0.45720115 4291479239
0.046492592 0.060599793 0.45695117 4291545032
0.047228605 0.060599793 0.45695117 4291480009
0.047951505 0.060583219 0.45682621 4291348423
0.048673995 0.060566645 0.45670122 4291348423
0.049409609 0.060566645 0.45670122 4291414216
0.098495685 0.061826378 0.4662002 4291611595
0.099459462 0.06195898 0.4672001 4291480266
0.10042644 0.062091582 0.46819997 4291546059
0.10139666 0.062224183 0.46919987 4291414473
0.10215241 0.062224183 0.46919987 4291546059
0.10315487 0.062373366 0.47032475 4291349450
0.10410573 0.062489394 0.47119966 4291349450
0.10505939 0.062605418 0.47207457 4291415243
0.10581977 0.062605418 0.47207457 4291349450
0.10672124 0.062688299 0.47269949 4291415245
0.10753946 0.062721446 0.47294948 4291415245
0.10832986 0.062738024 0.47307447 4291415245
0.1091783 0.062787749 0.47344941 4291415245
0.1099409 0.062787749 0.47344941 4291415247
0.11076194 0.062820904 0.47369939 4291415247
0.11164264 0.062887207 0.47419935 4291283661
0.11252494 0.062953502 0.47469929 4291283661
0.11328954 0.062953502 0.47469929 4291283661
0.11423433 0.06305296 0.4754492 4291349454
0.14758955 0.080921277 0.61018479 4291283659
0.14887673 0.081087038 0.6114347 4291283659
0.15010662 0.081219636 0.61243457 4291414475
0.031273972 0.061805557 0.4604508 4291084734
0.032015625 0.061805557 0.4604508 4291150527
0.032721709 0.06173845 0.45995086 4291150527
0.033444371 0.061704896 0.45970088 4291084734
0.034175523 0.061688121 0.45957589 4291084481
0.03491576 0.061688121 0.45957589 4291084481
0.035646308 0.061671343 0.4594509 4291282113
0.036386348 0.061671343 0.4594509 4291216320
0.037106194 0.061637793 0.45920095 4291216320
0.037845828 0.061637793 0.45920095 4291282113
0.038564466 0.061604239 0.45895097 4291216320
0.039282292 0.061570682 0.45870098 4291282113
0.040010221 0.06155391 0.45857602 4291151297
0.040737748 0.061537132 0.45845103 4291085504
0.041476179 0.061537132 0.45845103 4291151297
0.042180084 0.061486799 0.45807606 4291151297
0.042882778 0.061436471 0.45770112 4291348676
0.043596178 0.061402917 0.45745113 4291151297
0.044333 0.061402917 0.45745113 4291150527
0.04504519 0.061369363 0.45720115 4291347906
0.045769092 0.061352585 0.45707616 4291348676
0.046492592 0.06133581 0.45695117 4291348676
0.047228605 0.06133581 0.45695117 4291414469
0.047951505 0.061319035 0.45682621 4291348676
0.048673995 0.061302256 0.45670122 4291348423
0.049396086 0.061285481 0.45657623 4291216837
0.098495685 0.062577292 0.4662002 4291611595
0.099459462 0.062711507 0.4672001 4291545802
0.10042644 0.062845714 0.46819997 4291545802
0.10139666 0.062979929 0.46919987 4291480009
0.10215241 0.062979929 0.46919987 4291611595
0.10315487 0.063130923 0.47032475 4291546059
0.10413335 0.063265137 0.47132465 4291546059
0.10505939 0.063365795 0.47207457 4291546059
0.10581977 0.063365795 0.47207457 4291480266
0.10672124 0.063449681 0.47269949 4291415243
0.10753946 0.063483231 0.47294948 4291415243
0.10835848 0.063516788 0.47319946 4291415245
0.1091783 0.063550338 0.47344941 4291415245
0.1099409 0.063550338 0.47344941 4291349452
0.11079117 0.063600674 0.47382438 4291217866
0.11164264 0.063651003 0.47419935 4291283661
0.11252494 0.06371811 0.47469929 4291283661
0.11328954 0.06371811 0.47469929 4291349454
0.11423433 0.063818768 0.4754492 4291349454
0.14765002 0.081937663 0.61043477 4291283661
0.14890715 0.082088657 0.61155969 4291283661
0.15010662 0.082206093 0.61243457 4291217868
0.032748383 0.062530234 0.46032581 4291084734
0.033471651 0.062496278 0.46007586 4291084734
0.034203406 0.062479299 0.45995086 4291084481
0.034944251 0.062479299 0.45995086 4291018688
0.035665702 0.062445343 0.45970088 4291282113
0.036386348 0.062411387 0.4594509 4291216320
0.037106194 0.06237743 0.45920095 4291216320
0.037845828 0.06237743 0.45920095 4291216320
0.038564466 0.062343474 0.45895097 4291216320
0.039292999 0.062326495 0.45882598 4291216320
0.040010221 0.062292542 0.45857602 4291216320
0.040737748 0.062275562 0.45845103 4291150527
0.041476179 0.062275562 0.45845103 4291151297
0.042180084 0.062224627 0.45807606 4291151297
0.042882778 0.062173698 0.45770112 4291347906
0.043596178 0.062139738 0.45745113 4291347906
0.044333 0.062139738 0.45745113 4291150527
0.04504519 0.062105782 0.45720115 4291216320
0.045769092 0.062088802 0.45707616 4291151297
0.046492592 0.062071823 0.45695117 4291217090
0.047228605 0.062071823 0.45695117 4291348676
0.047951505 0.06205485 0.45682621 4291217090
0.048673995 0.06203787 0.45670122 4291348676
0.049396086 0.062020894 0.45657623 4291217090
0.098469272 0.063311227 0.46607521 4291414216
0.099432848 0.063447051 0.46707511 4291545802
0.10039964 0.063582875 0.46807501 4291545802
0.10115357 0.063582875 0.46807501 4291480009
0.10215241 0.063735679 0.46919987 4291480009
0.10312746 0.063871503 0.47019976 4291480266
0.10407811 0.063990347 0.47107467 4291480266
0.10503158 0.064109191 0.47194958 4291480266
0.10579176 0.064109191 0.47194958 4291480266
0.10666481 0.064177111 0.47244954 4291415245
0.10753946 0.064245023 0.47294948 4291349452
0.10832986 0.064261995 0.47307447 4291480268
0.1091783 0.064312927 0.47344941 4291546061
0.1099409 0.064312927 0.47344941 4291414475
0.11079117 0.064363867 0.47382438 4291348682
0.11164264 0.064414799 0.47419935 4291283661
0.11252494 0.064482711 0.47469929 4291283661
0.11328954 0.064482711 0.47469929 4291283661
0.11414424 0.064533643 0.47507423 4291217868
0.14768025 0.082937874 0.61055976 4291217868
0.14893758 0.083090678 0.61168468 4291283661
0.022489546 0.063615277 0.46282557 4290886842
0.032748383 0.063271686 0.46032581 4291018941
0.033471651 0.063237324 0.46007586 4291084734
0.034203406 0.063220151 0.45995086 4291084734
0.034944251 0.063220151 0.45995086 4290887355
0.035665702 0.063185789 0.45970088 4291150527
0.036386348 0.063151427 0.4594509 4291150527
0.037106194 0.063117072 0.45920095 4291150527
0.037845828 0.063117072 0.45920095 4291150527
0.038564466 0.06308271 0.45895097 4291216320
0.039292999 0.063065529 0.45882598 4291150527
0.040010221 0.063031174 0.45857602 4291216320
0.040737748 0.063013993 0.45845103 4291150527
0.041476179 0.063013993 0.45845103 4291216320
0.042180084 0.062962458 0.45807606 4291282113
0.042882778 0.062910922 0.45770112 4291282111
0.043596178 0.06287656 0.45745113 4291216318
0.044333 0.06287656 0.45745113 4291084732
0.04504519 0.062842198 0.45720115 4291150525
0.045756578 0.062807843 0.45695117 4291150527
0.046479877 0.062790662 0.45682621 4291282113
0.047215689 0.062790662 0.45682621 4291216837
0.047938384 0.062773488 0.45670122 4291216837
0.048660673 0.062756307 0.45657623 4291348423
0.049382564 0.062739126 0.45645124 4291216837
0.050117772 0.062739126 0.45645124 4291151044
0.098469272 0.06406194 0.46607521 4291414473
0.099432848 0.064199373 0.46707511 4291480266
0.10039964 0.064336807 0.46807501 4291414473
0.10115357 0.064336807 0.46807501 4291348680
0.10212519 0.06447424 0.46907488 4291414473
0.10312746 0.064628854 0.47019976 4291414475
0.10405049 0.064731933 0.47094968 4291480268
0.10497595 0.064835012 0.4716996 4291480268
0.10573572 0.064835012 0.4716996 4291348682
0.10660837 0.064903729 0.47219956 4291546061
0.10748262 0.064972445 0.47269949 4291480268
0.10830124 0.065006807 0.47294948 4291480268
0.1091783 0.065075517 0.47344941 4291546061
0.1099409 0.065075517 0.47344941 4291546063
0.11079117 0.06512706 0.47382438 4291348684
0.11167206 0.065195777 0.47432432 4291349200
0.11252494 0.065247312 0.47469929 4291283407
0.11328954 0.065247312 0.47469929 4291151821
0.11414424 0.065298848 0.47507423 4291217614
0.022483474 0.06434337 0.46270058 4290886842
0.033489835 0.064013138 0.46032581 4291084734
0.034212701 0.063978374 0.46007586 4291018941
0.037116293 0.063874096 0.45932594 4291084734
0.037856132 0.063874096 0.45932594 4291084734
0.038574968 0.063839331 0.45907596 4291150527
0.039292999 0.063804567 0.45882598 4291084734
0.040010221 0.06376981 0.45857602 4291150527
0.040737748 0.063752428 0.45845103 4291150527
0.041464869 0.063735045 0.45832604 4291216320
0.042168573 0.063682906 0.45795107 4291282113
0.042882778 0.063648142 0.45770112 4291347391
0.043584269 0.063596003 0.45732614 4291281598
0.044320889 0.063596003 0.45732614 4291150012
0.04504519 0.063578621 0.45720115 4291215805
0.045756578 0.063543856 0.45695117 4291150527
0.046479877 0.063526481 0.45682621 4291282113
0.047215689 0.063526481 0.45682621 4291281860
0.047938384 0.063509099 0.45670122 4291281860
0.048660673 0.063491717 0.45657623 4291347653
0.049382564 0.063474335 0.45645124 4291479239
0.050117772 0.063474335 0.45645124 4291281860
0.098495685 0.064830035 0.4662002 4291414473
0.099459462 0.064969078 0.4672001 4291480266
0.10039964 0.065090746 0.46807501 4291414473
0.10115357 0.065090746 0.46807501 4291348680
0.10212519 0.065229788 0.46907488 4291414473
0.10310004 0.065368831 0.47007477 4291414473
0.10402288 0.065473117 0.47082469 4291414473
0.10492032 0.065560021 0.47144964 4291414473
0.10567969 0.065560021 0.47144964 4291282887
0.10658015 0.065646924 0.47207457 4291546061
0.10742579 0.065699071 0.47244954 4291414475
0.10830124 0.065768592 0.47294948 4291480268
0.1091783 0.065838113 0.47344941 4291480268
0.1099409 0.065838113 0.47344941 4291480270
0.11082039 0.065907635 0.47394937 4291348684
0.11170149 0.065977156 0.47444931 4291283407
0.11255457 0.066029303 0.47482428 4291349200
0.11331937 0.066029303 0.47482428 4291217614
0.11417426 0.066081442 0.47519922 4291217614
0.022483474 0.065088645 0.46270058 4290952635
0.037126392 0.064631507 0.4594509 4290952635
0.039303701 0.064561181 0.45895097 4291150014
0.040021125 0.064526014 0.45870098 4291215807
0.041464869 0.064473271 0.45832604 4291281598
0.042168573 0.064420521 0.45795107 4291347391
0.042871069 0.064367779 0.45757613 4291215805
0.043584269 0.064332612 0.45732614 4291281598
0.044308774 0.064315028 0.45720115 4291215805
0.045032874 0.064297453 0.45707616 4291215805
0.045744065 0.064262286 0.45682621 4291281600
0.046467159 0.064244702 0.45670122 4291347393
0.047202773 0.064244702 0.45670122 4291281347
0.047925267 0.064227127 0.45657623 4291215554
0.048647355 0.064209543 0.45645124 4291216067
0.049382564 0.064209543 0.45645124 4291216067
0.050117772 0.064209543 0.45645124 4291216067
0.050839059 0.06419196 0.45632625 4291281860
0.098548487 0.065616101 0.46645015 4291414473
0.09948606 0.065739177 0.46732506 4291480266
0.10042644 0.065862246 0.46819997 4291414473
0.10118058 0.065862246 0.46819997 4291414473
0.10212519 0.065985322 0.46907488 4291480266
0.10310004 0.066125982 0.47007477 4291414473
0.10402288 0.066231474 0.47082469 4291414473
0.10492032 0.066319384 0.47144964 4291348680
0.10567969 0.066319384 0.47144964 4291282887
0.10658015 0.066407293 0.47207457 4291480266
0.10742579 0.066460043 0.47244954 4291414473
0.10830124 0.066530369 0.47294948 4291414475
0.1091783 0.066600695 0.47344941 4291348682
0.1099409 0.066600695 0.47344941 4291348682
0.11082039 0.066671021 0.47394937 4291348682
0.11170149 0.066741347 0.47444931 4291348684
0.1125842 0.066811681 0.47494927 4291348684
0.1133492 0.066811681 0.47494927 4291348684
0.11420429 0.066864423 0.47532421 4291282891
-0.0069734408 0.069746256 0.49019763 4290689976
0.022483474 0.065833919 0.46270058 4291084221
0.039303701 0.06530042 0.45895097 4291150014
0.040021125 0.065264851 0.45870098 4291215807
0.041464869 0.065211505 0.45832604 4291215807
0.042168573 0.065158151 0.45795107 4291281600
0.042871069 0.065104805 0.45757613 4291215805
0.043608092 0.065104805 0.45757613 4291281598
0.044308774 0.065051451 0.45720115 4291215805
0.045020562 0.065015882 0.45695117 4291215805
0.045744065 0.064998105 0.45682621 4291281600
0.046467159 0.064980321 0.45670122 4291281600
0.047202773 0.064980321 0.45670122 4291281600
0.047912147 0.064944752 0.45645124 4291215807
0.048647355 0.064944752 0.45645124 4291216067
0.049369041 0.064926967 0.45632625 4291150274
0.050104048 0.064926967 0.45632625 4291281860
0.050839059 0.064926967 0.45632625 4291216067
0.098548487 0.066367418 0.46645015 4291348680
0.09948606 0.066491902 0.46732506 4291282887
0.10042644 0.066616386 0.46819997 4291348680
0.10118058 0.066616386 0.46819997 4291414473
0.10212519 0.066740863 0.46907488 4291414473
0.10310004 0.066883132 0.47007477 4291348680
0.10402288 0.066989832 0.47082469 4291348680
0.10492032 0.067078754 0.47144964 4291348680
0.10567969 0.067078754 0.47144964 4291414473
0.10658015 0.06716767 0.47207457 4291480266
0.10742579 0.067221023 0.47244954 4291282887
0.10830124 0.067292154 0.47294948 4291348682
0.10906302 0.067292154 0.47294948 4291348682
0.1099409 0.067363285 0.47344941 4291348682
0.11082039 0.067434423 0.47394937 4291348682
0.11170149 0.067505553 0.47444931 4291282891
0.1125842 0.067576684 0.47494927 4291282891
0.1133492 0.067576684 0.47494927 4291282891
0.11420429 0.067630038 0.47532421 4291282891
-0.0069734408 0.070535816 0.49019763 4290427321
0.022483474 0.066579193 0.46270058 4290952635
0.040021125 0.066003688 0.45870098 4291084221
0.041476179 0.065967716 0.45845103 4291150014
0.042168573 0.065895781 0.45795107 4291150014
0.042871069 0.065841824 0.45757613 4291215805
0.043608092 0.065841824 0.45757613 4291281598
0.044308774 0.065787867 0.45720115 4291215805
0.045020562 0.065751903 0.45695117 4291215805
0.045744065 0.065733917 0.45682621 4291281600
0.046467159 0.065715931 0.45670122 4291281600
0.047202773 0.065715931 0.45670122 4291347393
0.047912147 0.06567996 0.45645124 4291215807
0.048647355 0.06567996 0.45645124 4291150527
0.049369041 0.065661974 0.45632625 4291150527
0.050104048 0.065661974 0.45632625 4291216320
0.050839059 0.065661974 0.45632625 4291150527
0.098601304 0.067154706 0.46670014 4291348682
0.09953928 0.067280598 0.46757504 4291151303
0.10048006 0.06740649 0.46844995 4291348682
0.1012346 0.06740649 0.46844995 4291348680
0.10215241 0.067514397 0.46919987 4291480266
0.10312746 0.067658275 0.47019976 4291348680
0.10405049 0.067766182 0.47094968 4291348680
0.10492032 0.067838125 0.47144964 4291348680
0.10567969 0.067838125 0.47144964 4291348680
0.10658015 0.067928046 0.47207457 4291414473
0.10742579 0.067982003 0.47244954 4291085508
0.10830124 0.068053938 0.47294948 4291348682
0.10906302 0.068053938 0.47294948 4291348682
0.1099409 0.068125874 0.47344941 4291348682
0.11082039 0.068197817 0.47394937 4291348682
0.11173092 0.068287738 0.4745743 4291282889
0.11261382 0.068359673 0.47507423 4291151303
0.11337902 0.068359673 0.47507423 4291151305
0.11423433 0.06841363 0.4754492 4291151305
-0.0085743787 0.071507245 0.49144751 4290426551
-0.0077828001 0.071507245 0.49144751 4290229942
-0.0069787754 0.071379945 0.4905726 4290493114
0.022483474 0.067324474 0.46270058 4290821562
0.040021125 0.066742517 0.45870098 4290952633
0.041476179 0.066706151 0.45845103 4291084219
0.042168573 0.066633403 0.45795107 4291084219
0.042871069 0.06657885 0.45757613 4291150012
0.043608092 0.06657885 0.45757613 4291215805
0.044308774 0.06652429 0.45720115 4291150014
0.045020562 0.066487916 0.45695117 4291215807
0.045731548 0.06645155 0.45670122 4291215807
0.046454441 0.066433363 0.45657623 4291215807
0.047189854 0.066433363 0.45657623 4291215807
0.047912147 0.066415176 0.45645124 4291150014
0.048634034 0.066396989 0.45632625 4290755516
0.049355518 0.066378802 0.45620126 4290689723
0.050090324 0.066378802 0.45620126 4290953918
0.050825134 0.066378802 0.45620126 4290888125
0.05155994 0.066378802 0.45620126 4290953918
0.098654121 0.067942798 0.46695012 4291282889
0.099565886 0.068051912 0.46770003 4291151303
0.10050687 0.068179213 0.46857494 4291348682
0.10126161 0.068179213 0.46857494 4291348682
0.10220683 0.068306513 0.46944985 4291414475
0.10312746 0.068415627 0.47019976 4291348682
0.10405049 0.068524748 0.47094968 4291348682
0.10497595 0.068633862 0.4716996 4291151303
0.10573572 0.068633862 0.4716996 4291348682
0.10660837 0.068706609 0.47219956 4291348682
0.10748262 0.068779349 0.47269949 4291151303
0.10835848 0.068852097 0.47319946 4291282889
0.10912067 0.068852097 0.47319946 4291348682
0.10999895 0.068924837 0.47369939 4291348682
0.11087884 0.068997584 0.47419935 4291348682
0.11176034 0.069070324 0.47469929 4291151303
0.11264344 0.069143064 0.47519922 4291151303
0.11340886 0.069143064 0.47519922 4291085510
0.11429439 0.069215812 0.47569919 4291019717
-0.0085743787 0.072298825 0.49144751 4290558137
-0.0077828001 0.072298825 0.49144751 4290229942
0.022483474 0.068069749 0.46270058 4290886842
0.040032029 0.067499742 0.45882598 4290886840
0.041476179 0.067444585 0.45845103 4290952633
0.042180084 0.067389421 0.45807606 4290952633
0.042871069 0.067315869 0.45757613 4291018939
0.043608092 0.067315869 0.45757613 4291084732
0.044308774 0.067260705 0.45720115 4291150014
0.045020562 0.067223929 0.45695117 4291215807
0.045731548 0.06718716 0.45670122 4291215807
0.046454441 0.067168772 0.45657623 4291150014
0.047189854 0.067168772 0.45657623 4291084734
0.047912147 0.067150384 0.45645124 4291018941
0.048634034 0.067131996 0.45632625 4290887102
0.049355518 0.067113608 0.45620126 4290887102
0.050090324 0.067113608 0.45620126 4290953918
0.050825134 0.067113608 0.45620126 4290953918
0.05155994 0.067113608 0.45620126 4291019711
0.097770974 0.068602979 0.46632519 4291348680
0.098680526 0.068713307 0.46707511 4291282887
0.099592492 0.068823628 0.46782503 4291282887
0.10053368 0.068952337 0.46869993 4291348680
0.10128862 0.068952337 0.46869993 4291282887
0.10223404 0.069081053 0.46957484 4291282887
0.10318229 0.069209762 0.47044975 4291282887
0.10410573 0.069320083 0.47119966 4291151301
0.10503158 0.069430411 0.47194958 4291282889
0.10579176 0.069430411 0.47194958 4291348682
0.10666481 0.069503963 0.47244954 4291348682
0.10753946 0.069577508 0.47294948 4291151303
0.10841572 0.069651052 0.47344941 4291282889
0.1092936 0.069724604 0.47394937 4291282889
0.110057 0.069724604 0.47394937 4291282889
0.11096651 0.069816545 0.4745743 4291282889
0.11184862 0.069890089 0.47507423 4291151303
0.11273233 0.069963641 0.4755742 4291085510
0.11349835 0.069963641 0.4755742 4291085510
0.11447456 0.07009235 0.4764491 4291085510
0.022489546 0.068833612 0.46282557 4290821047
0.042180084 0.068127237 0.45807606 4290887353
0.042871069 0.068052888 0.45757613 4290887353
0.043608092 0.068052888 0.45757613 4290821560
0.044308774 0.06799712 0.45720115 4291084734
0.045020562 0.067959942 0.45695117 4291084734
0.045731548 0.067922771 0.45670122 4291018941
0.046454441 0.067904182 0.45657623 4291018941
0.047189854 0.067904182 0.45657623 4291018941
0.047912147 0.067885593 0.45645124 4291018941
0.048634034 0.067867003 0.45632625 4290887355
0.049369041 0.067867003 0.45632625 4290887355
0.050104048 0.067867003 0.45632625 4290888125
0.050825134 0.067848414 0.45620126 4290953918
0.05155994 0.067848414 0.45620126 4291019711
0.097045854 0.069372676 0.46645015 4291282887
0.09779717 0.069372676 0.46645015 4291282887
0.098680526 0.069465622 0.46707511 4291282887
0.099592492 0.06957715 0.46782503 4291282887
0.10053368 0.069707274 0.46869993 4291282887
0.10128862 0.069707274 0.46869993 4291348423
0.10223404 0.069837391 0.46957484 4291085251
0.10318229 0.069967516 0.47044975 4291216837
0.10410573 0.070079044 0.47119966 4291216837
0.10503158 0.070190579 0.47194958 4291216839
0.10579176 0.070190579 0.47194958 4291216839
0.10666481 0.070264935 0.47244954 4291348425
0.10753946 0.070339285 0.47294948 4291348425
0.10841572 0.070413634 0.47344941 4291282889
0.1092936 0.070487998 0.47394937 4291151303
0.110057 0.070487998 0.47394937 4291282889
0.11096651 0.070580937 0.4745743 4291151303
0.11184862 0.070655286 0.47507423 4291151303
0.11273233 0.070729643 0.4755742 4291085510
0.11349835 0.070729643 0.4755742 4290954694
0.11447456 0.070859767 0.4764491 4290954694
0.11569546 0.071138598 0.47832391 4290954694
0.022489546 0.069579087 0.46282557 4290886840
0.042191591 0.068883859 0.45820105 4290887355
0.042882778 0.068808705 0.45770112 4290887355
0.043620002 0.068808705 0.45770112 4290821562
0.044308774 0.068733536 0.45720115 4290887355
0.045020562 0.068695955 0.45695117 4291018941
0.045731548 0.068658382 0.45670122 4291018941
0.046467159 0.068658382 0.45670122 4291018941
0.047189854 0.068639591 0.45657623 4291018941
0.047912147 0.068620801 0.45645124 4291018941
0.048647355 0.068620801 0.45645124 4290887355
0.049369041 0.068602011 0.45632625 4291018941
0.050104048 0.068602011 0.45632625 4291018941
0.050839059 0.068602011 0.45632625 4291018941
0.097045854 0.070123993 0.46645015 4291085508
0.09779717 0.070123993 0.46645015 4291151301
0.098680526 0.070217945 0.46707511 4291085508
0.099619105 0.070349477 0.46795002 4291085510
0.10056049 0.070481002 0.46882492 4291151303
0.10131563 0.070481002 0.46882492 4291151301
0.10228847 0.070631325 0.46982482 4290953922
0.10323711 0.07076285 0.47069973 4291151301
0.10418857 0.070894383 0.47157463 4291151301
0.10508721 0.070988335 0.47219956 4291151303
0.10584779 0.070988335 0.47219956 4291085510
0.10674945 0.071082279 0.47282448 4291151303
0.10765313 0.071176231 0.47344941 4291151303
0.10853021 0.071251392 0.47394937 4291151303
0.10940889 0.071326546 0.47444931 4291151303
0.11017308 0.071326546 0.47444931 4291151303
0.11108341 0.071420498 0.47507423 4291085510
0.11196633 0.07149566 0.4755742 4291085510
0.11288047 0.071589604 0.47619912 4291085510
0.11364748 0.071589604 0.47619912 4290954694
0.11465475 0.071739927 0.47719902 4290888901
0.11569546 0.07190904 0.47832391 4290888901
0.022489546 0.07032457 0.46282557 4290886842
0.042191591 0.069621891 0.45820105 4290821562
0.042882778 0.069545925 0.45770112 4290821562
0.043620002 0.069545925 0.45770112 4290821562
0.044308774 0.069469959 0.45720115 4290755769
0.045020562 0.069431975 0.45695117 4290689976
0.045731548 0.069393992 0.45670122 4290887355
0.046467159 0.069393992 0.45670122 4291018941
0.047189854 0.069375001 0.45657623 4291018941
0.047912147 0.069356009 0.45645124 4291018941
0.048647355 0.069356009 0.45645124 4291018941
0.049369041 0.069337018 0.45632625 4291018941
0.050104048 0.069337018 0.45632625 4291018941
0.050839059 0.069337018 0.45632625 4291018941
0.097045854 0.070875309 0.46645015 4291085508
0.09779717 0.070875309 0.46645015 4291085510
0.098706931 0.070989259 0.4672001 4290953924
0.099645711 0.071122199 0.46807501 4290954694
0.10061411 0.071274124 0.46907488 4290954694
0.10136965 0.071274124 0.46907488 4290954694
0.10234289 0.071426056 0.47007477 4290888901
0.10331935 0.071577989 0.47107467 4291085510
0.10427141 0.071710922 0.47194958 4291085510
0.10519847 0.071824871 0.47269949 4291151303
0.10595986 0.071824871 0.47269949 4291151303
0.10686233 0.071919829 0.47332445 4291085510
0.10776681 0.072014786 0.47394937 4291085510
0.10864469 0.072090752 0.47444931 4291085508
0.10955299 0.072185703 0.47507423 4291019715
0.11031821 0.072185703 0.47507423 4291085508
0.11120031 0.072261669 0.4755742 4291085508
0.11208403 0.072337635 0.47607413 4291019715
0.11291009 0.072375618 0.47632411 4290953922
0.11367732 0.072375618 0.47632411 4291019715
0.11480489 0.072603509 0.47782394 4290888129
0.116028 0.072888382 0.47969875 4290888901
-0.0022314882 0.075119674 0.48919773 4290755767
-0.0014435336 0.075119674 0.48919773 4290755767
-0.00065541145 0.075100482 0.48907274 4290689974
0.00013220671 0.075023711 0.48857281 4290755767
0.042191591 0.070359915 0.45820105 4290821562
0.042882778 0.070283152 0.45770112 4290821562
0.043620002 0.070283152 0.45770112 4290821562
0.044320889 0.070225574 0.45732614 4290689976
0.045020562 0.070167989 0.45695117 4290689976
0.045744065 0.070148803 0.45682621 4290821562
0.046479877 0.070148803 0.45682621 4290887355
0.047202773 0.070129611 0.45670122 4291018941
0.047925267 0.070110418 0.45657623 4291018941
0.048647355 0.070091225 0.45645124 4290952635
0.049382564 0.070091225 0.45645124 4290821049
0.050117772 0.070091225 0.45645124 4291018941
0.097097866 0.071665011 0.46670014 4291085508
0.097849585 0.071665011 0.46670014 4291085510
0.098759741 0.071780168 0.46745005 4290953924
0.099698924 0.071914516 0.46832496 4291085510
0.10069454 0.072087251 0.46944985 4291085510
0.10145068 0.072087251 0.46944985 4290888901
0.10242452 0.072240792 0.47044975 4290888901
0.103429 0.072413526 0.47157463 4290888901
0.10438187 0.072547875 0.47244954 4290954694
0.10530974 0.072663024 0.47319946 4291020487
0.10607193 0.072663024 0.47319946 4290954694
0.10700342 0.07277818 0.47394937 4290954694
0.10790891 0.072874144 0.4745743 4290954694
0.10881641 0.072970107 0.47519922 4290954692
0.10969711 0.073046878 0.47569919 4290888899
0.11046333 0.073046878 0.47569919 4290954692
0.11131721 0.073104456 0.47607413 4290954692
0.11217231 0.073162034 0.4764491 4290888899
0.11296935 0.073181227 0.47657409 4290823106
0.11373697 0.073181227 0.47657409 4290823106
0.11489499 0.073430724 0.47819892 4290823106
0.11614893 0.073737808 0.48019871 4290888901
-0.0069734408 0.076062769 0.49019763 4290426543
-0.0061838757 0.076062769 0.49019763 4290426802
-0.0054025627 0.076179132 0.49094754 4290361009
-0.0046188342 0.076295495 0.49169746 4290426804
-0.0038268531 0.076295495 0.49169746 4290689976
-0.0030333293 0.076256715 0.49144751 4290755256
-0.0022400403 0.076198526 0.49107254 4290755256
-0.0014486969 0.076179132 0.49094754 4290755254
-0.00065708638 0.07608217 0.49032262 4290755254
0.00013244347 0.075946413 0.48944771 4290755767
0.00091939 0.07583005 0.4886978 4290755767
0.0017065394 0.07583005 0.4886978 4290689974
0.042191591 0.07109794 0.45820105 4290886842
0.042882778 0.071020365 0.45770112 4290821049
0.043620002 0.071020365 0.45770112 4290689463
0.044320889 0.070962183 0.45732614 4290689976
0.045032874 0.070923395 0.45707616 4290755769
0.045744065 0.070884608 0.45682621 4290821562
0.046479877 0.070884608 0.45682621 4290821562
0.047202773 0.070865214 0.45670122 4290952635
0.047938384 0.070865214 0.45670122 4290952635
0.048660673 0.07084582 0.45657623 4290952635
0.049396086 0.07084582 0.45657623 4290886842
0.097175881 0.072474904 0.46707511 4291019717
0.097928204 0.072474904 0.46707511 4290953924
0.098865367 0.072610661 0.46795002 4291019717
0.099805355 0.072746418 0.46882492 4291085512
0.10069454 0.072843388 0.46944985 4291085512
0.10145068 0.072843388 0.46944985 4291085512
0.10242452 0.072998539 0.47044975 4291019719
0.103429 0.073173091 0.47157463 4291019717
0.10438187 0.073308848 0.47244954 4291019717
0.10530974 0.073425211 0.47319946 4291020487
0.10607193 0.073425211 0.47319946 4290954694
0.10700342 0.073541567 0.47394937 4290888901
0.10790891 0.073638536 0.4745743 4290823108
0.10881641 0.073735505 0.47519922 4290888899
0.10969711 0.073813081 0.47569919 4290954692
0.11046333 0.073813081 0.47569919 4290954692
0.11131721 0.073871262 0.47607413 4290954692
0.11217231 0.073929444 0.4764491 4290954692
0.11296935 0.073948838 0.47657409 4290888899
0.11373697 0.073948838 0.47657409 4290953922
0.11489499 0.074200958 0.47819892 4290888129
0.11614893 0.074511267 0.48019871 4291019717
-0.0062485212 0.07765574 0.49532208 4290426289
-0.0054507018 0.07765574 0.49532208 4290426289
-0.0046669715 0.07789088 0.49682191 4290623670
-0.0038667363 0.07789088 0.49682191 4290689463
-0.0030549299 0.077596955 0.49494714 4290689463
-0.0022423207 0.077067882 0.49157247 4290689463
-0.0014486969 0.076969907 0.49094754 4290689463
-0.00065792387 0.076969907 0.49094754 4290755256
0.0001326464 0.076852337 0.49019763 4290755254
0.0009212711 0.076773964 0.48969769 4290755254
0.0017100311 0.076773964 0.48969769 4290886070
0.0024924134 0.076578006 0.48844782 4291017656
0.042906195 0.071796782 0.45795107 4290886842
0.043643825 0.071796782 0.45795107 4290821049
0.044333 0.071718402 0.45745113 4290755256
0.04504519 0.071679212 0.45720115 4290755256
0.045756578 0.071640015 0.45695117 4290821049
0.046492592 0.071640015 0.45695117 4290886842
0.047215689 0.071620427 0.45682621 4290952633
0.047938384 0.071600832 0.45670122 4290952633
0.048673995 0.071600832 0.45670122 4291083449
0.049409609 0.071600832 0.45670122 4291083449
0.097175881 0.073227227 0.46707511 4290953924
0.097928204 0.073227227 0.46707511 4290953924
0.098865367 0.073364399 0.46795002 4291019717
0.099805355 0.073501565 0.46882492 4291019719
0.10080177 0.07367792 0.46994978 4291019719
0.10155872 0.07367792 0.46994978 4291085512
0.10253337 0.07383468 0.47094968 4290953926
0.10353865 0.074011035 0.47207457 4290953924
0.10449233 0.0741482 0.47294948 4290953924
0.105421 0.074265771 0.47369939 4291085510
0.10618399 0.074265771 0.47369939 4291019717
0.10711629 0.074383341 0.47444931 4291019717
0.10799418 0.074461728 0.47494927 4290953924
0.10890228 0.074559703 0.4755742 4291019715
0.10975475 0.074618489 0.47594914 4291085508
0.11052137 0.074618489 0.47594914 4291085508
0.11137566 0.074677274 0.47632411 4291085508
0.11223117 0.074736059 0.47669908 4291085508
0.11317674 0.074853629 0.477449 4291019715
0.11394577 0.074853629 0.477449 4291019715
0.11525535 0.075206339 0.47969875 4290953922
0.11678379 0.075696222 0.48282343 4291019460
-0.0071423543 0.07952258 0.50207138 4290359980
-0.0062485212 0.078453563 0.49532208 4290360496
-0.0054507018 0.078453563 0.49532208 4290360496
-0.0046669715 0.078691117 0.49682191 4290426291
-0.0038667363 0.078691117 0.49682191 4290623670
-0.0030549299 0.078394175 0.49494714 4290492084
-0.0022423207 0.077859662 0.49157247 4290689463
-0.0014486969 0.077760682 0.49094754 4290689463
-0.00065792387 0.077760682 0.49094754 4290623670
0.0001326464 0.077641904 0.49019763 4290689461
0.0009212711 0.07756272 0.48969769 4290755254
0.0017100311 0.07756272 0.48969769 4290886070
0.0024924134 0.077364758 0.48844782 4291017656
0.042906195 0.072534405 0.45795107 4290821049
0.043643825 0.072534405 0.45795107 4290755256
0.044333 0.07245522 0.45745113 4290755256
0.04504519 0.072415628 0.45720115 4290755256
0.045756578 0.072376035 0.45695117 4290821049
0.046492592 0.072376035 0.45695117 4290886842
0.047215689 0.072356239 0.45682621 4290886840
0.047938384 0.072336443 0.45670122 4290886840
0.048673995 0.072336443 0.45670122 4291083449
0.049409609 0.072336443 0.45670122 4291083449
0.096371949 0.073939957 0.46682513 4291019717
0.097279891 0.074058734 0.46757504 4290953924
0.098033018 0.074058734 0.46757504 4290888901
0.098970994 0.074197315 0.46844995 4290823108
0.099964999 0.07437548 0.46957484 4290888901
0.10096262 0.074553654 0.47069973 4290888901
0.10193687 0.074712023 0.4716996 4291019717
0.10269663 0.074712023 0.4716996 4290888131
0.10367572 0.074870393 0.47269949 4291019717
0.1046304 0.075008966 0.4735744 4291085510
0.10553227 0.075107954 0.47419935 4291019717
0.10629606 0.075107954 0.47419935 4291019717
0.10717273 0.075187139 0.47469929 4290953924
0.10807943 0.07528612 0.47532421 4290953924
0.10895952 0.075365312 0.47582418 4291019715
0.10984122 0.075444497 0.47632411 4291019715
0.11060844 0.075444497 0.47632411 4291019715
0.11146334 0.075503886 0.47669908 4291019715
0.11234886 0.075583071 0.47719902 4291019715
0.11341377 0.07578104 0.4784489 4291019715
0.11418441 0.07578104 0.4784489 4291019715
0.11567577 0.076256149 0.48144856 4290953922
0.11732795 0.076830253 0.48507318 4291019458
-0.0071423543 0.080331266 0.50207138 4290754738
-0.0063336641 0.080331266 0.50207138 4290228910
-0.0055208472 0.080271274 0.50169641 4290360496
-0.0047080647 0.080191277 0.50119644 4290294703
-0.0038754914 0.079671338 0.4979468 4290492082
-0.0030734446 0.079671338 0.4979468 4290492082
-0.0022548635 0.0790914 0.49432218 4290623668
-0.0014505411 0.078651451 0.49157247 4290689461
-0.00065876136 0.078651451 0.49157247 4290689461
0.00013281549 0.078531459 0.49082255 4290689461
0.00092197652 0.078411475 0.49007264 4290689461
0.0017113404 0.078411475 0.49007264 4290755254
0.0024943268 0.078211501 0.48882279 4290886840
0.04292962 0.073312029 0.45820105 4290689976
0.044369336 0.073252037 0.45782608 4290689976
0.045069817 0.073192045 0.45745113 4290689976
0.045781609 0.073152043 0.45720115 4290755769
0.046505306 0.073132046 0.45707616 4290755769
0.047241524 0.073132046 0.45707616 4290755256
0.047951505 0.073092058 0.45682621 4290755256
0.048687316 0.073092058 0.45682621 4290886840
0.049409609 0.073072061 0.45670122 4290886840
0.096475154 0.074771866 0.46732506 4291019717
0.097409911 0.074911855 0.46819997 4291019717
0.098164044 0.074911855 0.46819997 4290953924
0.099129431 0.075071834 0.46919987 4290953924
0.10012465 0.075251818 0.47032475 4291019717
0.10109667 0.075411804 0.47132465 4291019717
0.10207192 0.075571783 0.47232455 4290888131
0.1028327 0.075571783 0.47232455 4290888131
0.10378537 0.075711772 0.47319946 4291019717
0.10471324 0.075831756 0.47394937 4291085510
0.10558789 0.075911745 0.47444931 4291019717
0.10635209 0.075911745 0.47444931 4290953924
0.10722917 0.075991742 0.47494927 4290953924
0.10810785 0.076071732 0.4754492 4290953924
0.10898814 0.076151721 0.47594914 4290953922
0.10987005 0.076231711 0.4764491 4291019715
0.11063746 0.076231711 0.4764491 4290953922
0.11152178 0.0763117 0.47694904 4290953922
0.11240772 0.076391697 0.477449 4291019715
0.11344339 0.076571673 0.47857386 4291019715
0.11421423 0.076571673 0.47857386 4291019715
0.11606616 0.077291593 0.48307338 4290888129
-0.0071459105 0.081180364 0.50232136 4290096554
-0.0063368175 0.081180364 0.50232136 4290228912
-0.0055235978 0.081119761 0.50194639 4290294705
-0.004711587 0.081059165 0.50157142 4290360498
-0.0038823008 0.080614783 0.49882171 4290492084
-0.0030788446 0.080614783 0.49882171 4290622900
-0.0022582843 0.080008805 0.4950721 4290622900
