# .PCD v0.7 - Point Cloud Data file format
VERSION 0.7
FIELDS x y z rgba
SIZE 4 4 4 4
TYPE F F F U
COUNT 1 1 1 1
WIDTH 991
HEIGHT 1
VIEWPOINT 0 0 0 1 0 0 0
POINTS 991
DATA ascii
-0.062562324 -0.012436787 0.4633255 4291414467
-0.061866071 -0.012446851 0.46370047 4291480260
-0.061185077 -0.012460272 0.46420041 4291480260
-0.060469933 -0.012466981 0.46445039 4291414467
-0.059721842 -0.012466981 0.46445039 4291479490
-0.059005484 -0.012473691 0.46470034 4291545283
-0.058272656 -0.012477046 0.46482533 4291611076
-0.057554893 -0.012483756 0.46507531 4291545283
-0.056805793 -0.012483756 0.46507531 4291479490
-0.056101888 -0.012493821 0.46545029 4291479490
-0.055411641 -0.01250724 0.46595022 4291545283
-0.054749101 -0.01252737 0.46670014 4291545283
-0.05406969 -0.012544145 0.46732506 4291348674
-0.053316966 -0.012544145 0.46732506 4291217088
-0.052690767 -0.012574339 0.46844995 4291217088
-0.052019373 -0.012594469 0.46919987 4291217088
-0.051359218 -0.012617954 0.47007477 4291348674
-0.050709702 -0.012644793 0.47107467 4291217088
-0.049950939 -0.012644793 0.47107467 4291019709
-0.049322691 -0.012678343 0.47232455 4291151295
-0.048703268 -0.012715247 0.47369939 4291019709
-0.048117366 -0.012762217 0.4754492 4291085502
-0.047550723 -0.012815895 0.477449 4291085502
-0.047002126 -0.012876284 0.47969875 4291019709
-0.046229474 -0.012876284 0.47969875 4291019709
-0.045610789 -0.012919899 0.48132357 4291019709
-0.044917013 -0.012943383 0.48219848 4290888123
-0.044208981 -0.012963513 0.48294839 4290690744
-0.043442331 -0.012966868 0.48307338 4290690744
-0.042697359 -0.012976933 0.48344836 4290559158
-0.041918665 -0.012976933 0.48344836 4290624951
-0.24969728 -0.015976286 0.63318235 4290297534
-0.24848105 -0.015963672 0.63268238 4290626750
-0.10791837 -0.011753577 0.46582523 4291282111
-0.10716806 -0.011753577 0.46582523 4291216318
-0.10598945 -0.011706272 0.46395043 4291150525
-0.10487359 -0.011665275 0.4623256 4291216318
-0.10412892 -0.011665275 0.4623256 4291216572
-0.10195883 -0.011504441 0.4559513 4291348158
-0.10122443 -0.011504441 0.4559513 4291216572
-0.099828906 -0.011428753 0.45295161 4291282365
-0.099044643 -0.011422445 0.45270163 4291282365
-0.09831547 -0.011422445 0.45270163 4291282365
-0.097801842 -0.011447675 0.45370153 4291151295
-0.097071059 -0.011447675 0.45370153 4291348674
-0.09676493 -0.011498133 0.45570132 4291217088
-0.096452348 -0.011548591 0.45770112 4291217088
-0.095662847 -0.011542284 0.45745113 4291348674
-0.094926022 -0.011542284 0.45745113 4291414467
-0.094060533 -0.011526516 0.45682621 4291348674
-0.093299188 -0.011523362 0.45670122 4291348674
-0.092208922 -0.011479211 0.45495141 4291151552
-0.091476128 -0.011479211 0.45495141 4291151552
-0.090319529 -0.011425599 0.45282662 4291348931
-0.089441791 -0.011406678 0.4520767 4291414724
-0.088713631 -0.011406678 0.4520767 4291348933
-0.087985463 -0.011406678 0.4520767 4291414726
-0.087281421 -0.011409831 0.45220169 4291414724
-0.086576983 -0.011412985 0.45232669 4291480517
-0.085943304 -0.011425599 0.45282662 4291546310
-0.085213929 -0.011425599 0.45282662 4291546310
-0.084624469 -0.011444521 0.45357653 4291414724
-0.084055714 -0.011466596 0.45445144 4291546310
-0.083507054 -0.011491825 0.45545134 4291611846
-0.082932465 -0.011513901 0.45632625 4291546053
-0.082197458 -0.011513901 0.45632625 4291546053
-0.081618637 -0.011535976 0.45720115 4291611846
-0.08097066 -0.011548591 0.45770112 4291546053
-0.080277257 -0.011554898 0.45795107 4291546053
-0.079583049 -0.011561206 0.45820105 4291546053
-0.078845024 -0.011561206 0.45820105 4291611846
-0.078128301 -0.011564359 0.45832604 4291611846
-0.07736896 -0.011561206 0.45820105 4291546053
-0.076630935 -0.011561206 0.45820105 4291611846
-0.07589291 -0.011561206 0.45820105 4291677639
-0.075175382 -0.011564359 0.45832604 4291611846
-0.074437149 -0.011564359 0.45832604 4291677639
-0.073719017 -0.011567513 0.45845103 4291809225
-0.072980598 -0.011567513 0.45845103 4291546053
-0.072281547 -0.011573819 0.45870098 4291546053
-0.071581706 -0.011580127 0.45895097 4291546053
-0.070861757 -0.011583281 0.45907596 4291546053
-0.070141412 -0.011586434 0.45920095 4291611846
-0.069401778 -0.011586434 0.45920095 4291611846
-0.06868083 -0.011589589 0.45932594 4291677639
-0.067959473 -0.011592741 0.4594509 4291546053
-0.067292571 -0.011605356 0.45995086 4291546053
-0.066551723 -0.011605356 0.45995086 4291676869
-0.065846652 -0.011611664 0.46020085 4291742662
-0.065176129 -0.011624278 0.46070078 4291480260
-0.064503998 -0.011636892 0.46120071 4291546053
-0.063847534 -0.011652661 0.46182567 4291611846
-0.063103668 -0.011652661 0.46182567 4291546053
-0.062461063 -0.011671582 0.46257558 4291348674
-0.061799366 -0.01168735 0.46320051 4291546053
-0.061119184 -0.011699965 0.46370047 4291546053
-0.060404837 -0.011706272 0.46395043 4291414467
-0.059657555 -0.011706272 0.46395043 4291545283
-0.058957875 -0.011715733 0.4643254 4291611076
-0.05822565 -0.011718887 0.46445039 4291676869
-0.057493024 -0.01172204 0.46457538 4291611076
-0.056744732 -0.01172204 0.46457538 4291545283
-0.056011498 -0.011725194 0.46470034 4291479490
-0.055307593 -0.011734655 0.46507531 4291545283
-0.05461714 -0.011747269 0.46557525 4291545283
-0.053954005 -0.011766192 0.46632519 4291348674
-0.05320289 -0.011766192 0.46632519 4291217088
-0.052522067 -0.01178196 0.46695012 4291348674
-0.051825374 -0.011794574 0.46745005 4291348674
-0.051127072 -0.011807188 0.46795002 4291217088
-0.050373342 -0.011807188 0.46795002 4291151295
-0.049712382 -0.011829264 0.46882492 4291348674
-0.049087755 -0.0118608 0.47007477 4291348674
-0.048497662 -0.011901797 0.4716996 4291085502
-0.047940277 -0.011952255 0.47369939 4291151295
-0.047376454 -0.012002714 0.47569919 4291151295
-0.046867415 -0.012068939 0.47832391 4291019709
-0.046096977 -0.012068939 0.47832391 4290953916
-0.045456819 -0.012103629 0.47969875 4291019709
-0.044812232 -0.01213832 0.48107362 4290953916
-0.04410601 -0.012157242 0.48182353 4290888123
-0.043419853 -0.01218247 0.48282343 4290756537
-0.042642169 -0.01218247 0.48282343 4290756537
-0.041896988 -0.012191931 0.48319837 4290888123
-0.041161247 -0.012204546 0.48369834 4290493365
-0.24969728 -0.014956415 0.63318235 4290494141
-0.24843195 -0.014941652 0.63255739 4290823357
-0.24677758 -0.014903273 0.63093257 4290560185
-0.10739325 -0.010799559 0.45720115 4291150527
-0.10665683 -0.010799559 0.45720115 4291150527
-0.10592041 -0.010799559 0.45720115 4291282111
-0.10584535 -0.010867462 0.46007586 4291282111
-0.10598945 -0.010958984 0.46395043 4291282111
-0.10456172 -0.010888129 0.46095076 4291282111
-0.10381927 -0.010888129 0.46095076 4291282111
-0.10195883 -0.010770036 0.4559513 4291479490
-0.10122443 -0.010770036 0.4559513 4291479744
-0.099828906 -0.01069918 0.45295161 4291348158
-0.099044643 -0.010693275 0.45270163 4291479744
-0.09831547 -0.010693275 0.45270163 4291348158
-0.097801842 -0.010716894 0.45370153 4291479744
-0.097071059 -0.010716894 0.45370153 4291479744
-0.09676493 -0.010764131 0.45570132 4291348158
-0.096452348 -0.010811369 0.45770112 4291479744
-0.095662847 -0.010805463 0.45745113 4291545537
-0.094926022 -0.010805463 0.45745113 4291611330
-0.094060533 -0.010790702 0.45682621 4291414467
-0.093299188 -0.01078775 0.45670122 4291414467
-0.092208922 -0.010746418 0.45495141 4291348674
-0.091476128 -0.010746418 0.45495141 4291348674
-0.090319529 -0.010696228 0.45282662 4291414467
-0.089441791 -0.010678514 0.4520767 4291480260
-0.088713631 -0.010678514 0.4520767 4291546053
-0.087985463 -0.010678514 0.4520767 4291546053
-0.087281421 -0.010681466 0.45220169 4291611846
-0.086576983 -0.010684418 0.45232669 4291546053
-0.085943304 -0.010696228 0.45282662 4291677893
-0.085213929 -0.010696228 0.45282662 4291809479
-0.084624469 -0.010713941 0.45357653 4291677893
-0.084055714 -0.010734607 0.45445144 4291612100
-0.083507054 -0.010758227 0.45545134 4291677639
-0.082932465 -0.010778893 0.45632625 4291677639
-0.082197458 -0.010778893 0.45632625 4291611846
-0.081618637 -0.010799559 0.45720115 4291611846
-0.08097066 -0.010811369 0.45770112 4291546053
-0.080277257 -0.010817273 0.45795107 4291611846
-0.079583049 -0.010823177 0.45820105 4291546310
-0.078845024 -0.010823177 0.45820105 4291612103
-0.078128301 -0.010826129 0.45832604 4291546310
-0.07736896 -0.010823177 0.45820105 4291546310
-0.076630935 -0.010823177 0.45820105 4291612105
-0.07589291 -0.010823177 0.45820105 4291612105
-0.075175382 -0.010826129 0.45832604 4291611848
-0.074437149 -0.010826129 0.45832604 4291677641
-0.073719017 -0.010829083 0.45845103 4291809225
-0.072980598 -0.010829083 0.45845103 4291677639
-0.072281547 -0.010834986 0.45870098 4291611846
-0.071581706 -0.010840891 0.45895097 4291546053
-0.070861757 -0.010843843 0.45907596 4291546053
-0.070141412 -0.010846796 0.45920095 4291546053
-0.069401778 -0.010846796 0.45920095 4291546053
-0.06868083 -0.010849749 0.45932594 4291809225
-0.067959473 -0.0108527 0.4594509 4291611846
-0.067292571 -0.01086451 0.45995086 4291677639
-0.066551723 -0.01086451 0.45995086 4291611846
-0.065846652 -0.010870415 0.46020085 4291611846
-0.065176129 -0.010882224 0.46070078 4291546053
-0.064503998 -0.010894032 0.46120071 4291611846
-0.063847534 -0.010908795 0.46182567 4291677639
-0.063103668 -0.010908795 0.46182567 4291677639
-0.062461063 -0.010926508 0.46257558 4291414467
-0.061799366 -0.01094127 0.46320051 4291546053
-0.061119184 -0.010953079 0.46370047 4291612100
-0.060404837 -0.010958984 0.46395043 4291612100
-0.059657555 -0.010958984 0.46395043 4291546307
-0.058957875 -0.01096784 0.4643254 4291546307
-0.05822565 -0.010970793 0.46445039 4291546307
-0.057493024 -0.010973746 0.46457538 4291480514
-0.056744732 -0.010973746 0.46457538 4291480260
-0.056011498 -0.010976697 0.46470034 4291414467
-0.055307593 -0.010985554 0.46507531 4291480260
-0.05461714 -0.010997363 0.46557525 4291480260
-0.053954005 -0.011015078 0.46632519 4291414467
-0.05320289 -0.011015078 0.46632519 4291348674
-0.052522067 -0.01102984 0.46695012 4291414467
-0.051825374 -0.011041649 0.46745005 4291414467
-0.051127072 -0.011053458 0.46795002 4291217088
-0.050373342 -0.011053458 0.46795002 4291217088
-0.049712382 -0.011074124 0.46882492 4291348674
-0.049087755 -0.011103647 0.47007477 4291348674
-0.048497662 -0.011142027 0.4716996 4291151295
-0.047940277 -0.011189264 0.47369939 4291151295
-0.047376454 -0.011236501 0.47569919 4291151295
-0.046867415 -0.0112985 0.47832391 4291019709
-0.046096977 -0.0112985 0.47832391 4291019709
-0.045456819 -0.011330975 0.47969875 4291019709
-0.044812232 -0.01136345 0.48107362 4290954173
-0.04410601 -0.011381164 0.48182353 4290888380
-0.043419853 -0.011404783 0.48282343 4290888380
-0.042642169 -0.011404783 0.48282343 4290888380
-0.041896988 -0.011413639 0.48319837 4290691001
-0.041161247 -0.01142545 0.48369834 4290559415
-0.2495987 -0.013931041 0.63293236 4290691001
-0.2483829 -0.013920038 0.63243246 4290889404
-0.24663094 -0.013878773 0.63055766 4289507751
-0.2456153 -0.013878773 0.63055766 4283914843
-0.10827086 -0.010008122 0.45470142 4291018939
-0.10753847 -0.010008122 0.45470142 4291150525
-0.1068648 -0.010013624 0.45495141 4291216320
-0.10613201 -0.010013624 0.45495141 4291150527
-0.10592041 -0.010063142 0.45720115 4291282113
-0.10584535 -0.010126415 0.46007586 4291282113
-0.10593235 -0.010206194 0.46370047 4291282113
-0.10456172 -0.010145672 0.46095076 4291282113
-0.103397 -0.010104407 0.45907596 4291282111
-0.10170729 -0.010010873 0.45482641 4291479490
-0.1009747 -0.010010873 0.45482641 4291479744
-0.099636078 -0.009950351 0.4520767 4291479744
-0.098907918 -0.009950351 0.4520767 4291479490
-0.098179758 -0.009950351 0.4520767 4291545283
-0.097478531 -0.0099531021 0.45220169 4291611076
-0.09675017 -0.0099531021 0.45220169 4291545283
-0.096074887 -0.0099586044 0.45245168 4291479490
-0.095372453 -0.0099613545 0.45257664 4291479490
-0.094643481 -0.0099613545 0.45257664 4291611076
-0.093914516 -0.0099613545 0.45257664 4291611076
-0.09315981 -0.0099586044 0.45245168 4291545283
-0.092431054 -0.0099586044 0.45245168 4291676869
-0.091702282 -0.0099586044 0.45245168 4291546053
-0.090872988 -0.0099475998 0.45195171 4291611846
-0.089995444 -0.009931094 0.4512018 4291546053
-0.089268692 -0.009931094 0.4512018 4291546053
-0.08854194 -0.009931094 0.4512018 4291546053
-0.087815188 -0.009931094 0.4512018 4291611846
-0.087112553 -0.0099338451 0.45132679 4291611846
-0.086457364 -0.0099420976 0.45170173 4291611846
-0.085824698 -0.0099531021 0.45220169 4291940295
-0.085096329 -0.0099531021 0.45220169 4291940295
-0.084484562 -0.0099668568 0.45282662 4291808709
-0.083893888 -0.0099833626 0.45357653 4291677123
-0.083323725 -0.01000262 0.45445144 4291808455
-0.082728028 -0.010019125 0.45520136 4291742662
-0.081994832 -0.010019125 0.45520136 4291677639
-0.081395514 -0.010035632 0.4559513 4291677639
-0.080793776 -0.010052138 0.45670122 4291611846
-0.080101974 -0.010057639 0.45695117 4291677639
-0.079409383 -0.010063142 0.45720115 4291611846
-0.078672968 -0.010063142 0.45720115 4291677639
-0.077957854 -0.010065893 0.45732614 4291612103
-0.07720013 -0.010063142 0.45720115 4291546310
-0.076463707 -0.010063142 0.45720115 4291677641
-0.075727299 -0.010063142 0.45720115 4292006606
-0.074990876 -0.010063142 0.45720115 4291611848
-0.074274756 -0.010065893 0.45732614 4291677641
-0.07359843 -0.010074146 0.45770112 4291809227
-0.072861217 -0.010074146 0.45770112 4291809227
-0.072163381 -0.010079647 0.45795107 4291677639
-0.071445249 -0.010082399 0.45807606 4291677639
-0.070726708 -0.01008515 0.45820105 4291676869
-0.069988683 -0.01008515 0.45820105 4291676869
-0.069250658 -0.01008515 0.45820105 4291808455
-0.068512626 -0.01008515 0.45820105 4291940041
-0.067793086 -0.010087901 0.45832604 4291742662
-0.067091428 -0.010093403 0.45857602 4291940041
-0.0663528 -0.010093403 0.45857602 4291808455
-0.065649934 -0.010098904 0.45882598 4291808455
-0.064981624 -0.010109909 0.45932594 4291546053
-0.064329192 -0.010123664 0.45995086 4291611846
-0.063588344 -0.010123664 0.45995086 4291677639
-0.06296704 -0.010142921 0.46082577 4291677639
-0.062342927 -0.010162177 0.46170068 4291480260
-0.061699312 -0.010178683 0.46245059 4291546053
-0.06103681 -0.010192438 0.46307552 4291612100
-0.060290929 -0.010192438 0.46307552 4291677893
-0.059593271 -0.010200691 0.46345049 4291612100
-0.058878526 -0.010206194 0.46370047 4291546307
-0.058147304 -0.010208944 0.46382543 4291546307
-0.057415683 -0.010211695 0.46395043 4291546307
-0.056668397 -0.010211695 0.46395043 4291480514
-0.055951238 -0.010217197 0.46420041 4291546307
-0.055233277 -0.010222699 0.46445039 4291546307
-0.05454383 -0.010233703 0.46495032 4291480514
-0.053794932 -0.010233703 0.46495032 4291480514
-0.05308881 -0.010241956 0.4653253 4291348928
-0.052381482 -0.010250209 0.46570024 4291414467
-0.051659089 -0.010255711 0.46595022 4291414467
-0.050949547 -0.010263965 0.46632519 4291414467
-0.050198436 -0.010263965 0.46632519 4291414467
-0.049513586 -0.010277719 0.46695012 4291414467
-0.048865877 -0.010299727 0.46795002 4291480260
-0.048266355 -0.010332739 0.46944985 4291217088
-0.047687296 -0.010371253 0.47119966 4291217088
-0.046928331 -0.010371253 0.47119966 4291151295
-0.046414293 -0.010426273 0.47369939 4291151295
-0.045868117 -0.01047579 0.47594914 4291085761
-0.045314692 -0.010525309 0.47819892 4291019968
-0.044684161 -0.01055832 0.47969875 4291019966
-0.04400304 -0.010580328 0.48069865 4290954173
-0.043296214 -0.010596834 0.48144856 4290954173
-0.042520743 -0.010596834 0.48144856 4291019966
-0.041810289 -0.010613341 0.48219848 4290822587
-0.0411187 -0.010635349 0.48319837 4290691001
-0.040392578 -0.010649104 0.4838233 4290625208
-0.039674681 -0.01066561 0.48457325 4290559415
-0.038894176 -0.01066561 0.48457325 4290493622
-0.2495987 -0.012911572 0.63293236 4290560439
-0.2483829 -0.012901374 0.63243246 4290627515
-0.24663094 -0.012863128 0.63055766 4288653725
-0.2456153 -0.012863128 0.63055766 4282993741
-0.11457884 -0.0094950031 0.46545029 4290625208
-0.11361517 -0.0094771553 0.46457538 4290756537
-0.11286688 -0.0094771553 0.46457538 4290888123
-0.11211859 -0.0094771553 0.46457538 4290888123
-0.10827086 -0.0092757307 0.45470142 4291216318
-0.10753847 -0.0092757307 0.45470142 4291216318
-0.1068648 -0.0092808306 0.45495141 4291216318
-0.10613201 -0.0092808306 0.45495141 4291216318
-0.1061231 -0.0093445722 0.45807606 4291282111
-0.10590286 -0.0093904659 0.46032581 4291216318
-0.10593235 -0.0094593074 0.46370047 4291282113
-0.1056958 -0.0095052021 0.46595022 4291282113
-0.1033407 -0.0093598701 0.45882598 4291347904
-0.10165139 -0.0092731807 0.45457643 4291611076
-0.1009192 -0.0092731807 0.45457643 4291676869
-0.099498346 -0.0092094392 0.45145178 4291611076
-0.098743849 -0.0092068892 0.45132679 4291545283
-0.098016888 -0.0092068892 0.45132679 4291545283
-0.097289935 -0.0092068892 0.45132679 4291611076
-0.096562974 -0.0092068892 0.45132679 4291545283
-0.095862567 -0.0092094392 0.45145178 4291545283
-0.095161751 -0.0092119891 0.45157677 4291545283
-0.094434388 -0.0092119891 0.45157677 4291676869
-0.09368109 -0.0092094392 0.45145178 4291676869
-0.092876725 -0.0092017902 0.45107681 4291611076
-0.092099108 -0.0091966903 0.45082682 4291676869
-0.091372959 -0.0091966903 0.45082682 4291546055
-0.09062168 -0.0091941413 0.45070186 4291611848
-0.089870803 -0.0091915913 0.45057687 4291611848
-0.089145049 -0.0091915913 0.45057687 4291546055
-0.088419311 -0.0091915913 0.45057687 4291611848
-0.087693557 -0.0091915913 0.45057687 4291611848
-0.087016053 -0.0091966903 0.45082682 4291611848
-0.086337753 -0.0092017902 0.45107681 4291677641
-0.085706092 -0.0092119891 0.45157677 4291940041
-0.084978729 -0.0092119891 0.45157677 4291808455
-0.084344648 -0.0092221871 0.4520767 4291808455
-0.083732069 -0.009234936 0.45270163 4291676869
-0.083140396 -0.0092502339 0.45345154 4291742662
-0.082546316 -0.0092655318 0.45420149 4291742662
-0.081814729 -0.0092655318 0.45420149 4291940043
-0.081217013 -0.0092808306 0.45495141 4291940043
-0.080616884 -0.0092961285 0.45570132 4291677641
-0.079948604 -0.0093037765 0.45607626 4291611848
-0.079214007 -0.0093037765 0.45607626 4291677641
-0.078500904 -0.0093063265 0.45620126 4291875020
-0.077744789 -0.0093037765 0.45607626 4291612105
-0.076967977 -0.0092986776 0.45582631 4291546312
-0.076233774 -0.0092986776 0.45582631 4291808457
-0.075478874 -0.0092961285 0.45570132 4292071629
-0.074744873 -0.0092961285 0.45570132 4292005321
-0.07405147 -0.0093012275 0.4559513 4291873735
-0.073357254 -0.0093063265 0.45620126 4291808455
-0.072622456 -0.0093063265 0.45620126 4291940041
-0.071966425 -0.0093165254 0.45670122 4292137420
-0.071230814 -0.0093165254 0.45670122 4292071627
-0.070514493 -0.0093190754 0.45682621 4291742662
-0.069740497 -0.0093139764 0.45657623 4291742662
-0.0689862 -0.0093114264 0.45645124 4291940041
-0.068250984 -0.0093114264 0.45645124 4291940041
-0.067515776 -0.0093114264 0.45645124 4291940041
-0.066780567 -0.0093114264 0.45645124 4291940041
-0.066045351 -0.0093114264 0.45645124 4291808455
-0.065345921 -0.0093165254 0.45670122 4291940041
-0.064663351 -0.0093241744 0.45707616 4291611846
-0.064032011 -0.0093394723 0.45782608 4291611846
-0.06329459 -0.0093394723 0.45782608 4291611846
-0.06269379 -0.0093598701 0.45882598 4291611846
-0.06210665 -0.009382817 0.45995086 4291546053
-0.061515883 -0.0094057648 0.46107575 4291546053
-0.060888544 -0.0094236126 0.46195066 4291611846
-0.060144473 -0.0094236126 0.46195066 4291677639
-0.059480768 -0.0094363606 0.46257558 4291612100
-0.058767434 -0.0094414596 0.46282557 4291612100
-0.058037624 -0.0094440095 0.46295053 4291546307
-0.057322878 -0.0094491085 0.46320051 4291612100
-0.0565768 -0.0094491085 0.46320051 4291612100
-0.055845782 -0.0094516585 0.4633255 4291677893
-0.05512923 -0.0094567584 0.46357548 4291612100
-0.054426529 -0.0094644064 0.46395043 4291546307
-0.053679243 -0.0094644064 0.46395043 4291546307
-0.052960474 -0.0094695063 0.46420041 4291414721
-0.052240897 -0.0094746053 0.46445039 4291414721
-0.051520519 -0.0094797043 0.46470034 4291414721
-0.050812989 -0.0094873542 0.46507531 4291414467
-0.050063889 -0.0094873542 0.46507531 4291414467
-0.049354549 -0.0094950031 0.46545029 4291480260
-0.048683152 -0.0095103011 0.4662002 4291480260
-0.048047896 -0.0095332479 0.46732506 4291348674
-0.047446962 -0.0095638447 0.46882492 4291348674
-0.046691824 -0.0095638447 0.46882492 4291217088
-0.046120379 -0.0096020894 0.47069973 4291217088
-0.045554943 -0.0096428841 0.47269949 4291151297
-0.044959374 -0.0096785799 0.47444931 4291151297
-0.044311602 -0.0097040767 0.47569919 4291151297
-0.043648358 -0.0097270235 0.47682405 4291151297
-0.042880334 -0.0097270235 0.47682405 4291217088
-0.042211659 -0.0097499704 0.47794893 4291019709
-0.041582707 -0.0097831162 0.47957376 4290888380
-0.041044246 -0.0098392097 0.48232347 4290888380
-0.040350843 -0.0098596066 0.48332337 4290822587
-0.039633747 -0.0098749055 0.48407328 4290625208
-0.038854048 -0.0098749055 0.48407328 4290559415
-0.038113669 -0.0098851044 0.48457325 4290625208
-0.24954942 -0.011889754 0.63280737 4290428853
-0.2483338 -0.011880361 0.63230747 4290693306
-0.24653316 -0.011842787 0.63030767 4287732621
-0.24551792 -0.011842787 0.63030767 4282467397
-0.11457884 -0.0087452978 0.46545029 4290691001
-0.11352347 -0.0087218145 0.46420041 4290954173
-0.11277578 -0.0087218145 0.46420041 4290954173
-0.11076121 -0.0086231828 0.45895097 4290888123
-0.11002198 -0.0086231828 0.45895097 4291085502
-0.10847919 -0.0085597774 0.45557633 4291085502
-0.10771583 -0.0085574286 0.45545134 4291085502
-0.10698223 -0.0085574286 0.45545134 4291151295
-0.10694841 -0.0086137895 0.45845103 4291151295
-0.10620998 -0.0086137895 0.45845103 4291217088
-0.10621916 -0.008674847 0.46170068 4291348674
-0.10547549 -0.008674847 0.46170068 4291348674
-0.10563909 -0.0087499944 0.46570024 4291217088
-0.10331255 -0.0086184861 0.45870098 4291348674
-0.10145575 -0.008524552 0.45370153 4291414467
-0.10072497 -0.008524552 0.45370153 4291217088
-0.099305518 -0.0084658433 0.45057687 4291414467
-0.098552428 -0.0084634945 0.45045188 4291414467
-0.097826883 -0.0084634945 0.45045188 4291414467
-0.097101338 -0.0084634945 0.45045188 4291414467
-0.096375786 -0.0084634945 0.45045188 4291480260
-0.095703326 -0.0084681911 0.45070186 4291480260
-0.095030054 -0.0084728878 0.45095181 4291611846
-0.094303697 -0.0084728878 0.45095181 4291611846
-0.093577348 -0.0084728878 0.45095181 4291546053
-0.092799529 -0.0084681911 0.45070186 4291676869
-0.092048049 -0.0084658433 0.45057687 4291808455
-0.091322295 -0.0084658433 0.45057687 4291677639
-0.090571418 -0.0084634945 0.45045188 4291611846
-0.089771077 -0.008456449 0.45007691 4291611848
-0.089046136 -0.008456449 0.45007691 4291611848
-0.088321202 -0.008456449 0.45007691 4291677641
-0.087596253 -0.008456449 0.45007691 4291611848
-0.086895436 -0.0084587978 0.4502019 4291611848
-0.086218141 -0.0084634945 0.45045188 4291611848
-0.085563757 -0.008470539 0.45082682 4291742662
-0.084837608 -0.008470539 0.45082682 4291940041
-0.084204733 -0.0084799333 0.45132679 4291808455
-0.083593361 -0.0084916744 0.45195171 4291808455
-0.083002895 -0.0085057644 0.45270163 4291808457
-0.082273729 -0.0085057644 0.45270163 4291808457
-0.081634618 -0.0085151587 0.45320159 4291808457
-0.081083141 -0.0085339453 0.45420149 4291940043
-0.080395773 -0.008538642 0.45445144 4291809227
-0.079663783 -0.008538642 0.45445144 4291875020
-0.078931801 -0.008538642 0.45445144 4291809227
-0.078178301 -0.0085362932 0.45432645 4291875020
-0.077403903 -0.0085315974 0.4540765 4291940813
-0.076672517 -0.0085315974 0.4540765 4291940813
-0.075920224 -0.0085292486 0.45395151 4291808457
-0.075168349 -0.0085268999 0.45382652 4292137422
-0.074437365 -0.0085268999 0.45382652 4292071627
-0.073726676 -0.0085292486 0.45395151 4291940041
-0.072995491 -0.0085292486 0.45395151 4291808455
-0.072343901 -0.008538642 0.45445144 4291940041
-0.071651302 -0.0085433386 0.45470142 4292071627
-0.07091891 -0.0085433386 0.45470142 4292071627
-0.070186518 -0.0085433386 0.45470142 4291808455
-0.06943503 -0.0085409908 0.45457643 4291808455
-0.068665065 -0.0085362932 0.45432645 4291940041
-0.067933276 -0.0085362932 0.45432645 4292005834
-0.067201488 -0.0085362932 0.45432645 4292005834
-0.066451415 -0.0085339453 0.45420149 4292005834
-0.065719828 -0.0085339453 0.45420149 4291808455
-0.065024011 -0.008538642 0.45445144 4291940041
-0.064327389 -0.0085433386 0.45470142 4291611846
-0.063594997 -0.0085433386 0.45470142 4291677639
-0.06296628 -0.0085574286 0.45545134 4291677639
-0.062369306 -0.0085762162 0.45645124 4291611846
-0.061819743 -0.0086020473 0.45782608 4291611846
-0.061282426 -0.0086302282 0.45932594 4291611846
-0.060542587 -0.0086302282 0.45932594 4291611846
-0.059949197 -0.0086513637 0.4604508 4291677639
-0.05930398 -0.0086654536 0.46120071 4291677893
-0.05859286 -0.0086701503 0.4614507 4291677893
-0.057896603 -0.0086771958 0.46182567 4291677893
-0.057152737 -0.0086771958 0.46182567 4291875272
-0.056424141 -0.0086795436 0.46195066 4291809736
-0.055710196 -0.0086842403 0.46220061 4291743943
-0.054995459 -0.0086889369 0.46245059 4291612100
-0.054294571 -0.0086959824 0.46282557 4291546307
-0.053549096 -0.0086959824 0.46282557 4291546307
-0.052846394 -0.0087030269 0.46320051 4291480514
-0.05212843 -0.0087077245 0.46345049 4291414721
-0.051409665 -0.0087124212 0.46370047 4291480514
-0.050662778 -0.0087124212 0.46370047 4291611846
-0.049956255 -0.0087194657 0.46407542 4291480260
-0.049248524 -0.0087265112 0.46445039 4291480260
-0.048565686 -0.0087382533 0.46507531 4291546053
-0.047893692 -0.0087523432 0.46582523 4291414467
-0.047143381 -0.0087523432 0.46582523 4291414467
-0.046505105 -0.0087734787 0.46695012 4291348674
-0.045875449 -0.008796962 0.46819997 4291348674
-0.045265861 -0.0088251419 0.46969983 4291348674
-0.044627745 -0.0088486252 0.47094968 4291217088
-0.043950681 -0.008865064 0.47182459 4291414467
-0.04319071 -0.008865064 0.47182459 4291348674
-0.042509418 -0.0088815028 0.47269949 4291217088
-0.041847385 -0.0089026382 0.47382438 4291085502
-0.041311774 -0.0089519536 0.4764491 4291085502
-0.040799618 -0.0090083145 0.47944877 4291019709
-0.04023606 -0.009055282 0.48194852 4290888380
-0.039562114 -0.0090787653 0.48319837 4290691001
-0.038783826 -0.0090787653 0.48319837 4290625208
-0.038084175 -0.0090975519 0.48419827 4290691001
-0.037323538 -0.0091022486 0.48444825 4290559415
-0.036571514 -0.009109294 0.4848232 4290493622
-0.24950013 -0.010868339 0.63268238 4290559669
-0.24823563 -0.010857604 0.63205749 4290759101
-0.24633761 -0.010818957 0.62980771 4286745728
-0.24532318 -0.010818957 0.62980771 4282532420
-0.11464037 -0.0079998877 0.46570024 4290822589
-0.11352347 -0.0079741236 0.46420041 4290954173
-0.11277578 -0.0079741236 0.46420041 4290954173
-0.11076121 -0.0078839473 0.45895097 4290953916
-0.11002198 -0.0078839473 0.45895097 4291085502
-0.10871728 -0.0078431536 0.45657623 4291217088
-0.10783407 -0.0078324182 0.4559513 4291151295
-0.10709967 -0.0078324182 0.4559513 4291151295
-0.10706504 -0.0078839473 0.45895097 4291151295
-0.1063258 -0.0078839473 0.45895097 4291217088
-0.10621916 -0.0079311822 0.46170068 4291414467
-0.10547549 -0.0079311822 0.46170068 4291480260
-0.10563909 -0.0079998877 0.46570024 4291414467
-0.10331255 -0.007879653 0.45870098 4291414467
-0.10145575 -0.0077937716 0.45370153 4291480260
-0.10072497 -0.0077937716 0.45370153 4291348674
-0.099305518 -0.0077400957 0.45057687 4291414467
-0.098552428 -0.0077379486 0.45045188 4291414467
-0.097826883 -0.0077379486 0.45045188 4291480260
-0.097101338 -0.0077379486 0.45045188 4291546053
-0.096375786 -0.0077379486 0.45045188 4291677639
-0.095703326 -0.0077422424 0.45070186 4291546053
-0.095030054 -0.0077465363 0.45095181 4291677639
-0.094303697 -0.0077465363 0.45095181 4291808455
-0.093577348 -0.0077465363 0.45095181 4291676869
-0.092799529 -0.0077422424 0.45070186 4291676869
-0.092048049 -0.0077400957 0.45057687 4291808455
-0.091322295 -0.0077400957 0.45057687 4291940041
-0.090571418 -0.0077379486 0.45045188 4291808455
-0.089771077 -0.0077315071 0.45007691 4291808455
-0.089046136 -0.0077315071 0.45007691 4291808455
-0.088321202 -0.0077315071 0.45007691 4291940041
-0.087596253 -0.0077315071 0.45007691 4291808455
-0.086895436 -0.0077336542 0.4502019 4291742662
-0.086218141 -0.0077379486 0.45045188 4291742662
-0.085563757 -0.0077443891 0.45082682 4291742662
-0.084837608 -0.0077443891 0.45082682 4291940041
-0.084204733 -0.0077529778 0.45132679 4291808457
-0.083593361 -0.0077637127 0.45195171 4291940043
-0.083002895 -0.0077765952 0.45270163 4291808457
-0.082273729 -0.0077765952 0.45270163 4291940043
-0.081634618 -0.0077851834 0.45320159 4292005836
-0.081083141 -0.0078023598 0.45420149 4292005836
-0.080395773 -0.0078066536 0.45445144 4291940041
-0.079663783 -0.0078066536 0.45445144 4292005834
-0.078931801 -0.0078066536 0.45445144 4291809227
-0.078178301 -0.0078045065 0.45432645 4291875020
-0.077403903 -0.0078002126 0.4540765 4291809227
-0.076672517 -0.0078002126 0.4540765 4291875020
-0.075920224 -0.0077980654 0.45395151 4291677641
-0.075168349 -0.0077959187 0.45382652 4291875020
-0.074437365 -0.0077959187 0.45382652 4291875018
-0.073726676 -0.0077980654 0.45395151 4291809225
-0.072995491 -0.0077980654 0.45395151 4291677639
-0.072343901 -0.0078066536 0.45445144 4291677639
-0.071651302 -0.007810948 0.45470142 4291940041
-0.07091891 -0.007810948 0.45470142 4291940041
-0.070186518 -0.007810948 0.45470142 4291940041
-0.06943503 -0.0078088008 0.45457643 4291808455
-0.068665065 -0.0078045065 0.45432645 4291940041
-0.067933276 -0.0078045065 0.45432645 4292071627
-0.067201488 -0.0078045065 0.45432645 4292005834
-0.066451415 -0.0078023598 0.45420149 4291940041
-0.065719828 -0.0078023598 0.45420149 4291940041
-0.065024011 -0.0078066536 0.45445144 4291940041
-0.064327389 -0.007810948 0.45470142 4291677639
-0.063594997 -0.007810948 0.45470142 4291677639
-0.06296628 -0.0078238305 0.45545134 4291677639
-0.062369306 -0.0078410069 0.45645124 4291611846
-0.061819743 -0.0078646233 0.45782608 4291677639
-0.061282426 -0.0078903884 0.45932594 4291677639
-0.060542587 -0.0078903884 0.45932594 4291677639
-0.059949197 -0.0079097115 0.4604508 4291677639
-0.05930398 -0.0079225935 0.46120071 4291677639
-0.05859286 -0.0079268878 0.4614507 4291677639
-0.057896603 -0.0079333298 0.46182567 4291546310
-0.057152737 -0.0079333298 0.46182567 4291612103
-0.056424141 -0.0079354765 0.46195066 4291809482
-0.055710196 -0.0079397699 0.46220061 4291743689
-0.054995459 -0.0079440642 0.46245059 4291546310
-0.054294571 -0.0079505062 0.46282557 4291546310
-0.053549096 -0.0079505062 0.46282557 4291546307
-0.052846394 -0.0079569472 0.46320051 4291612100
-0.05212843 -0.0079612406 0.46345049 4291480514
-0.051409665 -0.0079655349 0.46370047 4291546307
-0.050662778 -0.0079655349 0.46370047 4291677893
-0.049956255 -0.007971976 0.46407542 4291546307
-0.049248524 -0.007978417 0.46445039 4291480260
-0.048565686 -0.0079891523 0.46507531 4291546053
-0.047893692 -0.0080020344 0.46582523 4291480260
-0.047143381 -0.0080020344 0.46582523 4291414467
-0.046505105 -0.0080213584 0.46695012 4291414467
-0.045875449 -0.0080428282 0.46819997 4291414467
-0.045265861 -0.0080685932 0.46969983 4291414467
-0.044627745 -0.0080900639 0.47094968 4291414467
-0.043950681 -0.0081050927 0.47182459 4291480260
-0.04319071 -0.0081050927 0.47182459 4291414467
-0.042509418 -0.0081201224 0.47269949 4291217088
-0.041847385 -0.0081394454 0.47382438 4291151295
-0.041311774 -0.0081845336 0.4764491 4291151295
-0.040799618 -0.0082360627 0.47944877 4291151295
-0.04023606 -0.0082790041 0.48194852 4291019709
-0.039562114 -0.0083004739 0.48319837 4290888123
-0.038783826 -0.0083004739 0.48319837 4290756537
-0.038084175 -0.0083176503 0.48419827 4290756537
-0.037323538 -0.0083219446 0.48444825 4290690744
-0.036571514 -0.0083283857 0.4848232 4290559158
-0.24950013 -0.0098492717 0.63268238 4290690998
-0.24818653 -0.0098375976 0.6319325 4290692541
-0.24619095 -0.0097986832 0.62943274 4285955445
-0.24517712 -0.0097986832 0.62943274 4282270020
-0.11464037 -0.0072497805 0.46570024 4290888382
-0.11346234 -0.0072225402 0.46395043 4290954173
-0.11271505 -0.0072225402 0.46395043 4290954173
-0.11073105 -0.0071427654 0.45882598 4291085502
-0.10999201 -0.0071427654 0.45882598 4291085502
-0.10871728 -0.0071077426 0.45657623 4291217088
-0.10777495 -0.0070941225 0.45570132 4291151295
-0.10704095 -0.0070941225 0.45570132 4291348674
-0.10633611 -0.007096068 0.45582631 4291348674
-0.10560191 -0.007096068 0.45582631 4291217088
-0.10561531 -0.007146657 0.45907596 4291414467
-0.10544693 -0.0071855714 0.46157569 4291480260
-0.10473184 -0.0071875174 0.46170068 4291414467
-0.10277769 -0.0071038506 0.45632625 4291414467
-0.10123215 -0.0070474246 0.45270163 4291414467
-0.10050298 -0.0070474246 0.45270163 4291414467
-0.099167779 -0.0070046186 0.44995192 4291480260
-0.098388359 -0.0070007276 0.44970196 4291611846
-0.097664021 -0.0070007276 0.44970196 4291677639
-0.096939683 -0.0070007276 0.44970196 4291611846
-0.096215338 -0.0070007276 0.44970196 4291677639
-0.095544085 -0.0070046186 0.44995192 4291611846
-0.09487202 -0.0070085102 0.4502019 4291677639
-0.094146878 -0.0070085102 0.4502019 4291742662
-0.093473606 -0.0070124017 0.45045188 4291479490
-0.092748053 -0.0070124017 0.45045188 4291611330
-0.092022516 -0.0070124017 0.45045188 4291808709
-0.091195635 -0.0070046186 0.44995192 4291808709
-0.090445764 -0.0070026731 0.44982696 4291940295
-0.089696296 -0.0070007276 0.44970196 4291940295
-0.088971958 -0.0070007276 0.44970196 4291808709
-0.088198565 -0.006996836 0.44945198 4291940295
-0.087474629 -0.006996836 0.44945198 4291940295
-0.086750694 -0.006996836 0.44945198 4291742916
-0.086074598 -0.0070007276 0.44970196 4291742916
-0.085445151 -0.0070085102 0.4502019 4291808455
-0.084720008 -0.0070085102 0.4502019 4291940041
-0.084064819 -0.0070143477 0.45057687 4291808455
-0.083454661 -0.0070240758 0.4512018 4291742662
-0.082819566 -0.0070318589 0.45170173 4291808455
-0.082092009 -0.0070318589 0.45170173 4291808455
-0.081499539 -0.0070435335 0.45245168 4292071627
-0.08081539 -0.0070474246 0.45270163 4292137420
-0.080086216 -0.0070474246 0.45270163 4292005834
-0.079357043 -0.0070474246 0.45270163 4292005834
-0.078541048 -0.007039642 0.45220169 4291940041
-0.077748157 -0.0070338044 0.45182672 4291940041
-0.076999091 -0.0070318589 0.45170173 4291809227
-0.076271527 -0.0070318589 0.45170173 4291809227
-0.075523071 -0.0070299134 0.45157677 4291809227
-0.074795716 -0.0070299134 0.45157677 4291875020
-0.074088849 -0.0070318589 0.45170173 4291875020
-0.073401891 -0.0070357504 0.45195171 4291940813
-0.072673924 -0.0070357504 0.45195171 4291875018
-0.07202556 -0.0070435335 0.45245168 4291677639
-0.071355872 -0.0070493706 0.45282662 4291809225
-0.070645995 -0.0070513161 0.45295161 4291809225
-0.06991642 -0.0070513161 0.45295161 4291677639
-0.069186844 -0.0070513161 0.45295161 4291677639
-0.068438388 -0.0070493706 0.45282662 4291809225
-0.067709014 -0.0070493706 0.45282662 4291875018
-0.066961154 -0.0070474246 0.45270163 4291809225
-0.066231981 -0.0070474246 0.45270163 4291809225
-0.065502815 -0.0070474246 0.45270163 4291677639
-0.064809412 -0.0070513161 0.45295161 4291809225
-0.064097524 -0.0070532621 0.4530766 4291809225
-0.063367747 -0.0070532621 0.4530766 4291677639
-0.062724367 -0.0070629907 0.45370153 4291677639
-0.062198523 -0.0070863389 0.45520136 4291677639
-0.061634101 -0.0071057966 0.45645124 4291677639
-0.061065648 -0.0071252543 0.45770112 4291677639
-0.060328424 -0.0071252543 0.45770112 4291677639
-0.059770197 -0.007146657 0.45907596 4291677639
-0.059143268 -0.0071602771 0.45995086 4291677639
-0.058434159 -0.0071641686 0.46020085 4291809225
-0.057724245 -0.0071680597 0.4604508 4291611846
-0.056982592 -0.0071680597 0.4604508 4291677639
-0.056240942 -0.0071680597 0.4604508 4291809225
-0.055529419 -0.0071719512 0.46070078 4291809225
-0.054817095 -0.0071758428 0.46095076 4291611846
-0.054074638 -0.0071758428 0.46095076 4291611846
-0.053390022 -0.0071836258 0.4614507 4291612100
-0.052703802 -0.0071914089 0.46195066 4291546307
-0.052015964 -0.0071991915 0.46245059 4291480514
-0.051298808 -0.007203083 0.46270058 4291612100
-0.05055353 -0.007203083 0.46270058 4291677893
-0.049862072 -0.0072108656 0.46320051 4291612100
-0.049142499 -0.0072147576 0.46345049 4291546053
-0.048461273 -0.0072244857 0.46407542 4291480260
-0.047778036 -0.0072342143 0.46470034 4291480260
-0.047029536 -0.0072342143 0.46470034 4291414467
-0.046355732 -0.0072458894 0.46545029 4291546053
-0.045703996 -0.0072614546 0.46645015 4291480260
-0.045049045 -0.0072770207 0.46745005 4291414467
-0.044390868 -0.0072925864 0.46844995 4291480260
-0.043636333 -0.0072925864 0.46844995 4291480260
-0.042973328 -0.007308152 0.46944985 4291480260
-0.04231834 -0.0073256642 0.47057474 4291217088
-0.041659728 -0.0073431754 0.4716996 4291217088
-0.041073356 -0.0073743071 0.47369939 4291348674
-0.040523086 -0.0074132215 0.47619912 4291151295
-0.039756067 -0.0074132215 0.47619912 4291151295
-0.039255112 -0.00746381 0.47944877 4291085502
-0.038703568 -0.0075066164 0.48219848 4291085502
-0.038025193 -0.0075260736 0.48344836 4290953916
-0.037294649 -0.0075358022 0.48407328 4290888123
-0.036543231 -0.0075416397 0.48444825 4290756537
-0.035762928 -0.0075416397 0.48444825 4290953916
-0.035000671 -0.0075455308 0.48469821 4290559158
-0.25051919 -0.0088302055 0.63268238 4290888377
-0.24950013 -0.0088302055 0.63268238 4290690998
-0.24818653 -0.0088197393 0.6319325 4290822589
-0.24619095 -0.0087848511 0.62943274 4285493356
-0.24517712 -0.0087848511 0.62943274 4282137407
-0.11570018 -0.0065171178 0.46695012 4290888380
-0.11476345 -0.0065066512 0.4662002 4291085759
-0.11346234 -0.0064752516 0.46395043 4291019709
-0.11259359 -0.0064682742 0.46345049 4291085502
-0.11070088 -0.0064019863 0.45870098 4291085502
-0.10996205 -0.0064019863 0.45870098 4291151295
-0.10874704 -0.006374076 0.45670122 4291151295
-0.10771583 -0.0063566319 0.45545134 4291217088
-0.10698223 -0.0063566319 0.45545134 4291414467
-0.10630695 -0.0063601206 0.45570132 4291414467
-0.10557295 -0.0063601206 0.45570132 4291480260
-0.1048677 -0.0063618654 0.45582631 4291414467
-0.10433336 -0.006374076 0.45670122 4291414467
-0.10365446 -0.0063775647 0.45695117 4291414467
-0.10241173 -0.0063461657 0.45470142 4291414467
-0.10123215 -0.0063182549 0.45270163 4291546053
-0.10050298 -0.0063182549 0.45270163 4291611846
-0.099167779 -0.0062798779 0.44995192 4291611846
-0.098278977 -0.0062694112 0.449202 4291677639
-0.097555444 -0.0062694112 0.449202 4291611846
-0.096804962 -0.0062676668 0.44907701 4291546053
-0.096081629 -0.0062676668 0.44907701 4291677639
-0.095411383 -0.0062711556 0.44932699 4291611846
-0.094740331 -0.0062746448 0.44957697 4291875018
-0.094016187 -0.0062746448 0.44957697 4291677893
-0.093317986 -0.0062763891 0.44970196 4291480514
-0.092593648 -0.0062763891 0.44970196 4291808709
-0.091869317 -0.0062763891 0.44970196 4291742916
-0.091094308 -0.0062729004 0.44945198 4291742914
-0.09032011 -0.0062694112 0.449202 4292006086
-0.089546718 -0.0062659229 0.44895205 4292006086
-0.088823587 -0.0062659229 0.44895205 4291940293
-0.088051409 -0.0062624337 0.44870207 4291940293
-0.087328672 -0.0062624337 0.44870207 4292006086
-0.086605944 -0.0062624337 0.44870207 4291612100
-0.085931063 -0.0062659229 0.44895205 4291677893
-0.085207939 -0.0062659229 0.44895205 4291809225
-0.084578887 -0.0062729004 0.44945198 4291809225
-0.083924904 -0.0062781335 0.44982696 4291875018
-0.083292834 -0.006285111 0.45032689 4291677639
-0.082682066 -0.0062938328 0.45095181 4291875018
-0.081955723 -0.0062938328 0.45095181 4291940811
-0.081274398 -0.006297322 0.4512018 4291875018
-0.080569953 -0.0062990664 0.45132679 4291940811
-0.079843 -0.0062990664 0.45132679 4291875018
-0.079006493 -0.0062903445 0.45070186 4291809225
-0.078150295 -0.0062798779 0.44995192 4291809225
-0.077382542 -0.0062763891 0.44970196 4291809225
-0.076658204 -0.0062763891 0.44970196 4291809227
-0.075933859 -0.0062763891 0.44970196 4291875020
-0.075209521 -0.0062763891 0.44970196 4291940813
-0.07448519 -0.0062763891 0.44970196 4291875020
-0.073822349 -0.0062816222 0.45007691 4291875020
-0.0730974 -0.0062816222 0.45007691 4291875020
-0.072412655 -0.006285111 0.45032689 4291875018
-0.071786799 -0.0062938328 0.45095181 4291809225
-0.071099833 -0.006297322 0.4512018 4291809225
-0.07041207 -0.0063008107 0.45145178 4291875018
-0.069684908 -0.0063008107 0.45145178 4291677639
-0.068957753 -0.0063008107 0.45145178 4291677639
-0.068230599 -0.0063008107 0.45145178 4291875018
-0.067503445 -0.0063008107 0.45145178 4291875018
-0.066776283 -0.0063008107 0.45145178 4291809225
-0.066049129 -0.0063008107 0.45145178 4291809225
-0.06534005 -0.0063025556 0.45157677 4291809225
-0.064630575 -0.0063042995 0.45170173 4291875018
-0.063903019 -0.0063042995 0.45170173 4291809225
-0.063280344 -0.0063147661 0.45245168 4291809225
-0.062620692 -0.0063217436 0.45295161 4292005834
-0.061993588 -0.0063322103 0.45370153 4291940041
-0.061414704 -0.00634791 0.45482641 4291742662
-0.06068211 -0.00634791 0.45482641 4291808455
-0.060097784 -0.0063636098 0.4559513 4291677639
-0.059574924 -0.006386287 0.45757613 4291677639
-0.058950409 -0.0063984981 0.45845103 4291677639
-0.058211979 -0.0063984981 0.45845103 4291677639
-0.057489213 -0.0064002424 0.45857602 4291611846
-0.056750581 -0.0064002424 0.45857602 4291677639
-0.056027215 -0.0064019863 0.45870098 4291809225
-0.055303443 -0.0064037307 0.45882598 4291677639
-0.054623868 -0.0064107087 0.45932594 4291611846
-0.053884026 -0.0064107087 0.45932594 4291546053
-0.053230952 -0.0064211753 0.46007586 4291546053
-0.052561201 -0.0064298972 0.46070078 4291546053
-0.051875379 -0.0064368746 0.46120071 4291546053
-0.051187951 -0.0064438526 0.46170068 4291611846
-0.050444286 -0.0064438526 0.46170068 4291677639
-0.049754437 -0.00645083 0.46220061 4291611846
-0.049049728 -0.0064560631 0.46257558 4291546053
-0.048343804 -0.0064612962 0.46295053 4291546053
-0.047598127 -0.0064612962 0.46295053 4291480260
-0.046903048 -0.0064682742 0.46345049 4291480260
-0.046231251 -0.0064787408 0.46420041 4291348674
-0.045581531 -0.0064926958 0.4652003 4291546053
-0.044928595 -0.0065066512 0.4662002 4291414467
-0.044284273 -0.0065223509 0.46732506 4291546053
-0.043531548 -0.0065223509 0.46732506 4291414724
-0.042881798 -0.0065380507 0.46844995 4291414724
-0.04221718 -0.0065520057 0.46944985 4291348931
-0.041549344 -0.0065659611 0.47044975 4291348931
-0.040899958 -0.0065834052 0.4716996 4291283138
-0.040140189 -0.0065834052 0.4716996 4291151552
-0.039505634 -0.0066043385 0.47319946 4291151552
-0.038927644 -0.0066357376 0.4754492 4291151552
-0.038462799 -0.00668807 0.47919881 4291151295
-0.037907224 -0.006726447 0.48194852 4291019709
-0.037246503 -0.0067473799 0.48344836 4291019709
-0.036486663 -0.0067508686 0.48369834 4291019709
-0.035707567 -0.0067508686 0.48369834 4290953916
-0.034973595 -0.0067595909 0.48432326 4290690744
-0.034202315 -0.0067613353 0.48444825 4290821560
-0.25042021 -0.0078080534 0.63243246 4291018939
-0.24940157 -0.0078080534 0.63243246 4290887353
-0.24813744 -0.0078003374 0.63180751 4290426551
-0.24579987 -0.0077586742 0.62843287 4285097318
-0.24478765 -0.0077586742 0.62843287 4282268221
-0.11670247 -0.0057403077 0.46495032 4291084986
-0.11595357 -0.0057403077 0.46495032 4291150779
-0.11520467 -0.0057403077 0.46495032 4291151549
-0.11427116 -0.005731049 0.46420041 4291217342
-0.11352347 -0.005731049 0.46420041 4291085756
-0.11192556 -0.0056878426 0.46070078 4291085756
-0.11039925 -0.0056477222 0.45745113 4291085502
-0.10966243 -0.0056477222 0.45745113 4291151295
-0.10853872 -0.0056276619 0.45582631 4291348674
-0.10762715 -0.0056184037 0.4550764 4291480260
-0.10689417 -0.0056184037 0.4550764 4291414467
-0.10601538 -0.0056106877 0.45445144 4291414467
-0.10525443 -0.0056091445 0.45432645 4291480260
-0.10452264 -0.0056091445 0.45432645 4291414467
-0.10381941 -0.0056106877 0.45445144 4291414467
-0.10308743 -0.0056106877 0.45445144 4291414467
-0.10241173 -0.0056137741 0.45470142 4291414467
-0.10112036 -0.0055829124 0.45220169 4291480260
-0.10039199 -0.0055829124 0.45220169 4291546053
-0.099222876 -0.0055582225 0.4502019 4291611846
-0.098060213 -0.0055335332 0.4482021 4291611846
-0.097338289 -0.0055335332 0.4482021 4291677639
-0.096616365 -0.0055335332 0.4482021 4291808455
-0.095921181 -0.0055350759 0.44832709 4291940041
-0.095225602 -0.0055366191 0.44845209 4291742662
-0.094555959 -0.0055397055 0.44870207 4292071627
-0.09383323 -0.0055397055 0.44870207 4292005834
-0.093110494 -0.0055397055 0.44870207 4291940041
-0.092387766 -0.0055397055 0.44870207 4291808709
-0.091665044 -0.0055397055 0.44870207 4291808709
-0.090891652 -0.0055366191 0.44845209 4291742916
-0.090144195 -0.0055350759 0.44832709 4291940295
-0.089297421 -0.0055273608 0.44770217 4291940295
-0.088576302 -0.0055273608 0.44770217 4291940295
-0.08785519 -0.0055273608 0.44770217 4291940295
-0.087134071 -0.0055273608 0.44770217 4292006088
-0.086437076 -0.005528904 0.44782716 4291809225
-0.085763603 -0.0055319904 0.44807714 4291809225
-0.085041888 -0.0055319904 0.44807714 4291809225
-0.084390722 -0.0055366191 0.44845209 4291809225
-0.083738357 -0.0055412487 0.44882706 4291940811
-0.083107889 -0.0055474211 0.44932699 4291677639
-0.082452908 -0.0055520502 0.44970196 4291940811
-0.081728578 -0.0055520502 0.44970196 4292006604
-0.081049256 -0.0055551361 0.44995192 4291875018
-0.080279894 -0.0055520502 0.44970196 4291875018
-0.079555556 -0.0055520502 0.44970196 4291809225
-0.078787394 -0.0055489643 0.44945198 4291875018
-0.077976629 -0.0055427919 0.44895205 4291809225
-0.077210486 -0.0055397055 0.44870207 4291809225
-0.076487757 -0.0055397055 0.44870207 4291875018
-0.075743921 -0.0055381623 0.44857708 4291940811
-0.075021394 -0.0055381623 0.44857708 4291940811
-0.074319571 -0.0055397055 0.44870207 4291875018
-0.073637843 -0.0055427919 0.44895205 4291940041
-0.072914712 -0.0055427919 0.44895205 4291940041
-0.07223177 -0.0055458779 0.449202 4291808455
-0.071587831 -0.0055520502 0.44970196 4291808455
-0.070922576 -0.0055566793 0.45007691 4291875018
-0.070217125 -0.0055582225 0.4502019 4291875018
-0.069491982 -0.0055582225 0.4502019 4291875018
-0.068785928 -0.0055597657 0.45032689 4291809225
-0.068060592 -0.0055597657 0.45032689 4291875018
-0.067335241 -0.0055597657 0.45032689 4291875018
-0.066609897 -0.0055597657 0.45032689 4292071627
-0.065884553 -0.0055597657 0.45032689 4292071627
-0.065177292 -0.0055613089 0.45045188 4291940041
-0.064505398 -0.0055659381 0.45082682 4292071627
-0.063779242 -0.0055659381 0.45082682 4291808455
-0.063123018 -0.0055721104 0.45132679 4291940041
-0.062465176 -0.0055782828 0.45182672 4291940041
-0.061856959 -0.0055890842 0.45270163 4291940041
-0.061229058 -0.005598343 0.45345154 4291742662
-0.060498677 -0.005598343 0.45345154 4291808455
-0.059949514 -0.0056153173 0.45482641 4291677639
-0.059330832 -0.0056261187 0.45570132 4291677639
-0.058645047 -0.0056307479 0.45607626 4291677639
-0.057942182 -0.0056338343 0.45632625 4291809225
-0.057207171 -0.0056338343 0.45632625 4291611846
-0.056487631 -0.0056353775 0.45645124 4291677639
-0.055782955 -0.0056384634 0.45670122 4291677639
-0.055107601 -0.0056446358 0.45720115 4291677639
-0.054371186 -0.0056446358 0.45720115 4291611846
-0.053708076 -0.0056523513 0.45782608 4291611846
-0.053057425 -0.00566161 0.45857602 4291808455
-0.052404348 -0.0056708688 0.45932594 4291742662
-0.051734798 -0.0056785839 0.45995086 4291676869
-0.050993953 -0.0056785839 0.45995086 4291676869
-0.050321382 -0.0056862994 0.46057579 4291742662
-0.04963335 -0.0056924718 0.46107575 4291742662
-0.048930448 -0.0056971009 0.4614507 4291676869
-0.048239391 -0.0057032737 0.46195066 4291676869
-0.047495328 -0.0057032737 0.46195066 4291676869
-0.046801854 -0.0057094456 0.46245059 4291676869
-0.04613167 -0.0057187043 0.46320051 4291480260
-0.045459066 -0.0057279626 0.46395043 4291546053
-0.044808142 -0.0057403077 0.46495032 4291480260
-0.044059239 -0.0057403077 0.46495032 4291546053
-0.043415122 -0.0057541956 0.46607521 4291414724
-0.042767387 -0.0057680835 0.4672001 4291414724
-0.04211602 -0.0057819709 0.46832496 4291414724
-0.041449998 -0.0057943161 0.46932486 4291414724
