# .PCD v0.7 - Point Cloud Data file format
VERSION 0.7
FIELDS x y z rgba
SIZE 4 4 4 4
TYPE F F F U
COUNT 1 1 1 1
WIDTH 1074
HEIGHT 1
VIEWPOINT 0 0 0 1 0 0 0
POINTS 1074
DATA ascii
0.12416487 0.10935935 0.54606664 4294377471
0.12504442 0.10935935 0.54606664 4293126894
0.12589516 0.10933432 0.54594165 4293324273
0.12660037 0.10918414 0.54519176 4293916660
0.12742007 0.10913408 0.54494178 4293982453
0.12829782 0.10913408 0.54494178 4294245625
0.12908666 0.10905898 0.54456681 4294377211
0.12993397 0.10903395 0.54444182 4293456113
0.13078088 0.10900892 0.54431683 4294114043
0.13165762 0.10900892 0.54431683 4294574079
0.13250393 0.10898389 0.54419184 4294443007
0.13338044 0.10898389 0.54419184 4294180604
0.13419533 0.10893384 0.54394192 4294114811
0.13507146 0.10893384 0.54394192 4293785846
0.1359476 0.10893384 0.54394192 4293522674
0.13682371 0.10893384 0.54394192 4293587948
0.13769986 0.10893384 0.54394192 4293456362
-0.045394365 0.10769047 0.53344303 4282269246
-0.044535145 0.10769047 0.53344303 4288124566
-0.043675922 0.10769047 0.53344303 4292795869
-0.042947117 0.10801848 0.53506786 4292598490
-0.042272057 0.10849789 0.53744256 4292861662
0.052836217 0.11006228 0.54519176 4281348914
0.059765305 0.10988565 0.54431683 4292075226
0.060642041 0.10988565 0.54431683 4291943640
0.061518773 0.10988565 0.54431683 4291286227
0.062409841 0.10991088 0.54444182 4290957262
0.063286781 0.10991088 0.54444182 4291218897
0.064163715 0.10991088 0.54444182 4290824139
0.065040648 0.10991088 0.54444182 4290624704
0.065917589 0.10991088 0.54444182 4290229946
0.066809855 0.10993611 0.54456681 4289374633
0.067686997 0.10993611 0.54456681 4286479741
0.068579875 0.10996135 0.5446918 4281545527
0.069473147 0.10998658 0.54481679 4281677113
0.070366837 0.11001181 0.54494178 4281414457
0.071260907 0.11003704 0.54506677 4281546043
0.072138853 0.11003704 0.54506677 4281677111
0.073033541 0.11006228 0.54519176 4281611318
0.073945582 0.11011274 0.54544175 4281808691
0.07485842 0.11016321 0.54569173 4282137656
0.075737365 0.11016321 0.54569173 4282333752
0.076651409 0.11021367 0.54594165 4282531131
0.077566266 0.11026413 0.54619163 4282465600
0.07848192 0.11031459 0.54644161 4282926151
0.079362072 0.11031459 0.54644161 4286478721
0.080297299 0.11039029 0.54681659 4292729056
0.081233725 0.110466 0.54719156 4294044653
0.082171358 0.11054168 0.54756647 4293584102
0.083053328 0.11054168 0.54756647 4293518313
0.083992772 0.11061738 0.54794145 4293584106
0.084914066 0.11066785 0.54819143 4293453033
0.08585573 0.11074354 0.5485664 4293584619
0.086798608 0.11081924 0.54894137 4292927708
0.087682791 0.11081924 0.54894137 4290559160
0.088607304 0.11086971 0.54919136 4284833635
0.089491889 0.11086971 0.54919136 4282267708
0.090376481 0.11086971 0.54919136 4282463806
0.09121953 0.11081924 0.54894137 4282595392
0.092019819 0.11071831 0.54844141 4282398526
0.092649139 0.11041553 0.54694158 4282530112
0.093530104 0.11041553 0.54694158 4282531911
0.094281614 0.11026413 0.54619163 4282531911
0.095052496 0.11013798 0.54556674 4282795085
0.095931239 0.11013798 0.54556674 4283716187
0.096721269 0.11003704 0.54506677 4284372312
0.097532071 0.10996135 0.5446918 4284701277
0.098364249 0.10991088 0.54444182 4285095259
0.09924119 0.10991088 0.54444182 4285490017
0.10007215 0.10986041 0.54419184 4285687396
0.1009255 0.10983519 0.54406685 4286016361
0.10177846 0.10980996 0.54394192 4286541684
0.10265459 0.10980996 0.54394192 4287331200
0.10353073 0.10980996 0.54394192 4287595656
0.10443083 0.10983519 0.54406685 4288056207
0.10533136 0.10986041 0.54419184 4288386455
0.10625668 0.10991088 0.54444182 4288978592
0.10715821 0.10993611 0.54456681 4289701545
0.10803535 0.10993611 0.54456681 4290162096
0.10896248 0.10998658 0.54481679 4290426291
0.10986523 0.11001181 0.54494178 4290886842
0.11076837 0.11003704 0.54506677 4290953916
0.11164632 0.11003704 0.54506677 4290953916
0.11255006 0.11006228 0.54519176 4291151549
0.11348021 0.11011274 0.54544175 4291151549
0.11438496 0.11013798 0.54556674 4291150779
0.11526372 0.11013798 0.54556674 4291216572
0.11616907 0.11016321 0.54569173 4291150266
0.11707482 0.11018843 0.54581666 4290887094
0.11798098 0.11021367 0.54594165 4290756286
0.11886033 0.11021367 0.54594165 4291151044
0.11973969 0.11021367 0.54594165 4291019717
0.12061904 0.11021367 0.54594165 4291085510
0.12149839 0.11021367 0.54594165 4291153106
0.12237775 0.11021367 0.54594165 4292666345
0.12322888 0.11018843 0.54581666 4293916410
0.12407962 0.11016321 0.54569173 4293850617
0.12495857 0.11016321 0.54569173 4293785848
0.12569341 0.11003704 0.54506677 4293259504
0.12645525 0.10993611 0.54456681 4293260015
0.12727395 0.10988565 0.54431683 4293588980
0.12815067 0.10988565 0.54431683 4293654771
0.12899777 0.10986041 0.54419184 4293786357
0.12984449 0.10983519 0.54406685 4293719803
0.1306908 0.10980996 0.54394192 4293982975
0.13156694 0.10980996 0.54394192 4293654010
0.13244307 0.10980996 0.54394192 4293982975
0.13328856 0.10978473 0.54381692 4293851389
0.13413365 0.10975949 0.54369193 4293917182
0.13500938 0.10975949 0.54369193 4293720055
0.13588512 0.10975949 0.54369193 4293851641
0.13676085 0.10975949 0.54369193 4294377464
0.13763657 0.10975949 0.54369193 4293522155
0.13844861 0.10970903 0.54344195 4293850354
0.13925985 0.10965856 0.54319197 4294047733
0.13990906 0.10948193 0.54231703 4293654258
0.14078256 0.10948193 0.54231703 4293720051
0.14132963 0.10922962 0.54106718 4294246398
0.14197119 0.10905299 0.54019231 4294180861
0.14280823 0.10902777 0.54006732 4293523701
0.14367813 0.10902777 0.54006732 4294049789
0.14454801 0.10902777 0.54006732 4293721331
-0.045373093 0.10849882 0.53319305 4283124557
-0.044514272 0.10849882 0.53319305 4290098356
-0.043655455 0.10849882 0.53319305 4293388006
-0.042846795 0.10862598 0.53381795 4293124834
-0.042124599 0.10898205 0.53556776 4292993248
0.068391033 0.11053349 0.54319197 4281940031
0.069297835 0.11058436 0.54344195 4281545273
0.070205443 0.11063523 0.54369193 4281414459
0.071081169 0.11063523 0.54369193 4281414459
0.071973443 0.11066066 0.54381692 4281348918
0.072866112 0.11068609 0.54394192 4281348918
0.073759183 0.11071151 0.54406685 4281479730
0.074635521 0.11071151 0.54406685 4281677109
0.075529195 0.11073695 0.54419184 4282005817
0.07642328 0.11076239 0.54431683 4282203196
0.077317767 0.11078782 0.54444182 4282466372
0.07824856 0.11086413 0.54481679 4282926923
0.079126097 0.11086413 0.54481679 4285754998
0.080058701 0.11094043 0.54519176 4292071126
0.08097396 0.11099129 0.54544175 4293518562
0.08190877 0.11106759 0.54581666 4293255390
0.082787924 0.11106759 0.54581666 4293387236
0.083705388 0.11111845 0.54606664 4293453029
0.084643021 0.11119475 0.54644161 4293124836
0.085562311 0.11124562 0.5466916 4293124836
0.086442873 0.11124562 0.5466916 4293058273
0.087363362 0.11129649 0.54694158 4291216069
0.088284649 0.11134736 0.54719156 4284438879
0.089206755 0.11139823 0.54744154 4282267710
0.090088524 0.11139823 0.54744154 4282990150
0.090949528 0.11137279 0.54731655 4282990150
0.091747202 0.11127106 0.54681659 4282728007
0.0925221 0.11114389 0.54619163 4282793800
0.093401857 0.11114389 0.54619163 4282729292
0.094173744 0.11101673 0.54556674 4282663499
0.094921835 0.11086413 0.54481679 4282795085
0.095799372 0.11086413 0.54481679 4283189843
0.096610375 0.11078782 0.54444182 4283320396
0.097442552 0.11073695 0.54419184 4283188810
0.098296508 0.11071151 0.54406685 4283385157
0.099172838 0.11071151 0.54406685 4283056192
0.09998022 0.11063523 0.54369193 4283121469
0.10085595 0.11063523 0.54369193 4282858297
0.10173168 0.11063523 0.54369193 4282792253
0.10260741 0.11063523 0.54369193 4283121218
0.10348315 0.11063523 0.54369193 4283318597
0.10435887 0.11063523 0.54369193 4282726460
0.10525879 0.11066066 0.54381692 4283121220
0.10615912 0.11068609 0.54394192 4283318599
0.10703525 0.11068609 0.54394192 4284108113
0.10796095 0.11073695 0.54419184 4284634457
0.10886249 0.11076239 0.54431683 4284701530
0.10978962 0.11081325 0.54456681 4284898909
0.11069217 0.11083869 0.5446918 4285162081
0.11156951 0.11083869 0.5446918 4285293667
0.11247265 0.11086413 0.54481679 4285293152
0.1134022 0.11091499 0.54506677 4285227359
0.11430635 0.11094043 0.54519176 4285423195
0.11518449 0.11094043 0.54519176 4285291609
0.11608925 0.11096586 0.54531676 4285225816
0.11696759 0.11096586 0.54531676 4285160023
0.11787295 0.11099129 0.54544175 4285357661
0.11872429 0.11096586 0.54531676 4285357661
0.11960264 0.11096586 0.54531676 4285095775
0.12048098 0.11096586 0.54531676 4285424740
0.12135932 0.11096586 0.54531676 4285823873
0.12220965 0.11094043 0.54519176 4290297797
0.12308779 0.11094043 0.54519176 4294245629
0.12407962 0.11104216 0.54569173 4293785078
0.12495857 0.11104216 0.54569173 4293588980
0.12569341 0.11091499 0.54506677 4293325808
0.12645525 0.11081325 0.54456681 4293194736
0.12727395 0.11076239 0.54431683 4293457908
0.12815067 0.11076239 0.54431683 4293457908
0.12899777 0.11073695 0.54419184 4293589494
0.12984449 0.11071151 0.54406685 4290692555
0.1306908 0.11068609 0.54394192 4289310902
0.13156694 0.11068609 0.54394192 4289441975
0.13244307 0.11068609 0.54394192 4289836733
0.13328856 0.11066066 0.54381692 4290493891
0.13413365 0.11063523 0.54369193 4290888649
0.13500938 0.11063523 0.54369193 4291349450
0.13588512 0.11063523 0.54369193 4291678415
0.13676085 0.11063523 0.54369193 4292335575
0.13763657 0.11063523 0.54369193 4292730333
0.13844861 0.11058436 0.54344195 4293257449
0.13925985 0.11053349 0.54319197 4293849586
0.13990906 0.11035545 0.54231703 4293982455
0.14078256 0.11035545 0.54231703 4293982455
0.14132963 0.11010112 0.54106718 4293851639
0.14197119 0.10992309 0.54019231 4293917432
0.14280823 0.10989766 0.54006732 4293918459
0.14367813 0.10989766 0.54006732 4293457908
0.14454801 0.10989766 0.54006732 4293853180
-0.045330547 0.1092551 0.53269309 4284966761
-0.044472534 0.1092551 0.53269309 4291546055
-0.043614518 0.1092551 0.53269309 4293322466
-0.042786606 0.109332 0.53306806 4293190110
-0.042016461 0.10956271 0.53419292 4293124317
-0.041310105 0.10997287 0.53619272 4293520102
0.073538907 0.1112546 0.54244202 4281151535
0.074412629 0.1112546 0.54244202 4281414707
0.075303681 0.11128023 0.54256701 4281874231
0.076195151 0.11130587 0.54269201 4282137403
0.077087022 0.11133151 0.542817 4282071360
0.077961341 0.11133151 0.542817 4282926669
0.078853808 0.11135715 0.54294199 4285295217
0.079765037 0.11140841 0.54319197 4291545552
0.080695629 0.11148532 0.54356694 4293059041
0.081608675 0.11153659 0.54381692 4293059041
0.08248461 0.11153659 0.54381692 4293256422
0.083379693 0.11156223 0.54394192 4293256422
0.084275179 0.11158785 0.54406685 4292993507
0.085171074 0.11161349 0.54419184 4292927714
0.086047612 0.11161349 0.54419184 4292861666
0.086964071 0.11166476 0.54444182 4291545806
0.087881334 0.11171603 0.5446918 4284899430
0.088799417 0.1117673 0.54494178 4282201917
0.089677155 0.1117673 0.54494178 4282661698
0.090575673 0.11179294 0.54506677 4282595905
0.091432638 0.1117673 0.54494178 4282530882
0.092310384 0.1117673 0.54494178 4282662468
0.093145378 0.11171603 0.5446918 4282467147
0.094001144 0.11169039 0.54456681 4284309351
0.09483473 0.11163912 0.54431683 4284308579
0.095711455 0.11163912 0.54431683 4283716442
0.096588194 0.11163912 0.54431683 4283386700
0.097442552 0.11161349 0.54419184 4283057735
0.098296508 0.11158785 0.54406685 4282925119
0.099172838 0.11158785 0.54406685 4282398775
0.09998022 0.11151095 0.54369193 4283253057
0.10085595 0.11151095 0.54369193 4283055678
0.10173168 0.11151095 0.54369193 4283055425
0.10260741 0.11151095 0.54369193 4283252804
0.10348315 0.11151095 0.54369193 4283581769
0.10435887 0.11151095 0.54369193 4283187011
0.10525879 0.11153659 0.54381692 4283515978
0.10615912 0.11156223 0.54394192 4283713357
0.10703525 0.11156223 0.54394192 4283844943
0.10796095 0.11161349 0.54419184 4284042322
0.10886249 0.11163912 0.54431683 4283911761
0.10978962 0.11169039 0.54456681 4284043347
0.11069217 0.11171603 0.5446918 4283648589
0.11156951 0.11171603 0.5446918 4283253831
0.11247265 0.11174166 0.54481679 4283385157
0.1134022 0.11179294 0.54506677 4283582536
0.11430635 0.11181857 0.54519176 4283647043
0.11518449 0.11181857 0.54519176 4283186492
0.11608925 0.1118442 0.54531676 4283383873
0.11696759 0.1118442 0.54531676 4283383873
0.11787295 0.11186984 0.54544175 4282726711
0.11872429 0.1118442 0.54531676 4282331953
0.11960264 0.1118442 0.54531676 4282661945
0.12048098 0.1118442 0.54531676 4283254082
0.12135932 0.1118442 0.54531676 4282928720
0.12220965 0.11181857 0.54519176 4288784297
0.12305958 0.11179294 0.54506677 4293653490
0.1239091 0.1117673 0.54494178 4293587697
0.12478684 0.1117673 0.54494178 4293588980
0.12554929 0.11166476 0.54444182 4293391601
0.12631014 0.11156223 0.54394192 4293326324
0.12715705 0.11153659 0.54381692 4293457910
0.12803298 0.11153659 0.54381692 4293588980
0.12884966 0.11148532 0.54356694 4293852152
0.12969536 0.11145969 0.54344195 4290427071
0.13057068 0.11145969 0.54344195 4285426803
0.13141577 0.11143405 0.54331696 4284307806
0.1322909 0.11143405 0.54331696 4284176220
0.13316602 0.11143405 0.54331696 4284768093
0.13404115 0.11143405 0.54331696 4285491816
0.13491628 0.11143405 0.54331696 4286148974
0.13579141 0.11143405 0.54331696 4286675318
0.13669796 0.11145969 0.54344195 4286939775
0.13757329 0.11145969 0.54344195 4287466119
0.13838492 0.11140841 0.54319197 4287992214
0.13919576 0.11135715 0.54294199 4288452765
0.13981234 0.11115207 0.54194212 4288651941
0.14068525 0.11115207 0.54194212 4289178285
0.14123169 0.11089572 0.54069221 4289836215
0.14193834 0.11076755 0.54006732 4290296766
0.14280823 0.11076755 0.54006732 4290758083
0.14367813 0.11076755 0.54006732 4291284427
0.14454801 0.11076755 0.54006732 4291285712
0.14551887 0.11084446 0.54044229 4291614677
0.14659248 0.11099826 0.54119217 4292272357
-0.045330547 0.11011311 0.53269309 4287532688
-0.044472534 0.11011311 0.53269309 4292861145
-0.043614518 0.11011311 0.53269309 4293190110
-0.042786606 0.11019062 0.53306806 4293190110
-0.042016461 0.11042314 0.53419292 4293124317
-0.041310105 0.11083652 0.53619272 4293388008
0.074412629 0.11212832 0.54244202 4281348914
0.075303681 0.11215416 0.54256701 4281677109
0.076195151 0.11217999 0.54269201 4281940281
0.077087022 0.11220583 0.542817 4281808445
0.077961341 0.11220583 0.542817 4282597961
0.078853808 0.11223166 0.54294199 4284834923
0.079765037 0.11228334 0.54319197 4291282637
0.080695629 0.11236085 0.54356694 4293322470
0.081608675 0.11241253 0.54381692 4292927712
0.08248461 0.11241253 0.54381692 4293256681
0.083379693 0.11243836 0.54394192 4293256681
0.084275179 0.11246418 0.54406685 4293125611
0.085171074 0.11249002 0.54419184 4292730853
0.086047612 0.11249002 0.54419184 4292599521
0.086964071 0.1125417 0.54444182 4291678419
0.087881334 0.11259337 0.5446918 4285491826
0.088799417 0.11264504 0.54494178 4282004797
0.089677155 0.11264504 0.54494178 4282333503
0.090575673 0.11267088 0.54506677 4282267710
0.091432638 0.11264504 0.54494178 4282399809
0.092310384 0.11264504 0.54494178 4282268223
0.093145378 0.11259337 0.5446918 4285494397
0.094001144 0.11256754 0.54456681 4289968321
0.09483473 0.11251586 0.54431683 4290363588
0.095711455 0.11251586 0.54431683 4290232002
0.096543834 0.11246418 0.54406685 4289836981
0.097375423 0.11241253 0.54381692 4289310637
0.098206185 0.11236085 0.54356694 4288190869
0.099081717 0.11236085 0.54356694 4283585359
0.09993425 0.11233501 0.54344195 4282662466
0.1007864 0.11230917 0.54331696 4282662466
0.10166152 0.11230917 0.54331696 4282793282
0.10253665 0.11230917 0.54331696 4283056454
0.10341178 0.11230917 0.54331696 4283187527
0.10428689 0.11230917 0.54331696 4282595390
0.10518622 0.11233501 0.54344195 4284502871
0.10608593 0.11236085 0.54356694 4284766043
0.10696147 0.11236085 0.54356694 4284503638
0.10786178 0.11238669 0.54369193 4284174673
0.10878751 0.11243836 0.54394192 4283715918
0.10968883 0.11246418 0.54406685 4283650125
0.11056516 0.11246418 0.54406685 4283386700
0.1114671 0.11249002 0.54419184 4283320907
0.11239523 0.1125417 0.54444182 4283320907
0.11327218 0.1125417 0.54444182 4283255114
0.11417532 0.11256754 0.54456681 4283254854
0.11505246 0.11256754 0.54456681 4283123268
0.11595621 0.11259337 0.5446918 4282596154
0.11680673 0.11256754 0.54456681 4282596154
0.11768387 0.11256754 0.54456681 4282662715
0.1185338 0.1125417 0.54444182 4282531129
0.11941074 0.1125417 0.54444182 4282794814
0.12026006 0.11251586 0.54431683 4283386951
0.12113678 0.11251586 0.54431683 4282337094
0.12198551 0.11249002 0.54419184 4287008397
0.12286204 0.11249002 0.54419184 4292666595
0.12368175 0.11243836 0.54394192 4293785076
0.12455788 0.11243836 0.54394192 4293654260
0.12537636 0.11238669 0.54369193 4293654260
0.12616502 0.11230917 0.54331696 4293654008
0.12704015 0.11230917 0.54331696 4293654008
0.12785642 0.1122575 0.54306698 4293916151
0.12867188 0.11220583 0.542817 4294376702
0.12951638 0.11217999 0.54269201 4291347140
0.1303905 0.11217999 0.54269201 4285031012
0.13120414 0.11212832 0.54244202 4283320396
0.13207786 0.11212832 0.54244202 4282991431
0.13295157 0.11212832 0.54244202 4283450948
0.13388696 0.11217999 0.54269201 4283056190
0.13476108 0.11217999 0.54269201 4283253309
0.13566644 0.11220583 0.542817 4282990137
0.1365722 0.11223166 0.54294199 4282334004
0.13747837 0.1122575 0.54306698 4283123520
0.13828939 0.11220583 0.542817 4283255116
0.13903554 0.11210248 0.54231703 4283386702
0.1396511 0.1118958 0.54131716 4283190352
0.140523 0.1118958 0.54131716 4283650903
0.14110111 0.11166327 0.54019231 4284177247
0.14183979 0.11155993 0.53969234 4284572005
0.14270908 0.11155993 0.53969234 4285359977
0.14357837 0.11155993 0.53969234 4286215286
0.14444764 0.11155993 0.53969234 4286545536
0.14548522 0.11168911 0.5403173 4286808708
0.14655863 0.11184412 0.54106718 4286810768
0.14743012 0.11184412 0.54106718 4287271319
0.14830163 0.11184412 0.54106718 4287666077
-0.045330547 0.11097113 0.53269309 4290098358
-0.044472534 0.11097113 0.53269309 4293650146
-0.043614518 0.11097113 0.53269309 4293123802
-0.042756509 0.11097113 0.53269309 4293124317
-0.041957479 0.11112735 0.53344303 4293453282
-0.041184925 0.11136169 0.53456789 4292006614
-0.040323891 0.11136169 0.53456789 4286348416
-0.039564352 0.1116481 0.53594273 4283190095
0.082143366 0.11281978 0.54156715 4293256681
0.083053984 0.11287186 0.54181713 4293059302
0.083946057 0.1128979 0.54194212 4292928232
0.084818974 0.1128979 0.54194212 4292730853
0.085751161 0.112976 0.54231703 4293060072
0.086684577 0.11305411 0.54269201 4291875798
0.087599017 0.11310619 0.54294199 4285624182
0.088493913 0.11313222 0.54306698 4281610809
0.089368634 0.11313222 0.54306698 4282202430
0.090243362 0.11313222 0.54306698 4282136637
0.091118075 0.11313222 0.54306698 4282137153
0.091992795 0.11313222 0.54306698 4282005567
0.092867523 0.11313222 0.54306698 4285889668
0.093763821 0.11315826 0.54319197 4291942624
0.094660521 0.1131843 0.54331696 4292206816
0.095557623 0.11321034 0.54344195 4292535781
0.096432947 0.11321034 0.54344195 4292930535
0.097285897 0.1131843 0.54331696 4292996328
0.098138444 0.11315826 0.54319197 4291612875
0.099013366 0.11315826 0.54319197 4285428333
0.099865302 0.11313222 0.54306698 4282071614
0.10071684 0.11310619 0.54294199 4282597958
0.10159136 0.11310619 0.54294199 4282662981
0.10246588 0.11310619 0.54294199 4282926153
0.1033404 0.11310619 0.54294199 4283056454
0.10421492 0.11310619 0.54294199 4283977556
0.10511363 0.11313222 0.54306698 4289899947
0.10601275 0.11315826 0.54319197 4290952635
0.10688768 0.11315826 0.54319197 4290756537
0.1077626 0.11315826 0.54319197 4290427572
0.10868752 0.11321034 0.54344195 4289770669
0.10956284 0.11321034 0.54344195 4289310118
0.11043818 0.11321034 0.54344195 4288653220
0.11136471 0.11326241 0.54369193 4288390048
0.11224043 0.11326241 0.54369193 4288455841
0.11311616 0.11326241 0.54369193 4288390048
0.11399189 0.11326241 0.54369193 4288126616
0.11484122 0.11323638 0.54356694 4287863444
0.11569013 0.11321034 0.54344195 4286874499
0.11656545 0.11321034 0.54344195 4282795333
0.11738676 0.11315826 0.54319197 4282071863
0.11820726 0.11310619 0.54294199 4282269242
0.11902695 0.11305411 0.54269201 4282532669
0.11990108 0.11305411 0.54269201 4283124806
0.12074737 0.11302807 0.54256701 4282599753
0.12159327 0.11300203 0.54244202 4285692024
0.12246699 0.11300203 0.54244202 4291943642
0.1233407 0.11300203 0.54244202 4293456881
0.12421442 0.11300203 0.54244202 4293785076
0.12505931 0.112976 0.54231703 4293916662
0.12593283 0.112976 0.54231703 4293521393
0.12680635 0.112976 0.54231703 4293916151
0.12765044 0.11294997 0.5421921 4293981174
0.12846449 0.1128979 0.54194212 4293981174
0.12927775 0.11284582 0.54169214 4292663253
0.13015026 0.11284582 0.54169214 4286083953
0.13099253 0.11281978 0.54156715 4283254601
0.13186485 0.11281978 0.54156715 4283254601
0.13273714 0.11281978 0.54156715 4283319875
0.13364029 0.11284582 0.54169214 4283319875
0.1345128 0.11284582 0.54169214 4283385407
0.13551027 0.11294997 0.5421921 4282990649
0.13644643 0.11300203 0.54244202 4282334515
0.1373518 0.11302807 0.54256701 4283058238
0.13816203 0.112976 0.54231703 4283058758
0.13874716 0.11274166 0.54119217 4282927172
0.13936092 0.11253338 0.54019231 4282730569
0.140231 0.11253338 0.54019231 4282927948
0.14093786 0.11240318 0.53956735 4283388501
0.14177409 0.11237714 0.53944236 4283783259
0.14264297 0.11237714 0.53944236 4284044632
0.14351186 0.11237714 0.53944236 4283847253
0.14444764 0.11242922 0.53969234 4283715667
0.14548522 0.11255941 0.5403173 4283320909
0.14655863 0.11271562 0.54106718 4282928720
0.14743012 0.11271562 0.54106718 4282862927
0.14830163 0.11271562 0.54106718 4282863186
-0.045341183 0.11185537 0.53281808 4291480009
-0.044482969 0.11185537 0.53281808 4293321435
-0.043614518 0.11182913 0.53269309 4293124056
-0.042746477 0.1118029 0.5325681 4292796377
-0.041888662 0.1118029 0.5325681 4292993756
-0.041079 0.1119341 0.53319305 4290690754
-0.040220182 0.1119341 0.53319305 4284440419
-0.03949054 0.11230143 0.53494287 4282927178
-0.038683053 0.11245886 0.53569275 4282137662
-0.03782903 0.1124851 0.53581774 4282137660
-0.036974609 0.11251134 0.53594273 4281940281
-0.036111359 0.11251134 0.53594273 4282466372
-0.035248116 0.11251134 0.53594273 4287598226
-0.034384865 0.11251134 0.53594273 4292534496
-0.033521619 0.11251134 0.53594273 4292600289
-0.032658372 0.11251134 0.53594273 4292534494
-0.031802539 0.11253758 0.53606772 4292666080
-0.030946303 0.11256382 0.53619272 4292403674
-0.030089667 0.11259006 0.53631771 4292864225
-0.029225815 0.11259006 0.53631771 4292468701
0.087276369 0.11356089 0.54094219 4285953401
0.08814767 0.11356089 0.54094219 4281611063
0.089039542 0.11358712 0.54106718 4282071614
0.089911044 0.11358712 0.54106718 4281874235
0.090803511 0.11361336 0.54119217 4282005567
0.091696389 0.1136396 0.54131716 4281808188
0.092568293 0.1136396 0.54131716 4285165943
0.093504928 0.11371832 0.54169214 4291153106
0.09444277 0.11379704 0.54206711 4292799464
0.095359817 0.11384951 0.54231703 4292273120
0.096233331 0.11384951 0.54231703 4292404191
0.097151615 0.11390199 0.54256701 4292404191
0.098025531 0.11390199 0.54256701 4292928482
0.098899446 0.11390199 0.54256701 4286809733
0.099773362 0.11390199 0.54256701 4282466118
0.10062409 0.11387575 0.54244202 4282202946
0.10149781 0.11387575 0.54244202 4282597704
0.10237153 0.11387575 0.54244202 4282926669
0.10324524 0.11387575 0.54244202 4282990409
0.10411895 0.11387575 0.54244202 4284569441
0.10499267 0.11387575 0.54244202 4291084221
0.10589078 0.11390199 0.54256701 4293650148
0.1067647 0.11390199 0.54256701 4293783526
0.10766341 0.11392822 0.54269201 4293849319
0.10853753 0.11392822 0.54269201 4293522407
0.10943685 0.11395446 0.542817 4293390821
0.11031117 0.11395446 0.542817 4293326059
0.11121109 0.1139807 0.54294199 4292931301
0.1120598 0.11395446 0.542817 4292338911
0.11293413 0.11395446 0.542817 4292667876
0.11375604 0.11390199 0.54256701 4292995811
0.11457714 0.11384951 0.54231703 4292732639
0.11537084 0.1137708 0.54194212 4291020738
0.11624375 0.1137708 0.54194212 4284967782
0.11700861 0.11366584 0.54144216 4281677105
0.1178263 0.11361336 0.54119217 4282203449
0.11861576 0.11353464 0.5408172 4282466876
0.11948686 0.11353464 0.5408172 4282993220
0.12030233 0.11348218 0.54056728 4282665548
0.12114501 0.11345594 0.54044229 4284770924
0.12201551 0.11345594 0.54044229 4291548114
0.1233407 0.11387575 0.54244202 4293390318
0.12421442 0.11387575 0.54244202 4293653490
0.12505931 0.11384951 0.54231703 4293982455
0.12593283 0.11384951 0.54231703 4293521391
0.12680635 0.11384951 0.54231703 4293916149
0.12765044 0.11382328 0.5421921 4293849588
0.12846449 0.1137708 0.54194212 4294112760
0.12927775 0.11371832 0.54169214 4293125087
0.13015026 0.11371832 0.54169214 4287137924
0.13099253 0.11369208 0.54156715 4282927172
0.13186485 0.11369208 0.54156715 4282795586
0.13273714 0.11369208 0.54156715 4282860094
0.13364029 0.11371832 0.54169214 4282860094
0.1345128 0.11371832 0.54169214 4282926139
0.13551027 0.11382328 0.5421921 4282794553
0.13644643 0.11387575 0.54244202 4282335283
0.1373518 0.11390199 0.54256701 4282598455
0.13816203 0.11384951 0.54231703 4282861888
0.13874716 0.11361336 0.54119217 4282927681
0.13936092 0.11340345 0.54019231 4282862406
0.140231 0.11340345 0.54019231 4283125578
0.14093786 0.11327226 0.53956735 4283125329
0.14177409 0.11324602 0.53944236 4283059536
0.14264297 0.11324602 0.53944236 4283255888
0.14351186 0.11324602 0.53944236 4283782232
0.14444764 0.1132985 0.53969234 4283913048
0.14545156 0.11340345 0.54019231 4283781462
0.14645706 0.1135084 0.54069221 4283388501
0.14732794 0.1135084 0.54069221 4283322708
0.14826737 0.11356089 0.54094219 4282600266
0.14913867 0.11356089 0.54094219 4282797645
-0.046340279 0.11305731 0.5344429 4287401096
-0.045341183 0.11271359 0.53281808 4292796122
-0.044482969 0.11271359 0.53281808 4292730581
-0.043532655 0.11247563 0.53169322 4292993753
-0.042676255 0.11247563 0.53169322 4292402389
-0.041839506 0.1125285 0.53194314 4293126112
-0.041021224 0.11263426 0.53244311 4288980134
-0.04016361 0.11263426 0.53244311 4283585108
-0.039361365 0.11279291 0.53319305 4282861385
-0.038529623 0.11287224 0.53356802 4282137662
-0.037696667 0.11295155 0.53394294 4282137660
-0.036836643 0.11295155 0.53394294 4282006074
-0.035976615 0.11295155 0.53394294 4282926153
-0.035124812 0.11297799 0.53406793 4289373867
-0.034272604 0.11300442 0.53419292 4293059551
-0.033412173 0.11300442 0.53419292 4293322723
-0.032551747 0.11300442 0.53419292 4292533207
-0.031706147 0.11305731 0.5344429 4293256930
-0.030852528 0.11308375 0.53456789 4292731354
-0.029998507 0.11311019 0.53469288 4292797147
-0.029137274 0.11311019 0.53469288 4292600540
-0.02828926 0.11316307 0.53494287 4292403161
-0.027434032 0.11318951 0.53506786 4292468954
-0.0265784 0.11321595 0.53519285 4292732126
-0.025716363 0.11321595 0.53519285 4292403161
-0.024854321 0.11321595 0.53519285 4292205782
-0.023992281 0.11321595 0.53519285 4292666593
-0.023130242 0.11321595 0.53519285 4292929765
-0.022263004 0.11318951 0.53506786 4292666593
-0.021391166 0.11313663 0.53481787 4292600800
-0.020524934 0.11311019 0.53469288 4292666593
-0.019663697 0.11311019 0.53469288 4292863972
-0.018802464 0.11311019 0.53469288 4291744212
-0.017941229 0.11311019 0.53469288 4286151807
-0.017079996 0.11311019 0.53469288 4283781208
0.094159678 0.11432643 0.54044229 4290888133
0.095030166 0.11432643 0.54044229 4291348684
0.096011549 0.11445863 0.54106718 4292269525
0.097151615 0.1147759 0.54256701 4292598490
0.098025531 0.1147759 0.54256701 4291810005
0.098899446 0.1147759 0.54256701 4287533460
0.099773362 0.1147759 0.54256701 4284309603
0.10062409 0.11474946 0.54244202 4283717466
0.10149781 0.11474946 0.54244202 4283058507
0.10237153 0.11474946 0.54244202 4282795335
0.10324524 0.11474946 0.54244202 4283451214
0.10411895 0.11474946 0.54244202 4284898660
0.10499267 0.11474946 0.54244202 4290032565
0.10589078 0.1147759 0.54256701 4293782766
0.1067647 0.1147759 0.54256701 4293061089
0.10766341 0.11480235 0.54269201 4293126882
0.10853753 0.11480235 0.54269201 4293062372
0.10943685 0.11482879 0.542817 4293259751
0.11031117 0.11482879 0.542817 4293391337
0.11121109 0.11485522 0.54294199 4292799200
0.1120598 0.11482879 0.542817 4292338651
0.11293413 0.11482879 0.542817 4293391339
0.11375604 0.1147759 0.54256701 4292601823
0.11457714 0.11472302 0.54231703 4292799202
0.11537084 0.11464371 0.54194212 4292403672
0.11624375 0.11464371 0.54194212 4286153337
0.11700861 0.11453795 0.54144216 4281546546
0.1178263 0.11448506 0.54119217 4282007097
0.11861576 0.11440574 0.5408172 4282336062
0.11948686 0.11440574 0.5408172 4282599234
0.12030233 0.11435287 0.54056728 4282731341
0.12114501 0.11432643 0.54044229 4284244580
0.12195907 0.11427355 0.54019231 4290627014
0.12282916 0.11427355 0.54019231 4293850871
0.12369925 0.11427355 0.54019231 4293653490
0.12454052 0.11424711 0.54006732 4293916662
0.12541041 0.11424711 0.54006732 4293916149
0.12628031 0.11424711 0.54006732 4293981942
0.12712078 0.11422067 0.53994232 4293916151
0.12799045 0.11422067 0.53994232 4293652979
0.12886015 0.11422067 0.53994232 4294243825
0.12972984 0.11422067 0.53994232 4288519834
0.13059953 0.11422067 0.53994232 4282730567
0.13153009 0.11427355 0.54019231 4282467395
0.13246144 0.11432643 0.54044229 4282598205
0.1333936 0.1143793 0.54069221 4282532412
0.1342645 0.1143793 0.54069221 4282729273
0.13526034 0.11448506 0.54119217 4282597687
0.13616349 0.1145115 0.54131716 4282335283
0.1370354 0.1145115 0.54131716 4282598455
0.13787545 0.11448506 0.54119217 4282599486
0.13849081 0.11427355 0.54019231 4282796865
0.13936092 0.11427355 0.54019231 4282731850
0.13984165 0.11395627 0.53869247 4282600264
0.14064404 0.11390339 0.53844249 4283980638
0.14144561 0.11385051 0.53819251 4287007116
0.14231247 0.11385051 0.53819251 4287072139
0.14317936 0.11385051 0.53819251 4286414209
0.14424692 0.11400914 0.5389424 4285887863
0.14514866 0.11403558 0.53906739 4285427312
0.14642322 0.11435287 0.54056728 4284309599
0.14729391 0.11435287 0.54056728 4282467395
0.14823312 0.11440574 0.5408172 4282205506
0.14913867 0.11443219 0.54094219 4282534471
-0.046340279 0.11391814 0.5344429 4289703598
-0.045383729 0.11367837 0.53331804 4292927455
-0.044524707 0.11367837 0.53331804 4293059551
-0.042676255 0.11333204 0.53169322 4292139989
-0.041839506 0.11338531 0.53194314 4291942610
-0.041021224 0.11349188 0.53244311 4286874760
-0.04016361 0.11349188 0.53244311 4282861387
-0.039361365 0.11365173 0.53319305 4282730317
-0.038529623 0.11373166 0.53356802 4282072387
-0.037696667 0.11381157 0.53394294 4282006848
-0.036836643 0.11381157 0.53394294 4281875262
-0.035976615 0.11381157 0.53394294 4283320396
-0.035124812 0.11383822 0.53406793 4289570731
-0.034272604 0.11386486 0.53419292 4292201671
-0.033412173 0.11386486 0.53419292 4292662222
-0.032551747 0.11386486 0.53419292 4292728274
-0.031706147 0.11391814 0.5344429 4293057239
-0.030852528 0.11394478 0.53456789 4293123802
-0.029998507 0.11397143 0.53469288 4293584353
-0.029137274 0.11397143 0.53469288 4293519592
-0.02828926 0.11402471 0.53494287 4293782764
-0.027434032 0.11405135 0.53506786 4293585638
-0.0265784 0.11407799 0.53519285 4293388259
-0.025716363 0.11407799 0.53519285 4293322466
-0.024854321 0.11407799 0.53519285 4293125087
-0.023913838 0.11370502 0.53344303 4292993758
-0.023054618 0.11370502 0.53344303 4292993758
-0.022195397 0.11370502 0.53344303 4293191907
-0.021326179 0.11365173 0.53319305 4292731356
-0.02046736 0.11365173 0.53319305 4292402391
-0.01960854 0.11365173 0.53319305 4292731356
-0.018749721 0.11365173 0.53319305 4291479241
-0.017890904 0.11365173 0.53319305 4285228906
-0.017036078 0.11367837 0.53331804 4282794313
-0.016180851 0.11370502 0.53344303 4282333762
-0.015328807 0.11375829 0.53369296 4282531911
-0.014469184 0.11375829 0.53369296 4282531911
-0.013615935 0.11381157 0.53394294 4282399555
-0.009309263 0.11373166 0.53356802 4282006594
-0.0084498413 0.11373166 0.53356802 4282269770
-0.0075850841 0.11365173 0.53319305 4281940805
-0.0067231124 0.11359845 0.53294307 4286547081
-0.0058646966 0.11359845 0.53294307 4292007900
-0.0050062812 0.11359845 0.53294307 4293520619
-0.0041478653 0.11359845 0.53294307 4293323240
0.094159678 0.11519693 0.54044229 4285227112
0.095030166 0.11519693 0.54044229 4286016628
0.096011549 0.11533013 0.54106718 4287002235
0.096927814 0.11538341 0.54131716 4287199614
0.097844884 0.1154367 0.54156715 4286611336
0.09871719 0.1154367 0.54156715 4287532438
0.099589489 0.1154367 0.54156715 4288981935
0.1004618 0.1154367 0.54156715 4289113521
0.10133411 0.1154367 0.54156715 4288915109
0.10223 0.11546334 0.54169214 4288520351
0.10310251 0.11546334 0.54169214 4288256152
0.10397502 0.11546334 0.54169214 4287795601
0.10484753 0.11546334 0.54169214 4287928218
0.10572004 0.11546334 0.54169214 4290559938
0.10659254 0.11546334 0.54169214 4291809484
0.10746505 0.11546334 0.54169214 4292270035
0.10836256 0.11548998 0.54181713 4292271573
0.10926046 0.11551663 0.54194212 4292534745
0.11010798 0.11548998 0.54181713 4292535258
0.11098069 0.11548998 0.54181713 4292930016
0.11180178 0.1154367 0.54156715 4293127397
0.11267409 0.1154367 0.54156715 4293193190
0.11349399 0.11538341 0.54131716 4292995811
0.11428668 0.11530349 0.54094219 4292930018
0.11505155 0.11519693 0.54044229 4292337881
0.11592204 0.11519693 0.54044229 4287469199
0.1166845 0.11509036 0.53994232 4281613620
0.11749976 0.11503708 0.53969234 4281876792
0.11825939 0.11493051 0.53919238 4282270269
0.11912788 0.11493051 0.53919238 4282599234
0.11994072 0.11487722 0.5389424 4282665548
0.12072476 0.11479731 0.53856748 4283915615
0.12159223 0.11479731 0.53856748 4289376947
0.12237445 0.11471738 0.53819251 4293916664
0.1232127 0.11469074 0.53806752 4293785074
0.12402172 0.11463746 0.53781754 4293916660
0.12488799 0.11463746 0.53781754 4294047733
0.12572503 0.11461081 0.53769255 4293981940
0.12653224 0.11455753 0.53744256 4294047735
0.12739789 0.11455753 0.53744256 4293850356
0.12832323 0.11461081 0.53769255 4294309365
0.1291893 0.11461081 0.53769255 4289769648
0.13008559 0.11463746 0.53781754 4283322708
0.13104317 0.11471738 0.53819251 4282335813
0.1320632 0.1148506 0.53881747 4282598207
0.13293108 0.1148506 0.53881747 4282532414
0.1339231 0.11495715 0.53931737 4282466619
0.13488549 0.11503708 0.53969234 4282466619
0.13578622 0.11506372 0.53981733 4282336060
0.13665572 0.11506372 0.53981733 4282599232
0.13730229 0.11487722 0.5389424 4282600264
0.13778585 0.11455753 0.53744256 4282666057
0.13865152 0.11455753 0.53744256 4282601038
0.13919273 0.11429112 0.53619272 4282403659
0.13976257 0.11405135 0.53506786 4285692285
0.1406244 0.11405135 0.53506786 4290824139
0.14231247 0.11471738 0.53819251 4292468705
0.14317936 0.11471738 0.53819251 4292073947
0.1438455 0.11455753 0.53744256 4291481040
0.14471117 0.11455753 0.53744256 4291020489
0.14591539 0.11482395 0.53869247 4289968567
0.14678305 0.11482395 0.53869247 4285494643
0.14823312 0.11527684 0.5408172 4281810748
-0.046340279 0.11477897 0.5344429 4291480009
-0.045362458 0.11448371 0.53306806 4293059041
-0.044503838 0.11448371 0.53306806 4292664793
-0.038412288 0.11424211 0.53194314 4282007368
-0.037573129 0.1142958 0.53219312 4281941575
-0.036715925 0.1142958 0.53219312 4282007368
-0.035867136 0.11432265 0.53231812 4282925640
-0.035017949 0.11434949 0.53244311 4285096809
-0.034168359 0.11437634 0.5325681 4286541937
-0.033310544 0.11437634 0.5325681 4287199867
-0.032460351 0.11440318 0.53269309 4287463807
-0.031609755 0.11443003 0.53281808 4287858565
-0.030758752 0.11445686 0.53294307 4288319118
-0.029907348 0.11448371 0.53306806 4288845462
-0.029048732 0.11448371 0.53306806 4289043104
-0.028196724 0.11451055 0.53319305 4289306276
-0.027350724 0.11456424 0.53344303 4289833131
-0.026491502 0.11456424 0.53344303 4290293682
-0.025632283 0.11456424 0.53344303 4290753459
-0.024778863 0.11459108 0.53356802 4291477182
-0.023913838 0.11456424 0.53344303 4291872452
-0.023054618 0.11456424 0.53344303 4292069831
-0.022195397 0.11456424 0.53344303 4292071114
-0.021326179 0.11451055 0.53319305 4292136907
-0.02046736 0.11451055 0.53319305 4292072397
-0.01960854 0.11451055 0.53319305 4292138190
-0.018749721 0.11451055 0.53319305 4289833131
-0.017890904 0.11451055 0.53319305 4284438105
-0.017036078 0.1145374 0.53331804 4282202946
-0.016180851 0.11456424 0.53344303 4282466118
-0.015328807 0.11461791 0.53369296 4282269766
-0.014469184 0.11461791 0.53369296 4282335559
-0.013615935 0.1146716 0.53394294 4282531911
-0.012761882 0.11472529 0.53419292 4282531911
-0.010173449 0.11464476 0.53381795 4281875008
-0.009309263 0.11459108 0.53356802 4282006594
-0.0084498413 0.11459108 0.53356802 4282532172
-0.0075850841 0.11451055 0.53319305 4283058516
-0.0067231124 0.11445686 0.53294307 4288519331
-0.0058646966 0.11445686 0.53294307 4293322220
-0.0050062812 0.11445686 0.53294307 4293520619
-0.0041478653 0.11445686 0.53294307 4293257447
0.096636876 0.11590637 0.53969234 4283713871
0.097551331 0.11596005 0.53994232 4283716446
0.098421022 0.11596005 0.53994232 4286677131
0.099313684 0.1159869 0.54006732 4291549147
0.10020676 0.11601374 0.54019231 4292667628
0.10107686 0.11601374 0.54019231 4293192937
0.10194695 0.11601374 0.54019231 4293192937
0.10284083 0.11604058 0.5403173 4292929765
0.10371112 0.11604058 0.5403173 4291548112
0.10460562 0.11606742 0.54044229 4287533206
0.10547611 0.11606742 0.54044229 4285296244
0.10634661 0.11606742 0.54044229 4285623412
0.1072171 0.11606742 0.54044229 4286018170
0.10811259 0.11609427 0.54056728 4286677120
0.10898329 0.11609427 0.54056728 4287203464
0.10982858 0.11606742 0.54044229 4287401872
0.11069908 0.11606742 0.54044229 4287730837
0.11151796 0.11601374 0.54019231 4287928986
0.11238805 0.11601374 0.54019231 4287994779
0.11317953 0.11593321 0.53981733 4288256411
0.1139698 0.11585268 0.53944236 4288782755
0.11473225 0.11574531 0.5389424 4288914086
0.11560033 0.11574531 0.5389424 4286479745
0.11636037 0.11563794 0.53844249 4281742902
0.11714601 0.11555741 0.53806752 4282137660
0.11801268 0.11555741 0.53806752 4282401085
0.11879651 0.11547688 0.53769255 4282664257
0.11960693 0.1154232 0.53744256 4282533192
0.12038856 0.11534268 0.53706765 4283388501
0.12125362 0.11534268 0.53706765 4288388515
0.12206184 0.11528899 0.53681767 4293322990
0.122812 0.11518162 0.53631771 4293126631
0.12858869 0.11494004 0.53519285 4291085253
0.12951119 0.11499371 0.53544277 4284900459
0.13058667 0.11518162 0.53631771 4282466118
0.13166495 0.11536951 0.53719258 4282794567
0.13253021 0.11536951 0.53719258 4282662981
0.13351962 0.11547688 0.53769255 4282400834
0.13438569 0.11547688 0.53769255 4282400834
0.13525175 0.11547688 0.53769255 4282271301
0.1360229 0.11539635 0.53731757 4282534473
0.13656993 0.11512793 0.53606772 4282469452
0.13704887 0.11480582 0.53456789 4282403659
0.1379099 0.11480582 0.53456789 4282600268
0.1438455 0.1154232 0.53744256 4293391090
0.14471117 0.1154232 0.53744256 4293522676
0.14591539 0.11569163 0.53869247 4292929769
0.14678305 0.11569163 0.53869247 4288653224
-0.046426978 0.11585615 0.53544277 4292533207
-0.045362458 0.11534232 0.53306806 4292335828
-0.044503838 0.11534232 0.53306806 4292664793
-0.031513359 0.11493666 0.53119326 4283516490
-0.030657761 0.11493666 0.53119326 4283516743
-0.029802164 0.11493666 0.53119326 4283516743
-0.028960189 0.11499075 0.53144324 4283911248
-0.0281108 0.11501779 0.53156823 4283977041
-0.027261008 0.11504484 0.53169322 4284634457
-0.026410813 0.11507189 0.53181821 4285095008
-0.025554208 0.11507189 0.53181821 4285357148
-0.024697604 0.11507189 0.53181821 4285620320
-0.0238466 0.11509892 0.53194314 4286015332
-0.022989795 0.11509892 0.53194314 4286146918
-0.022132991 0.11509892 0.53194314 4286279787
-0.021276185 0.11509892 0.53194314 4286411373
-0.020419382 0.11509892 0.53194314 4286741365
-0.019562574 0.11509892 0.53194314 4286807158
-0.018705769 0.11509892 0.53194314 4285556073
-0.017848965 0.11509892 0.53194314 4282924353
-0.017000144 0.11515301 0.53219312 4282400836
-0.016146729 0.11518005 0.53231812 4282203457
-0.015289319 0.11518005 0.53231812 4282138434
-0.014438688 0.11523414 0.5325681 4282270020
-0.013584063 0.11526118 0.53269309 4282400836
-0.012726051 0.11526118 0.53269309 4282400836
-0.011868037 0.11526118 0.53269309 4282203457
-0.011010024 0.11526118 0.53269309 4282071871
-0.010147247 0.1152071 0.53244311 4282071617
-0.0092809135 0.11509892 0.53194314 4282400582
-0.0084241088 0.11509892 0.53194314 4282729297
-0.0075619696 0.11501779 0.53156823 4283584606
-0.0067026154 0.1149637 0.53131825 4290098363
-0.0058468166 0.1149637 0.53131825 4293651185
-0.0049910182 0.1149637 0.53131825 4293519849
-0.0041352194 0.1149637 0.53131825 4293717228
-0.0032801924 0.11499075 0.53144324 4293586414
-0.0024247624 0.11501779 0.53156823 4293257449
-0.0015689301 0.11504484 0.53169322 4293125611
-0.00071252754 0.11504484 0.53169322 4293322990
0.00014394264 0.11509892 0.53194314 4293584617
0.0010007478 0.11509892 0.53194314 4289637037
0.0018579892 0.11512596 0.53206813 4283321431
0.0027149958 0.11512596 0.53206813 4282334536
0.10426693 0.1165593 0.53869247 4288716453
0.10513461 0.1165593 0.53869247 4283518806
0.10600228 0.1165593 0.53869247 4282004288
0.10686995 0.1165593 0.53869247 4282464839
0.10773763 0.1165593 0.53869247 4282466372
0.10860531 0.1165593 0.53869247 4282137407
0.10942218 0.11650521 0.53844249 4281742904
0.11023825 0.11645112 0.53819251 4282071869
0.11110512 0.11645112 0.53819251 4282533190
0.11191998 0.11639703 0.53794253 4282730569
0.11270784 0.11631589 0.53756756 4282664006
0.12125362 0.11620773 0.53706765 4287071885
0.12206184 0.11615364 0.53681767 4293059048
0.122812 0.11604546 0.53631771 4293652207
0.12951119 0.11585615 0.53544277 4286214266
0.13058667 0.11604546 0.53631771 4283056202
0.13166495 0.11623476 0.53719258 4282794313
0.13253021 0.11623476 0.53719258 4282662727
0.13351962 0.11634294 0.53769255 4282466375
0.13438569 0.11634294 0.53769255 4282268996
0.13525175 0.11634294 0.53769255 4281876545
0.1360229 0.1162618 0.53731757 4283587163
0.13656993 0.11599137 0.53606772 4284310371
0.13704887 0.11566684 0.53456789 4284310371
0.1379099 0.11566684 0.53456789 4284046429
0.14363426 0.11542346 0.53344303 4292733673
0.14449348 0.11542346 0.53344303 4293325810
0.14559108 0.11561275 0.53431791 4290299332
-0.046242747 0.11625543 0.53331804 4292534747
-0.022070585 0.11562878 0.53044331 4283647813
-0.021221196 0.11565603 0.5305683 4283582020
-0.020366605 0.11565603 0.5305683 4283451202
-0.019512013 0.11565603 0.5305683 4283582788
-0.018657424 0.11565603 0.5305683 4283121734
-0.017807027 0.11568327 0.53069329 4283055941
-0.016956227 0.11571052 0.53081828 4282532165
-0.016105026 0.11573777 0.53094327 4282334786
-0.015249831 0.11573777 0.53094327 4282400836
-0.014398025 0.11576501 0.53106827 4282400836
-0.013545817 0.11579226 0.53119326 4282400836
-0.01269022 0.11579226 0.53119326 4282400836
-0.011834621 0.11579226 0.53119326 4282137664
-0.010976441 0.11576501 0.53106827 4282137664
-0.010116282 0.11571052 0.53081828 4282072641
-0.0092612877 0.11571052 0.53081828 4282138434
-0.0083963973 0.11557429 0.53019333 4282401104
-0.0075388555 0.11551981 0.52994341 4284374894
-0.0066836947 0.11549257 0.52981842 4291151821
-0.0058289366 0.11546532 0.52969342 4293125611
-0.0049757552 0.11546532 0.52969342 4293190886
-0.0041225734 0.11546532 0.52969342 4293783023
-0.003270935 0.11551981 0.52994341 4293717230
-0.0024173507 0.11551981 0.52994341 4293454058
-0.0015641355 0.11554705 0.5300684 4293322472
-0.00071035011 0.11554705 0.5300684 4293914609
0.00014343533 0.11554705 0.5300684 4293320930
0.00099745579 0.11557429 0.53019333 4288452248
0.0018514424 0.11557429 0.53019333 4283124309
0.0027054292 0.11557429 0.53019333 4282532172
0.0035602548 0.11560154 0.53031832 4281745479
0.0044154832 0.11562878 0.53044331 4281613893
0.0052711144 0.11565603 0.5305683 4281744709
0.0061257049 0.11565603 0.5305683 4282600018
0.0069802958 0.11565603 0.5305683 4289310641
0.0078367321 0.11568327 0.53069329 4292534498
0.0086935712 0.11571052 0.53081828 4292732126
0.0095508127 0.11573777 0.53094327 4293061091
0.010406008 0.11573777 0.53094327 4293191905
0.011261202 0.11573777 0.53094327 4293191905
0.10426693 0.11742698 0.53869247 4289899696
0.10513461 0.11742698 0.53869247 4283715154
0.10600228 0.11742698 0.53869247 4282267971
0.10686995 0.11742698 0.53869247 4282465350
0.10773763 0.11742698 0.53869247 4282268993
0.10860531 0.11742698 0.53869247 4282203200
0.10942218 0.11737248 0.53844249 4281677881
0.11023825 0.11731799 0.53819251 4281677881
0.11110512 0.11731799 0.53819251 4281941051
0.11191998 0.1172635 0.53794253 4281809465
0.11270784 0.11718176 0.53756756 4281480500
0.13123606 0.11671859 0.53544277 4282794313
0.13209851 0.11671859 0.53544277 4282794313
0.13302304 0.11677308 0.53569275 4282467145
0.13391712 0.11680033 0.53581774 4282467145
0.13478015 0.11680033 0.53581774 4283851105
0.13545337 0.11663686 0.53506786 4289114545
0.14559108 0.11647338 0.53431791 4290364612
-0.00070817262 0.11604403 0.52844352 4293256677
0.00014302947 0.11607147 0.52856851 4292926685
0.00099439896 0.11607147 0.52856851 4286873729
0.001846205 0.11609892 0.5286935 4283058259
0.0026977758 0.11609892 0.5286935 4282466122
0.0035501858 0.11612637 0.52881849 4282138954
0.0044029984 0.11615381 0.52894348 4282007368
0.0052549723 0.11615381 0.52894348 4281876293
0.0061069452 0.11615381 0.52894348 4282073672
0.0069605634 0.11618126 0.52906847 4286086263
0.0078127384 0.11618126 0.52906847 4287862674
0.0086649135 0.11618126 0.52906847 4289109911
0.0095170876 0.11618126 0.52906847 4289570462
0.010369264 0.11618126 0.52906847 4289834402
0.011221438 0.11618126 0.52906847 4289900195
0.012073612 0.11618126 0.52906847 4287598473
0.012928842 0.11620871 0.52919346 4282663998
0.013781217 0.11620871 0.52919346 4281481785
0.014633593 0.11620871 0.52919346 4281679164
0.01548597 0.11620871 0.52919346 4281810237
0.016338347 0.11620871 0.52919346 4281876030
0.017190723 0.11620871 0.52919346 4281546047
0.018043097 0.11620871 0.52919346 4285625213
0.018899936 0.11623616 0.52931845 4291743438
0.01975718 0.11626361 0.52944344 4293256677
0.020609958 0.11626361 0.52944344 4293717222
0.021462737 0.11626361 0.52944344 4293585636
0.00099439896 0.11692285 0.52856851 4285887863
0.001846205 0.1169505 0.5286935 4283124052
0.0026977758 0.1169505 0.5286935 4282531915
0.0035501858 0.11697815 0.52881849 4282467147
0.0044029984 0.11700579 0.52894348 4282335561
0.0052549723 0.11700579 0.52894348 4282138182
0.0061069452 0.11700579 0.52894348 4282072389
0.0069605634 0.11703344 0.52906847 4282993220
0.0078127384 0.11703344 0.52906847 4282993220
0.0086649135 0.11703344 0.52906847 4283779651
0.0095170876 0.11703344 0.52906847 4284042823
0.010369264 0.11703344 0.52906847 4284305993
0.011221438 0.11703344 0.52906847 4284503372
0.012073612 0.11703344 0.52906847 4283584584
0.012928842 0.11706109 0.52919346 4282202931
0.013781217 0.11706109 0.52919346 4281679164
0.014633593 0.11706109 0.52919346 4281810750
0.01548597 0.11706109 0.52919346 4281876543
0.016338347 0.11706109 0.52919346 4281942336
0.017190723 0.11706109 0.52919346 4281546043
0.018043097 0.11706109 0.52919346 4284440935
0.018899936 0.11708874 0.52931845 4287597452
0.01975718 0.11711638 0.52944344 4288584347
0.020609958 0.11711638 0.52944344 4289242015
0.021462737 0.11711638 0.52944344 4289834152
0.022320785 0.11714403 0.52956843 4290096554
0.015431107 0.11749573 0.52731866 4282270018
0.016280463 0.11749573 0.52731866 4282467397
0.01712982 0.11749573 0.52731866 4282269248
0.017979175 0.11749573 0.52731866 4282729799
0.018828532 0.11749573 0.52731866 4282532161
0.019682555 0.11752358 0.52744365 4283124298
0.020532111 0.11752358 0.52744365 4283452493
0.021381669 0.11752358 0.52744365 4284044630
0.022241762 0.11757928 0.52769363 4284503385
0.023091722 0.11757928 0.52769363 4284108627
0.023941683 0.11757928 0.52769363 4282859075
0.024779899 0.11752358 0.52744365 4282661696
0.025623385 0.11749573 0.52731866 4282597184
0.02647274 0.11749573 0.52731866 4282399805
0.027309144 0.11744003 0.52706867 4282137403
0.028151421 0.11741218 0.52694368 4282071610
0.028993294 0.11738433 0.52681869 4281809469
