# .PCD v0.7 - Point Cloud Data file format
VERSION 0.7
FIELDS x y z rgba
SIZE 4 4 4 4
TYPE F F F U
COUNT 1 1 1 1
WIDTH 1009
HEIGHT 1
VIEWPOINT 0 0 0 1 0 0 0
POINTS 1009
DATA ascii
0.0098570362 -0.023147862 0.33683902 4290031531
0.010399586 -0.023147862 0.33683902 4290031531
0.010913713 -0.023087738 0.33596411 4290097837
0.011425023 -0.023027614 0.33508921 4290097837
0.01196029 -0.023019025 0.33496422 4290097837
0.012481165 -0.022984669 0.33446428 4290163630
0.013000427 -0.02295031 0.33396432 4290163630
0.013533278 -0.022941722 0.33383933 4290163630
0.014070996 -0.022941722 0.33383933 4290229423
0.014608714 -0.022941722 0.33383933 4290229423
0.015174786 -0.022984669 0.33446428 4290295216
0.015731124 -0.023010435 0.33483922 4290361009
0.016288675 -0.023036204 0.3352142 4290361009
0.016828608 -0.023036204 0.3352142 4290361009
0.017368538 -0.023036204 0.3352142 4290294703
0.017875083 -0.022993255 0.33458924 4290294703
0.018400254 -0.02297608 0.33433929 4290360496
0.018931696 -0.022967489 0.3342143 4290426289
0.019470017 -0.022967489 0.3342143 4290360498
0.02000834 -0.022967489 0.3342143 4290426291
0.020577395 -0.023001846 0.33471423 4290492084
0.021179605 -0.023070559 0.33571413 4290492084
0.021793121 -0.023147862 0.33683902 4290492084
0.022410262 -0.023225166 0.33796391 4290689463
0.023014044 -0.023285288 0.33883879 4290623670
0.023559814 -0.023285288 0.33883879 4290623670
0.024141151 -0.023319647 0.33933875 4290558390
0.0247241 -0.023354003 0.33983868 4290426804
0.025225012 -0.023311056 0.33921376 4290426804
0.025771383 -0.023311056 0.33921376 4290426804
0.026298365 -0.023293879 0.33896378 4290493365
0.026834436 -0.023285288 0.33883879 4290427572
0.027380208 -0.023285288 0.33883879 4290427572
0.027967181 -0.023319647 0.33933875 4290559158
0.028513759 -0.023319647 0.33933875 4290559160
0.029113853 -0.023362592 0.33996367 4290624953
0.029726863 -0.023414128 0.34071359 4290493367
0.030331187 -0.023457075 0.34133855 4290559160
0.030914905 -0.023482841 0.34171349 4290559160
0.031499833 -0.023508608 0.34208846 4290624953
0.032050837 -0.023508608 0.34208846 4290624700
0.032661401 -0.023551553 0.34271339 4290624700
0.033310313 -0.023620268 0.34371328 4290624700
0.033974763 -0.023697572 0.34483817 4290690493
0.034642834 -0.023774873 0.34596303 4290690493
0.035352681 -0.023877945 0.34746289 4290690493
0.036015686 -0.023946656 0.34846276 4290821562
0.03657696 -0.023946656 0.34846276 4290887355
0.037164874 -0.023963835 0.34871274 4290821562
0.037780639 -0.023998193 0.34921271 4290821562
0.038370561 -0.024015371 0.34946266 4290887355
0.038989145 -0.024049727 0.34996262 4290887355
0.03955283 -0.024049727 0.34996262 4290624953
0.040173829 -0.024084084 0.35046256 4290690746
0.040854551 -0.024152797 0.35146245 4290493371
0.041567955 -0.024238691 0.35271233 4290493371
0.042255521 -0.024307402 0.3537122 4290559164
0.042976573 -0.024393296 0.35496208 4290493371
0.043578982 -0.024410473 0.35521206 4290033590
0.044151124 -0.024410473 0.35521206 4290691520
0.04480195 -0.02445342 0.35583699 4290954694
0.045454789 -0.024496365 0.35646191 4289507248
0.046351731 -0.024668148 0.35896164 4288782757
0.047289398 -0.024857111 0.36171135 4289703859
-0.050120182 -0.028283903 0.42145497 4288188557
-0.049368031 -0.028241964 0.42083004 4288188557
-0.0486902 -0.028241964 0.42083004 4288188557
-0.047998104 -0.028233577 0.42070505 4288188557
-0.047320466 -0.028233577 0.42070505 4288451218
-0.046670552 -0.028250353 0.42095503 4288319632
-0.046006173 -0.028258741 0.42108002 4288253839
-0.045341391 -0.028267128 0.42120501 4288253839
-0.044662952 -0.028267128 0.42120501 4288319379
-0.044036716 -0.02830068 0.42170495 4288319379
-0.032928184 -0.02502102 0.37283516 4289042069
-0.032327656 -0.02502102 0.37283516 4288845714
-0.031737763 -0.02502941 0.37296015 4288779921
-0.031137034 -0.02502941 0.37296015 4288779921
-0.029871136 -0.024484199 0.36483604 4288845714
-0.029283494 -0.024484199 0.36483604 4288780433
-0.028194482 -0.024056416 0.35846171 4288977812
-0.027578587 -0.024022864 0.35796174 4288846226
-0.026794598 -0.023838332 0.35521206 4288977812
-0.026148641 -0.02377123 0.35421216 4288977810
-0.02557811 -0.02377123 0.35421216 4289043603
-0.025016399 -0.023779618 0.35433716 4288846224
-0.024445668 -0.023779618 0.35433716 4288780431
-0.023874933 -0.023779618 0.35433716 4288977810
-0.023361742 -0.023838332 0.35521206 4289043603
-0.022829691 -0.023880271 0.35583699 4289043603
-0.02228781 -0.023913821 0.35633692 4289043603
-0.02175194 -0.023955762 0.35696188 4288780944
-0.021006435 -0.023762841 0.35408717 4288978323
-0.020436103 -0.023762841 0.35408717 4289044116
-0.0193679 -0.023167301 0.34521312 4288978323
-0.018811863 -0.023167301 0.34521312 4288978323
-0.018255826 -0.023167301 0.34521312 4288978323
-0.017392188 -0.022764685 0.33921376 4289043603
-0.016845815 -0.022764685 0.33921376 4289043603
-0.016353492 -0.022840176 0.34033865 4289109396
-0.015822716 -0.022865338 0.34071359 4289043603
-0.015329958 -0.022949217 0.34196347 4289109396
-0.014843975 -0.023049872 0.3434633 4289109396
-0.014301158 -0.023066647 0.34371328 4289175189
-0.013747537 -0.023066647 0.34371328 4289306775
-0.013083565 -0.022873726 0.34083858 4289306775
-0.012534573 -0.022873726 0.34083858 4289504154
-0.011910864 -0.022731133 0.33871382 4289504154
-0.011323357 -0.022647254 0.33746395 4289504154
-0.010763831 -0.022613702 0.33696401 4289504154
-0.010221081 -0.022613702 0.33696401 4289438361
-0.0096890992 -0.022638865 0.33733895 4289438363
-0.0091559105 -0.022664031 0.33771393 4289438363
-0.0086247008 -0.022697581 0.33821386 4289504156
-0.0080799377 -0.022697581 0.33821386 4289504156
-0.0075518806 -0.022747908 0.33896378 4289635742
-0.007011076 -0.022764685 0.33921376 4289635742
-0.0065123416 -0.022932442 0.34171349 4289569949
-0.0059968312 -0.023066647 0.34371328 4289701535
-0.0054432093 -0.023066647 0.34371328 4289767328
-0.0048522488 -0.022890503 0.34108856 4289767328
-0.0042650136 -0.022689193 0.33808887 4289898914
-0.0037204511 -0.022689193 0.33808887 4289701535
-0.0031664965 -0.022622092 0.337089 4289767330
-0.0026196532 -0.022588538 0.33658904 4289898916
-0.0020759637 -0.022571763 0.33633906 4289898916
-0.0015342195 -0.022571763 0.33633906 4289964709
-0.00099247543 -0.022571763 0.33633906 4289899429
-0.00045073143 -0.022571763 0.33633906 4289899429
9.1046422e-05 -0.022580151 0.33646405 4289965222
0.00063346204 -0.022596927 0.33671403 4289965222
0.00117581 -0.022596927 0.33671403 4289768613
0.0017219847 -0.022647254 0.33746395 4289834406
0.0022756096 -0.022747908 0.33896378 4290031015
0.0028111774 -0.022664031 0.33771393 4290031015
0.0033551359 -0.022664031 0.33771393 4289965222
0.0038947649 -0.022638865 0.33733895 4290031015
0.0044298982 -0.022596927 0.33671403 4290096808
0.004972246 -0.022596927 0.33671403 4290031015
0.0055145938 -0.022596927 0.33671403 4290030761
0.0060569416 -0.022596927 0.33671403 4290030761
0.0066017401 -0.022605315 0.33683902 4290293933
0.0071522417 -0.022630477 0.33721396 4290162347
0.0077010994 -0.022647254 0.33746395 4290359728
0.0082507627 -0.022664031 0.33771393 4290293935
0.0087947212 -0.022664031 0.33771393 4290293935
0.009345592 -0.022680806 0.33796391 4290162349
0.0098753236 -0.022647254 0.33746395 4290031531
0.010418879 -0.022647254 0.33746395 4290031531
0.010942134 -0.022605315 0.33683902 4290163117
0.011459115 -0.022554988 0.3360891 4290163117
0.01196029 -0.022479497 0.33496422 4290163117
0.012499821 -0.022479497 0.33496422 4290228910
0.013039351 -0.022479497 0.33496422 4290228910
0.01357888 -0.022479497 0.33496422 4290294703
0.014123677 -0.022487884 0.33508921 4290294703
0.014696225 -0.022538211 0.33583912 4290294703
0.015237163 -0.022538211 0.33583912 4290360496
0.015813334 -0.022588538 0.33658904 4290426289
0.016404068 -0.022655642 0.33758894 4290360496
0.017054493 -0.022798235 0.33971369 4290426289
0.017562818 -0.022747908 0.33896378 4290360496
0.018108789 -0.022747908 0.33896378 4290294703
0.018489674 -0.022546601 0.33596411 4290360496
0.018945856 -0.022445945 0.33446428 4290426289
0.019484581 -0.022445945 0.33446428 4290360498
0.020023305 -0.022445945 0.33446428 4290426291
0.020631183 -0.022521436 0.33558914 4290426291
0.021195376 -0.022546601 0.33596411 4290360498
0.021817379 -0.022630477 0.33721396 4290492084
0.022426836 -0.022697581 0.33821386 4290689463
0.023039512 -0.022764685 0.33921376 4290426291
0.023585888 -0.022764685 0.33921376 4290623670
0.024185611 -0.022815011 0.33996367 4290558390
0.024742287 -0.022823399 0.34008867 4290426804
0.025299367 -0.022831786 0.34021366 4290426804
0.025847349 -0.022831786 0.34021366 4290426804
0.026375942 -0.022815011 0.33996367 4290427572
0.026923522 -0.022815011 0.33996367 4290427572
0.027471105 -0.022815011 0.33996367 4290427572
0.02804959 -0.022840176 0.34033865 4290559158
0.028650288 -0.022882115 0.34096357 4290559160
0.029199483 -0.022882115 0.34096357 4290624953
0.029814104 -0.022932442 0.34171349 4290493367
0.030442249 -0.022991156 0.34258839 4290493367
0.031050595 -0.023033096 0.34321332 4290689976
0.031672467 -0.023083424 0.34396327 4290755769
0.032320168 -0.023150526 0.34496313 4290755769
0.032875806 -0.023150526 0.34496313 4290689976
0.033552572 -0.023234405 0.34621301 4290755769
0.034233361 -0.023318285 0.34746289 4290755769
0.034905661 -0.023393774 0.34858775 4290755516
0.035556149 -0.023452489 0.34946266 4290755516
0.036157787 -0.023477653 0.34983763 4290821309
0.036734395 -0.023486042 0.34996262 4290821309
0.037298083 -0.023486042 0.34996262 4290821562
0.037888814 -0.023502816 0.35021257 4290887355
0.038466625 -0.023511205 0.35033756 4290756539
0.039072692 -0.023536369 0.35071254 4290690746
0.039637588 -0.023536369 0.35071254 4290624953
0.040288448 -0.023586696 0.35146245 4290624953
0.041014366 -0.023678962 0.35283729 4290493624
0.041803632 -0.02380478 0.3547121 4290427831
0.042464558 -0.023855107 0.35546201 4290362038
0.043067366 -0.023871884 0.355712 4290362038
0.043655653 -0.023880271 0.35583699 4290494392
0.0442288 -0.023880271 0.35583699 4289968048
0.04480195 -0.023880271 0.35583699 4287926417
0.045709796 -0.024056416 0.35846171 4285755248
-0.05022423 -0.027662367 0.42232987 4288254350
-0.04941202 -0.02758869 0.42120501 4288254350
-0.048733585 -0.02758869 0.42120501 4288188557
-0.048055142 -0.02758869 0.42120501 4288254350
-0.047362644 -0.027580503 0.42108002 4288254099
-0.04668441 -0.027580503 0.42108002 4288254099
-0.046033479 -0.027596874 0.42132998 4288188306
-0.045381751 -0.027613249 0.42157996 4288254099
-0.044702709 -0.027613249 0.42157996 4288254099
-0.044036716 -0.027621435 0.42170495 4288254099
-0.027578587 -0.023446292 0.35796174 4288845712
-0.027002014 -0.023446292 0.35796174 4289108884
-0.026314722 -0.023348052 0.35646191 4289108884
-0.025740566 -0.023348052 0.35646191 4289174677
-0.025157584 -0.023339866 0.35633692 4288846224
-0.02458363 -0.023339866 0.35633692 4288780431
-0.024009675 -0.023339866 0.35633692 4288977810
-0.023443943 -0.023348052 0.35646191 4289043603
-0.022885824 -0.023364427 0.35671189 4288977810
-0.022319082 -0.023372613 0.35683689 4288977810
-0.02175194 -0.023380801 0.35696188 4288780944
-0.021021266 -0.023208883 0.35433716 4288912530
-0.020450531 -0.023208883 0.35433716 4288912530
-0.01943101 -0.022684943 0.346338 4288912530
-0.018873161 -0.022684943 0.346338 4288912530
-0.018315312 -0.022684943 0.346338 4288912530
-0.017392188 -0.022218309 0.33921376 4289043603
-0.016845815 -0.022218309 0.33921376 4289043603
-0.016371507 -0.022316547 0.34071359 4289043603
-0.01589237 -0.022414787 0.34221345 4289043603
-0.0154084 -0.022513025 0.34371328 4289043603
-0.014914198 -0.022603076 0.34508812 4289175189
-0.014405166 -0.022676757 0.34621301 4289175189
-0.013877513 -0.022725875 0.34696293 4289240982
-0.013155532 -0.022447532 0.34271339 4289240982
-0.012603519 -0.022447532 0.34271339 4289306775
-0.011910864 -0.022185564 0.33871382 4289438361
-0.011323357 -0.022103697 0.33746395 4289306775
-0.010779801 -0.022103697 0.33746395 4289438361
-0.010236246 -0.022103697 0.33746395 4289438361
-0.0097034592 -0.022128258 0.33783892 4289306775
-0.0091762422 -0.02216919 0.33846384 4289438361
-0.0086501986 -0.022218309 0.33921376 4289504154
-0.0081247268 -0.022275614 0.34008867 4289438361
-0.0075769424 -0.022275614 0.34008867 4289569947
-0.007047242 -0.02233292 0.34096357 4289438361
-0.0065552173 -0.022529399 0.34396327 4289569949
-0.0060229991 -0.022611262 0.34521312 4289767328
-0.0054788375 -0.022660382 0.34596303 4289767328
-0.0049180365 -0.022644011 0.34571308 4289701535
-0.0043154689 -0.0224066 0.34208846 4289767328
-0.0037644641 -0.0224066 0.34208846 4289701535
-0.0031794112 -0.02216919 0.33846384 4289701535
-0.0026245168 -0.022087323 0.33721396 4289767328
-0.002078278 -0.022054577 0.33671403 4289898916
-0.0015359299 -0.022054577 0.33671403 4289964709
-0.00099358195 -0.022054577 0.33671403 4289899429
-0.00045123394 -0.022054577 0.33671403 4289833636
9.1147893e-05 -0.022062765 0.33683902 4289899175
0.00063487288 -0.022103697 0.33746395 4289899175
0.0011836662 -0.022201935 0.33896378 4289768613
0.001729638 -0.022201935 0.33896378 4289834406
0.0023058169 -0.022496652 0.3434633 4290031015
0.0028351066 -0.022308361 0.3405886 4290031015
0.0033836954 -0.022308361 0.3405886 4289965222
0.0038933218 -0.022087323 0.33721396 4290031015
0.0044331867 -0.022070952 0.33696401 4290096808
0.004972246 -0.022054577 0.33671403 4290031015
0.0055145938 -0.022054577 0.33671403 4290096554
0.0060569416 -0.022054577 0.33671403 4290293933
0.0066041895 -0.022070952 0.33696401 4290096554
0.0071601947 -0.022111883 0.33758894 4290096554
0.0077210651 -0.022161003 0.33833885 4290162347
0.008281298 -0.022201935 0.33896378 4290162347
0.00883378 -0.022218309 0.33921376 4290293933
0.0093732411 -0.022201935 0.33896378 4290162347
0.0099082412 -0.022177376 0.33858883 4290031531
0.010434315 -0.022136444 0.33796391 4290031531
0.010978676 -0.022136444 0.33796391 4290031531
0.011493207 -0.022079138 0.337089 4290031531
0.01200938 -0.022030016 0.33633906 4290228910
0.012551126 -0.022030016 0.33633906 4290294703
0.013088006 -0.022021832 0.3362141 4290228910
0.013629548 -0.022021832 0.3362141 4290294703
0.014186894 -0.022046391 0.33658904 4290294703
0.014767326 -0.022103697 0.33746395 4290294703
0.015344906 -0.022152815 0.33821386 4290294703
0.015954262 -0.022242868 0.33958873 4290426289
0.016501242 -0.022242868 0.33958873 4290228910
0.017104691 -0.022316547 0.34071359 4290294703
0.017750621 -0.022439346 0.34258839 4290294705
0.018242333 -0.022365665 0.34146351 4290294705
0.018641004 -0.022185564 0.33871382 4290360496
0.019009573 -0.021980898 0.33558914 4290360496
0.019550111 -0.021980898 0.33558914 4290360496
0.020090647 -0.021980898 0.33558914 4290360496
0.020654235 -0.022005459 0.33596411 4290360496
0.021289999 -0.022103697 0.33746395 4290426289
0.021873984 -0.022144629 0.33808887 4290492082
0.022476563 -0.022201935 0.33896378 4290623668
0.02306498 -0.022242868 0.33958873 4290426291
0.023611959 -0.022242868 0.33958873 4290623670
0.024203395 -0.022283802 0.34021366 4290361011
0.024778659 -0.022308361 0.3405886 4290361011
0.025336543 -0.022316547 0.34071359 4290361009
0.025885332 -0.022316547 0.34071359 4290361009
0.026434124 -0.022316547 0.34071359 4290426802
0.026982913 -0.022316547 0.34071359 4290558388
0.027541803 -0.022324733 0.34083858 4290624181
0.028121697 -0.022349294 0.34121355 4290689974
0.028734308 -0.022398414 0.34196347 4290689974
0.029285112 -0.022398414 0.34196347 4290689974
0.029901342 -0.022447532 0.34271339 4290689976
0.030542206 -0.022513025 0.34371328 4290689976
0.03116367 -0.022562144 0.3444632 4290689976
0.031787556 -0.022611262 0.34521312 4290755769
0.032437272 -0.022676757 0.34621301 4290689976
0.033090215 -0.022742249 0.34721291 4290689976
0.033649474 -0.022742249 0.34721291 4290689976
0.034331869 -0.022824112 0.34846276 4290689976
0.034993269 -0.022889607 0.34946266 4290689976
0.03563245 -0.022938725 0.35021257 4290689976
0.036248215 -0.022971472 0.35071254 4290755769
0.036826231 -0.022979658 0.35083753 4290689976
0.037391327 -0.022979658 0.35083753 4290755769
0.037969947 -0.022987846 0.35096252 4290755769
0.038535245 -0.022987846 0.35096252 4290624953
0.03918409 -0.023036964 0.35171244 4290624953
0.039877728 -0.023110643 0.35283729 4290624953
0.040446047 -0.023110643 0.35283729 4290624953
0.041188713 -0.023208883 0.35433716 4290559160
0.042054042 -0.023372613 0.35683689 4290493367
0.042673595 -0.023397172 0.35721183 4290888125
0.043279223 -0.023413546 0.35746181 4290559160
0.043900996 -0.023438105 0.35783678 4288388243
0.044523969 -0.023462664 0.35821173 4286217074
0.045100942 -0.023462664 0.35821173 4284241749
-0.05236331 -0.027389362 0.4287042 4288386706
-0.05167279 -0.027389362 0.4287042 4288320913
-0.05022423 -0.026982116 0.42232987 4288123534
-0.04941202 -0.026910249 0.42120501 4288123534
-0.048733585 -0.026910249 0.42120501 4288188557
-0.048055142 -0.026910249 0.42120501 4288254350
-0.047362644 -0.026902264 0.42108002 4288254099
-0.04668441 -0.026902264 0.42108002 4288254099
-0.046033479 -0.026918232 0.42132998 4288385685
-0.045381751 -0.026934205 0.42157996 4288188306
-0.044702709 -0.026934205 0.42157996 4288254099
-0.044036716 -0.02694219 0.42170495 4288254099
-0.043383177 -0.02695816 0.42195493 4288319379
-0.027578587 -0.022869717 0.35796174 4288911507
-0.027002014 -0.022869717 0.35796174 4288911507
-0.026314722 -0.022773895 0.35646191 4288911505
-0.025740566 -0.022773895 0.35646191 4289174677
-0.025157584 -0.02276591 0.35633692 4288846226
-0.02458363 -0.02276591 0.35633692 4288846226
-0.024009675 -0.02276591 0.35633692 4288977810
-0.023443943 -0.022773895 0.35646191 4289043603
-0.022885824 -0.022789868 0.35671189 4288977810
-0.022319082 -0.022797853 0.35683689 4288977810
-0.02175194 -0.022805838 0.35696188 4288846226
-0.021021266 -0.022638148 0.35433716 4288977812
-0.020450531 -0.022638148 0.35433716 4288912530
-0.017757462 -0.022127092 0.346338 4288846226
-0.017174786 -0.022095149 0.34583804 4288714640
-0.016617741 -0.022095149 0.34583804 4289043603
-0.016060695 -0.022095149 0.34583804 4289043603
-0.015503652 -0.022095149 0.34583804 4289043603
-0.014962814 -0.022119107 0.34621301 4289109396
-0.014431167 -0.022159033 0.34683794 4289109396
-0.013967497 -0.022310752 0.34921271 4289175189
-0.013251488 -0.022055224 0.34521312 4289175189
-0.012695449 -0.022055224 0.34521312 4289175189
-0.012038323 -0.021871563 0.34233841 4289306775
-0.011331744 -0.02157611 0.33771393 4289240982
-0.010787786 -0.02157611 0.33771393 4289175189
-0.010243827 -0.02157611 0.33771393 4289175189
-0.0097178183 -0.021616036 0.33833885 4289240982
-0.0092033502 -0.021687904 0.33946374 4289306775
-0.0087043829 -0.021807684 0.34133855 4289438361
-0.0081934035 -0.021911491 0.34296337 4289306775
-0.0076688346 -0.021991342 0.34421322 4289438874
-0.0071634911 -0.022143064 0.34658799 4289373081
-0.0066290586 -0.022222914 0.34783784 4289438876
-0.0060796961 -0.02226284 0.34846276 4289636255
-0.0055184243 -0.02226284 0.34846276 4289636255
-0.0049180365 -0.022087166 0.34571308 4289636255
-0.0043611936 -0.022087166 0.34571308 4289701535
-0.0037658396 -0.02186358 0.34221345 4289701535
-0.0032146338 -0.02186358 0.34221345 4289701535
-0.0026361903 -0.021639993 0.33871382 4289767328
-0.0020821353 -0.021552155 0.33733895 4289833634
-0.0015387805 -0.021552155 0.33733895 4289899427
-0.00099505717 -0.02154417 0.33721396 4289833636
-0.00045190391 -0.02154417 0.33721396 4289833636
9.1418464e-05 -0.021584097 0.33783892 4289833636
0.00063698913 -0.021632008 0.33858883 4289899429
0.0011967599 -0.02189552 0.34271339 4289899429
0.0017525977 -0.021943431 0.3434633 4289965222
0.0023058169 -0.021943431 0.3434633 4289965222
0.0028403087 -0.021799698 0.34121355 4289965222
0.0033899043 -0.021799698 0.34121355 4289899429
0.0038933218 -0.02154417 0.33721396 4290031015
0.0044364752 -0.02154417 0.33721396 4290031015
0.0049777832 -0.021536184 0.337089 4290031015
0.0055207354 -0.021536184 0.337089 4290096808
0.0060636871 -0.021536184 0.337089 4290031015
0.0066164378 -0.021568125 0.33758894 4290096808
0.0071761003 -0.021616036 0.33833885 4290096808
0.0077524399 -0.021703873 0.33971369 4290096808
0.0083209947 -0.021759771 0.3405886 4290096808
0.0088728387 -0.021767756 0.34071359 4290162347
0.0094181718 -0.021759771 0.3405886 4290162347
0.009955789 -0.021735815 0.34021366 4290162347
0.010472903 -0.021671934 0.33921376 4290425519
0.011019277 -0.021671934 0.33921376 4290031531
0.011527298 -0.021600066 0.33808887 4290031531
0.012040621 -0.02154417 0.33721396 4290228910
0.012583775 -0.02154417 0.33721396 4290163117
0.013126927 -0.02154417 0.33721396 4290031531
0.01367008 -0.02154417 0.33721396 4290294703
0.01425011 -0.021600066 0.33808887 4290294705
0.014832959 -0.021655962 0.33896378 4290294705
0.015424295 -0.021719845 0.33996367 4290294703
0.016018854 -0.021783726 0.34096357 4290360496
0.016725954 -0.021991342 0.34421322 4290228910
0.017387051 -0.022127092 0.346338 4290294703
0.0179449 -0.022127092 0.346338 4290294703
0.018242333 -0.021815667 0.34146351 4290294703
0.018792331 -0.021815667 0.34146351 4290361009
0.019207811 -0.021663947 0.33908877 4290229423
0.019673893 -0.02157611 0.33771393 4290294703
0.020217851 -0.02157611 0.33771393 4290228910
0.02076181 -0.02157611 0.33771393 4290294703
0.021321541 -0.021592082 0.33796391 4290426289
0.021906331 -0.021632008 0.33858883 4290426289
0.02252629 -0.021703873 0.33971369 4290492082
0.023107426 -0.021735815 0.34021366 4290426291
0.023690172 -0.021767756 0.34071359 4290492084
0.024238961 -0.021767756 0.34071359 4290361011
0.024824126 -0.021799698 0.34121355 4290361011
0.025373721 -0.021799698 0.34121355 4290361011
0.025932813 -0.021807684 0.34133855 4290426804
0.02648261 -0.021807684 0.34133855 4290623668
0.027032405 -0.021807684 0.34133855 4290689461
0.0276125 -0.021831637 0.34171349 4290623668
0.028204106 -0.02186358 0.34221345 4290689461
0.028818326 -0.021911491 0.34296337 4290755254
0.029434962 -0.021959402 0.34371328 4290755254
0.029988583 -0.021959402 0.34371328 4290689976
0.030619949 -0.0220153 0.34458819 4290689976
0.031254131 -0.022071196 0.3454631 4290624183
0.031891134 -0.022127092 0.346338 4290624183
0.032530956 -0.022182988 0.34721291 4290558390
0.033197418 -0.022254856 0.3483378 4290689976
0.033867504 -0.022326723 0.34946266 4290689976
0.034430385 -0.022326723 0.34946266 4290689976
0.035093393 -0.022390604 0.35046256 4290624183
0.035734184 -0.022438515 0.35121247 4290689976
0.036338642 -0.022462472 0.35158744 4290624953
0.036918066 -0.022470457 0.35171244 4290493367
0.037484571 -0.022470457 0.35171244 4290559160
0.03805108 -0.022470457 0.35171244 4290559160
0.038617585 -0.022470457 0.35171244 4290427831
0.039323337 -0.022550309 0.35296229 4290559417
0.040004861 -0.02261419 0.35396218 4290559417
0.040875867 -0.022781881 0.3565869 4290427831
0.041566454 -0.022845764 0.3575868 4290493367
0.042142421 -0.022845764 0.3575868 4290230195
0.042957291 -0.022973528 0.3595866 4289439394
0.043521348 -0.022965543 0.35946161 4287136639
0.044100337 -0.022965543 0.35946161 4284307794
-0.059587084 -0.02815444 0.4520767 4288321167
-0.058858916 -0.02815444 0.4520767 4288321167
-0.054151736 -0.026901228 0.43195385 4288518805
-0.053455982 -0.026901228 0.43195385 4288453012
-0.05236331 -0.026698848 0.4287042 4288387219
-0.051446818 -0.026582088 0.4268294 4288321426
-0.050432321 -0.026410842 0.42407969 4288255120
-0.049514655 -0.0262863 0.42207992 4288255120
-0.048776966 -0.026255164 0.42157996 4288255120
-0.04809792 -0.026255164 0.42157996 4288123534
-0.047418877 -0.026255164 0.42157996 4288188559
-0.046753693 -0.026262948 0.42170495 4288254352
-0.04607445 -0.026262948 0.42170495 4288385685
-0.045408662 -0.026270732 0.42182994 4288254099
-0.044729214 -0.026270732 0.42182994 4288319379
-0.044062823 -0.026278516 0.42195493 4288450965
-0.043383177 -0.026278516 0.42195493 4288582290
-0.042728826 -0.026294082 0.42220488 4288450704
-0.042048778 -0.026294082 0.42220488 4288582290
-0.041380975 -0.026301866 0.42232987 4288713876
-0.025794718 -0.022246445 0.35721183 4289108886
-0.025201706 -0.022230878 0.35696188 4288714642
-0.024626747 -0.022230878 0.35696188 4288846228
-0.024051784 -0.022230878 0.35696188 4288977812
-0.023476824 -0.022230878 0.35696188 4288977812
-0.022901861 -0.022230878 0.35696188 4288780433
-0.0223269 -0.022230878 0.35696188 4288846226
-0.021759555 -0.022238661 0.35708684 4288846226
-0.021184392 -0.022238661 0.35708684 4288846226
-0.020609228 -0.022238661 0.35708684 4288846226
-0.018639185 -0.021950657 0.35246235 4288846224
-0.017757462 -0.021569245 0.346338 4288780431
-0.017174786 -0.021538107 0.34583804 4288780431
-0.016617741 -0.021538107 0.34583804 4288977810
-0.016060695 -0.021538107 0.34583804 4288977810
-0.015503652 -0.021538107 0.34583804 4288977810
-0.014962814 -0.021561461 0.34621301 4289043603
-0.014431167 -0.021600379 0.34683794 4289109396
-0.013907507 -0.021654867 0.34771284 4289109396
-0.013251488 -0.021499189 0.34521312 4289175189
-0.012631099 -0.021390213 0.3434633 4289175189
-0.012038323 -0.021320157 0.34233841 4289240982
-0.011331744 -0.021032155 0.33771393 4289109396
-0.010787786 -0.021032155 0.33771393 4289043603
-0.010243827 -0.021032155 0.33771393 4289043603
-0.0097178183 -0.021071073 0.33833885 4289240982
-0.0092033502 -0.021141129 0.33946374 4289306775
-0.0087043829 -0.021257889 0.34133855 4289438361
-0.0081934035 -0.021359079 0.34296337 4289306775
-0.0076688346 -0.021436917 0.34421322 4289438874
-0.0071634911 -0.021584813 0.34658799 4289373081
-0.0066290586 -0.021662651 0.34783784 4289438876
-0.0060796961 -0.021701571 0.34846276 4289570462
-0.0055184243 -0.021701571 0.34846276 4289570462
-0.0049180365 -0.021530325 0.34571308 4289570462
-0.0043611936 -0.021530325 0.34571308 4289701535
-0.0037658396 -0.021312375 0.34221345 4289701535
-0.0032146338 -0.021312375 0.34221345 4289964707
-0.0026361903 -0.021094425 0.33871382 4289964707
-0.0020821353 -0.021008801 0.33733895 4289833634
-0.0015387805 -0.021008801 0.33733895 4289899427
-0.00099505717 -0.021001017 0.33721396 4289833636
-0.00045190391 -0.021001017 0.33721396 4289833636
9.1418464e-05 -0.021039939 0.33783892 4289899429
0.00063698913 -0.021086641 0.33858883 4289899429
0.0011967599 -0.021343511 0.34271339 4289965222
0.0017525977 -0.021390213 0.3434633 4289833636
0.0023058169 -0.021390213 0.3434633 4289898916
0.0028403087 -0.021250105 0.34121355 4289964709
0.003377487 -0.021172263 0.33996367 4289964709
0.0038933218 -0.021001017 0.33721396 4290096295
0.0044331867 -0.020985451 0.33696401 4289965222
0.0049759378 -0.020985451 0.33696401 4290031015
0.0055207354 -0.020993235 0.337089 4290031015
0.0060636871 -0.020993235 0.337089 4290031015
0.0066164378 -0.021024371 0.33758894 4290096808
0.0071761003 -0.021071073 0.33833885 4290096808
0.0077524399 -0.021156695 0.33971369 4290096808
0.0083209947 -0.021211183 0.3405886 4290096808
0.0088728387 -0.021218967 0.34071359 4290096808
0.0094181718 -0.021211183 0.3405886 4290096808
0.009955789 -0.021187833 0.34021366 4290293933
0.010472903 -0.021125561 0.33921376 4290359726
0.011019277 -0.021125561 0.33921376 4290162347
0.011527298 -0.021055505 0.33808887 4290162347
0.012040621 -0.021001017 0.33721396 4290228910
0.012583775 -0.021001017 0.33721396 4290031531
0.013126927 -0.021001017 0.33721396 4290163119
0.01367008 -0.021001017 0.33721396 4290228912
0.01425011 -0.021055505 0.33808887 4290228912
0.014832959 -0.021109993 0.33896378 4290360498
0.015424295 -0.021172263 0.33996367 4290294705
0.016018854 -0.021234535 0.34096357 4290294705
0.016725954 -0.021436917 0.34421322 4290228912
0.017387051 -0.021569245 0.346338 4290228912
0.0179449 -0.021569245 0.346338 4290294705
0.018242333 -0.021265671 0.34146351 4290360498
0.018792331 -0.021265671 0.34146351 4290361009
0.019207811 -0.021117777 0.33908877 4290295216
0.019673893 -0.021032155 0.33771393 4290295216
0.020217851 -0.021032155 0.33771393 4290163630
0.02076181 -0.021032155 0.33771393 4290294703
0.021321541 -0.021047723 0.33796391 4290360496
0.021906331 -0.021086641 0.33858883 4290360496
0.02252629 -0.021156695 0.33971369 4290492082
0.023107426 -0.021187833 0.34021366 4290426291
0.023690172 -0.021218967 0.34071359 4290492084
0.024238961 -0.021218967 0.34071359 4290361011
0.024824126 -0.021250105 0.34121355 4290361011
0.025373721 -0.021250105 0.34121355 4290361011
0.025932813 -0.021257889 0.34133855 4290426804
0.02648261 -0.021257889 0.34133855 4290492082
0.027032405 -0.021257889 0.34133855 4290492082
0.0276125 -0.021281239 0.34171349 4290492082
0.028204106 -0.021312375 0.34221345 4290689461
0.028818326 -0.021359079 0.34296337 4290689463
0.029434962 -0.021405783 0.34371328 4290689463
0.029988583 -0.021405783 0.34371328 4290558390
0.030619949 -0.021460269 0.34458819 4290689976
0.031254131 -0.021514757 0.3454631 4290624183
0.031891134 -0.021569245 0.346338 4290558390
0.032530956 -0.021623733 0.34721291 4290229425
0.033197418 -0.021693787 0.3483378 4290624183
0.033867504 -0.021763841 0.34946266 4290689976
0.034430385 -0.021763841 0.34946266 4290689976
0.035093393 -0.021826113 0.35046256 4290493367
0.035734184 -0.021872817 0.35121247 4290559160
0.036338642 -0.021896169 0.35158744 4290559160
0.036918066 -0.021903953 0.35171244 4290427574
0.037484571 -0.021903953 0.35171244 4290427321
0.03805108 -0.021903953 0.35171244 4290295735
0.038617585 -0.021903953 0.35171244 4290230452
0.039295491 -0.021966225 0.35271233 4290362038
0.040004861 -0.022044063 0.35396218 4290362038
0.040875867 -0.022207525 0.3565869 4290033073
0.041566454 -0.022269797 0.3575868 4290295988
0.042142421 -0.022269797 0.3575868 4290230195
0.042957291 -0.02239434 0.3595866 4285885802
0.043521348 -0.022386556 0.35946161 4283451461
0.044100337 -0.022386556 0.35946161 4282464568
-0.059372921 -0.027327703 0.45045188 4288255374
-0.058647372 -0.027327703 0.45045188 4288255374
-0.057921831 -0.027327703 0.45045188 4288320913
-0.055450559 -0.026493618 0.43670335 4288452499
-0.054120395 -0.026190313 0.43170387 4288781977
-0.053425048 -0.026190313 0.43170387 4288518805
-0.052470174 -0.026061408 0.42957911 4288387219
-0.051446818 -0.025894592 0.4268294 4288321426
-0.050759319 -0.025894592 0.4268294 4288320913
-0.049675941 -0.025689861 0.42345476 4288320913
-0.048820347 -0.025598871 0.42195493 4288451729
-0.048140701 -0.025598871 0.42195493 4288254350
-0.047461055 -0.025598871 0.42195493 4288385938
-0.04678141 -0.025598871 0.42195493 4288254352
-0.046115417 -0.025606453 0.42207992 4288385938
-0.04543557 -0.025606453 0.42207992 4288385938
-0.044755723 -0.025606453 0.42207992 4288319632
-0.044075873 -0.025606453 0.42207992 4288451218
-0.043408878 -0.025614034 0.42220488 4288582290
-0.042728826 -0.025614034 0.42220488 4288450704
-0.042048778 -0.025614034 0.42220488 4288450704
-0.041258514 -0.025545793 0.42108002 4288450704
-0.040580276 -0.025545793 0.42108002 4288712853
-0.039913882 -0.025553375 0.42120501 4288778646
-0.039235443 -0.025553375 0.42120501 4288778646
-0.022561423 -0.021883395 0.36071146 4288780433
-0.021980425 -0.021883395 0.36071146 4288846226
-0.021569967 -0.022057794 0.36358616 4288846226
-0.018639185 -0.021382943 0.35246235 4288846224
-0.018071471 -0.021382943 0.35246235 4288846224
-0.01716858 -0.020973483 0.34571308 4288846224
-0.016611736 -0.020973483 0.34571308 4288846224
-0.016054893 -0.020973483 0.34571308 4288977810
-0.015503652 -0.020981064 0.34583804 4288977810
-0.014973618 -0.021018978 0.34646299 4288977810
-0.014467571 -0.021094803 0.34771284 4289043603
-0.013907507 -0.021094803 0.34771284 4289043603
-0.013342645 -0.02108722 0.34758785 4289109396
-0.012631099 -0.020836994 0.3434633 4289109396
-0.012077879 -0.020836994 0.3434633 4289175189
-0.011478529 -0.020753587 0.34208846 4289109396
-0.010927524 -0.020753587 0.34208846 4289043603
-0.010380311 -0.020761169 0.34221345 4289043603
-0.0098362844 -0.020776333 0.3424634 4289372054
-0.0092846761 -0.020776333 0.3424634 4289437847
-0.008796812 -0.020927986 0.34496313 4289306775
-0.0082770092 -0.021018978 0.34646299 4289306775
-0.0077300961 -0.021049308 0.34696293 4289438361
-0.0071996571 -0.021132717 0.3483378 4289306775
-0.0066409684 -0.021140298 0.34846276 4289438876
-0.0060818768 -0.021147881 0.34858775 4289438876
-0.0055204039 -0.021147881 0.34858775 4289373083
-0.0049535967 -0.021125134 0.34821281 4289570462
-0.0043895743 -0.021109968 0.34796283 4289636255
-0.0038015998 -0.020958317 0.3454631 4289636255
-0.0032169817 -0.020776333 0.3424634 4289702048
-0.002665373 -0.020776333 0.3424634 4289833634
-0.002093707 -0.020579185 0.33921376 4289702048
-0.0015473325 -0.020579185 0.33921376 4289702048
-0.0009976388 -0.020510942 0.33808887 4289833636
-0.00045307638 -0.020510942 0.33808887 4289833636
9.151992e-05 -0.020518525 0.33821386 4289833636
0.00064028107 -0.020647431 0.34033865 4289899429
0.0011976328 -0.020806665 0.34296337 4289899429
0.001760251 -0.020927986 0.34496313 4289899429
0.0023175641 -0.020943152 0.34521312 4289898916
0.0028569549 -0.020821828 0.34321332 4289898916
0.003377487 -0.020624682 0.33996367 4289898916
0.0039250688 -0.020624682 0.33996367 4290030502
0.0044331867 -0.0204427 0.33696401 4289964709
0.0049759378 -0.0204427 0.33696401 4290030502
0.005522782 -0.020457864 0.33721396 4289965222
0.0060659349 -0.020457864 0.33721396 4290031015
0.0066384845 -0.020548856 0.33871382 4290096808
0.0072026099 -0.020601936 0.33958873 4290096808
0.0077724056 -0.020662595 0.3405886 4290096808
0.0083362628 -0.020700509 0.34121355 4290096808
0.0088988775 -0.020730838 0.34171349 4290096808
0.009449278 -0.020730838 0.34171349 4290096808
0.0099996794 -0.020730838 0.34171349 4290293933
0.010526927 -0.020685343 0.34096357 4290293933
0.011051758 -0.020639848 0.34021366 4290162347
0.011599743 -0.020639848 0.34021366 4290293933
0.012134339 -0.020617099 0.33983868 4290163117
0.012677057 -0.020609517 0.33971369 4290163117
0.013224236 -0.020609517 0.33971369 4290163117
0.013781549 -0.020624682 0.33996367 4290228910
0.014329132 -0.020624682 0.33996367 4290228912
0.014887652 -0.020639848 0.34021366 4290294705
0.015475332 -0.020692926 0.34108856 4290294705
0.016036471 -0.020708092 0.34133855 4290228912
0.016732028 -0.020890072 0.34433821 4290228912
0.017430972 -0.021064473 0.34721291 4290163119
0.017990232 -0.021064473 0.34721291 4290360498
0.018322462 -0.020806665 0.34296337 4290294705
0.01885424 -0.020783916 0.34258839 4290361011
0.019229053 -0.020594353 0.33946374 4290295218
0.01977583 -0.020594353 0.33946374 4290295216
0.020322608 -0.020594353 0.33946374 4290229423
0.020877067 -0.020601936 0.33958873 4290294703
0.021424048 -0.020601936 0.33958873 4290360496
0.021987196 -0.020617099 0.33983868 4290360496
0.022559442 -0.020639848 0.34021366 4290492082
0.02314138 -0.020670177 0.34071359 4290426289
0.023751006 -0.020723255 0.3415885 4290492082
0.024301203 -0.020723255 0.3415885 4290426289
0.024942335 -0.020799082 0.34283838 4290426289
0.02555961 -0.02085216 0.34371328 4290426289
0.026056256 -0.020806665 0.34296337 4290492082
0.026608672 -0.020806665 0.34296337 4290623668
0.027151184 -0.020799082 0.34283838 4290492082
0.027693298 -0.020791499 0.34271339 4290426802
0.028245308 -0.020791499 0.34271339 4290558388
0.028902344 -0.020867325 0.34396327 4290558390
0.029531296 -0.020920405 0.34483817 4290558390
0.030163063 -0.020973483 0.34571308 4290558390
0.030719906 -0.020973483 0.34571308 4290624183
0.031344593 -0.021018978 0.34646299 4290558390
0.031994715 -0.021079639 0.34746289 4290558390
0.032648057 -0.021140298 0.34846276 4290361011
0.033304621 -0.021200959 0.34946266 4290558390
0.033976521 -0.021269204 0.35058755 4290689976
0.034639727 -0.021329865 0.35158744 4290689976
0.035206031 -0.021329865 0.35158744 4290624183
0.035835918 -0.021367777 0.35221237 4290689976
0.036454905 -0.021398108 0.35271233 4290493367
0.03706238 -0.021420855 0.35308728 4290427574
0.03764442 -0.021428438 0.35321227 4290427321
0.03819982 -0.021420855 0.35308728 4290427321
0.038727373 -0.021398108 0.35271233 4289967797
0.039295491 -0.021398108 0.35271233 4290099383
0.040103745 -0.021527011 0.35483709 4290625210
0.040990487 -0.021693829 0.3575868 4289967280
0.041769855 -0.021799985 0.35933661 4291677639
0.042569593 -0.021913726 0.36121142 4289638056
0.043151397 -0.021913726 0.36121142 4284110161
0.043733202 -0.021913726 0.36121142 4282399543
-0.059372921 -0.026602156 0.45045188 4288123534
-0.058647372 -0.026602156 0.45045188 4288255120
-0.057921831 -0.026602156 0.45045188 4288321428
-0.055450559 -0.025790215 0.43670335 4288453014
-0.054120395 -0.025494961 0.43170387 4288781977
-0.053425048 -0.025494961 0.43170387 4288584598
-0.052470174 -0.02536948 0.42957911 4288452499
-0.05164266 -0.025303049 0.42845422 4288452499
-0.050952546 -0.025303049 0.42845422 4288451729
-0.049881212 -0.025111135 0.42520458 4288451729
-0.048950493 -0.024985652 0.42307979 4288517009
-0.048269037 -0.024985652 0.42307979 4288451216
-0.047489166 -0.024933985 0.42220488 4288451218
-0.046809122 -0.024933985 0.42220488 4288451218
-0.04612907 -0.024933985 0.42220488 4288451218
-0.045462478 -0.024941366 0.42232987 4288517011
-0.044782229 -0.024941366 0.42232987 4288451218
-0.044101976 -0.024941366 0.42232987 4288517011
-0.043434579 -0.024948748 0.42245486 4288648081
-0.042754125 -0.024948748 0.42245486 4288450702
-0.042073674 -0.024948748 0.42245486 4288449932
-0.041258514 -0.024867553 0.42108002 4288515725
-0.040580276 -0.024867553 0.42108002 4288581520
-0.039913882 -0.024874935 0.42120501 4288515727
-0.039235443 -0.024874935 0.42120501 4288449681
-0.024997557 -0.022446491 0.3800844 4288911507
-0.024353275 -0.022416968 0.37958446 4288911507
-0.023741875 -0.022416968 0.37958446 4288911507
-0.01716858 -0.020416638 0.34571308 4288846224
-0.016611736 -0.020416638 0.34571308 4288846224
-0.016054893 -0.020416638 0.34571308 4288846224
-0.015520462 -0.020446163 0.34621301 4288846224
-0.015006028 -0.020505214 0.34721291 4288977810
-0.014519575 -0.020608552 0.34896272 4289043603
-0.013967497 -0.020623315 0.34921271 4289043603
-0.013414612 -0.020638077 0.34946266 4289109396
-0.012787378 -0.020534737 0.34771284 4289109396
-0.012227315 -0.020534737 0.34771284 4289109396
-0.011537243 -0.020305919 0.34383827 4289043603
-0.01098342 -0.020305919 0.34383827 4289174929
-0.010456135 -0.020357588 0.34471318 4289174929
-0.0099403905 -0.020438781 0.34608802 4289306515
-0.0094269952 -0.020534737 0.34771284 4289438101
-0.0088764941 -0.020556882 0.34808782 4289437847
-0.0083158268 -0.020556882 0.34808782 4289437847
-0.0077635115 -0.020579025 0.34846276 4289438361
-0.0072022397 -0.020579025 0.34846276 4289438361
-0.0066481144 -0.02060117 0.34883773 4289438363
-0.0060993223 -0.020645458 0.34958765 4289569949
-0.0055322801 -0.020630695 0.34933767 4289570462
-0.0049678213 -0.020623315 0.34921271 4289504669
-0.0043895743 -0.0205495 0.34796283 4289504669
-0.0038291076 -0.0205495 0.34796283 4289570462
-0.0032416375 -0.020379731 0.34508812 4289636255
-0.0026838556 -0.02036497 0.34483817 4289636255
-0.0021153074 -0.020239487 0.34271339 4289636255
-0.001554174 -0.020121386 0.34071359 4289570462
-0.0010053839 -0.020121386 0.34071359 4289702050
-0.0004569288 -0.02013615 0.34096357 4289702050
9.2263988e-05 -0.02013615 0.34096357 4289833636
0.00064615952 -0.020283774 0.3434633 4289899429
0.0012011245 -0.0203133 0.34396327 4289899429
0.0017615266 -0.020387113 0.34521312 4289899429
0.0023175641 -0.020387113 0.34521312 4289833636
0.0028808843 -0.020438781 0.34608802 4289833636
0.0034072883 -0.020254251 0.34296337 4289833636
0.0039568157 -0.020239487 0.34271339 4289899429
0.0044562081 -0.020003287 0.33871382 4289899429
0.0049999314 -0.019995905 0.33858883 4289833636
0.005545299 -0.019995905 0.33858883 4289965222
0.0061086533 -0.020054955 0.33958873 4290031015
0.0066556316 -0.020054955 0.33958873 4290031015
0.0072317701 -0.02013615 0.34096357 4290096808
0.0077923713 -0.020165673 0.34146351 4290096808
0.0083484771 -0.020180436 0.34171349 4290096808
0.0089021325 -0.020187818 0.34183848 4290096808
0.0094700148 -0.020224724 0.3424634 4290096808
0.010021624 -0.020224724 0.3424634 4290162601
0.010573233 -0.020224724 0.3424634 4290162601
0.011116722 -0.020209963 0.34221345 4290096808
0.011667927 -0.020209963 0.34221345 4290096808
0.012205744 -0.020187818 0.34183848 4290096808
0.012751683 -0.020180436 0.34171349 4290294187
0.013292352 -0.020165673 0.34146351 4290163117
0.013837284 -0.020158293 0.34133855 4290163117
0.01438708 -0.020158293 0.34133855 4290163117
0.014936877 -0.020158293 0.34133855 4290228910
0.015503685 -0.020180436 0.34171349 4290163119
0.016054086 -0.020180436 0.34171349 4289965740
0.016738102 -0.020342825 0.3444632 4290228912
0.017506268 -0.020593788 0.34871274 4290163119
0.018093847 -0.020623315 0.34921271 4290228912
0.018509427 -0.020460926 0.34646299 4290294705
0.01885424 -0.020232106 0.34258839 4290361009
0.019406049 -0.020232106 0.34258839 4290163630
0.019848641 -0.020121386 0.34071359 4290229423
0.020397432 -0.020121386 0.34071359 4290229423
0.02096159 -0.02013615 0.34096357 4290360496
0.021526555 -0.020150911 0.34121355 4290360496
0.022076149 -0.020150911 0.34121355 4290360496
0.022650607 -0.020173054 0.3415885 4290426289
0.023260228 -0.020224724 0.3424634 4290426289
0.023924815 -0.02032068 0.34408823 4290426289
0.024612416 -0.020431399 0.34596303 4290426289
0.025242407 -0.020490451 0.34696293 4290360496
0.025801264 -0.020490451 0.34696293 4290426289
0.026255667 -0.020409256 0.34558809 4290492082
0.026705639 -0.020328062 0.34421322 4290426802
0.027260065 -0.020328062 0.34421322 4290361009
0.027814494 -0.020328062 0.34421322 4290426802
0.028399823 -0.020350207 0.34458819 4290558388
0.028986361 -0.02037235 0.34496313 4290427574
0.029627627 -0.020431399 0.34596303 4290493367
0.030283015 -0.020497832 0.34708792 4290295988
0.030908711 -0.020542119 0.34783784 4290427574
0.031468976 -0.020542119 0.34783784 4290558390
0.032109804 -0.020593788 0.34871274 4290558390
0.032753449 -0.020645458 0.34958765 4290361011
0.033423737 -0.020711889 0.35071254 4290426804
0.034097649 -0.020778323 0.35183743 4290558390
0.034750555 -0.020829991 0.35271233 4290558390
0.035393767 -0.020874279 0.35346225 4290558390
0.035963088 -0.020874279 0.35346225 4290624183
0.036597002 -0.020911183 0.35408717 4290624183
0.037232932 -0.02094809 0.3547121 4290426804
0.03781759 -0.020955471 0.35483709 4290295735
0.038402651 -0.020962853 0.35496208 4290295735
0.038974389 -0.020962853 0.35496208 4290099385
0.039587904 -0.020984996 0.35533702 4288257181
0.040202625 -0.021007141 0.355712 4287005315
0.041119434 -0.021184292 0.35871169 4285886834
0.042133071 -0.02140573 0.36246127 4287531659
0.042805269 -0.021450017 0.36321118 4288058003
-0.059175231 -0.025790451 0.44895205 4288320913
-0.0584521 -0.025790451 0.44895205 4288386706
-0.057728972 -0.025790451 0.44895205 4288453012
-0.055450559 -0.025086813 0.43670335 4288584598
-0.054089062 -0.024785254 0.43145391 4288781977
-0.053394113 -0.024785254 0.43145391 4288584598
-0.052470174 -0.024677554 0.42957911 4288583315
-0.05164266 -0.024612935 0.42845422 4288583315
-0.050952546 -0.024612935 0.42845422 4288517009
-0.049881212 -0.024426255 0.42520458 4288517009
-0.048950493 -0.024304196 0.42307979 4288648081
-0.048269037 -0.024304196 0.42307979 4288582288
-0.047489166 -0.024253936 0.42220488 4288582290
-0.046809122 -0.024253936 0.42220488 4288582290
-0.04612907 -0.024253936 0.42220488 4288451218
-0.045462478 -0.024261115 0.42232987 4288319632
-0.044782229 -0.024261115 0.42232987 4288451218
-0.044101976 -0.024261115 0.42232987 4288977562
-0.043434579 -0.024268296 0.42245486 4288845460
-0.042754125 -0.024268296 0.42245486 4288582288
-0.042073674 -0.024268296 0.42245486 4288449932
-0.041258514 -0.024189318 0.42108002 4288449932
-0.040580276 -0.024189318 0.42108002 4288515725
-0.039913882 -0.024196498 0.42120501 4288384139
-0.039072447 -0.024095979 0.4194552 4288515727
-0.038259532 -0.024009816 0.41795534 4288515727
-0.037586328 -0.024009816 0.41795534 4288844692
-0.024997557 -0.021834286 0.3800844 4288713874
-0.024353275 -0.021805568 0.37958446 4288911253
-0.023741875 -0.021805568 0.37958446 4288911253
-0.01716858 -0.019859796 0.34571308 4288846224
-0.016611736 -0.019859796 0.34571308 4288846224
-0.016054893 -0.019859796 0.34571308 4288846224
-0.015520462 -0.019888515 0.34621301 4288846224
-0.015006028 -0.019945955 0.34721291 4288977810
-0.014529977 -0.020060835 0.34921271 4288977810
-0.013982493 -0.020082373 0.34958765 4289043603
-0.01341941 -0.020082373 0.34958765 4288978064
-0.012810362 -0.020010576 0.3483378 4289175443
-0.01223171 -0.019981854 0.34783784 4289371538
-0.011671445 -0.019981854 0.34783784 4289305745
-0.011115173 -0.019989034 0.34796283 4289174927
-0.010554707 -0.019989034 0.34796283 4289306513
-0.0099978289 -0.019996215 0.34808782 4289306513
-0.0094541041 -0.020032113 0.34871274 4289438099
-0.0088988049 -0.020046474 0.34896272 4289437847
-0.0083397143 -0.020053655 0.34908772 4289437847
-0.0077774352 -0.020053655 0.34908772 4289437847
-0.0072151567 -0.020053655 0.34908772 4289437847
-0.0066552609 -0.020060835 0.34921271 4289438363
-0.0060993223 -0.020082373 0.34958765 4289569949
-0.0055362387 -0.020082373 0.34958765 4289569949
-0.0049713771 -0.020075195 0.34946266 4289569949
-0.0043958812 -0.020017754 0.34846276 4289504156
-0.0038346092 -0.020017754 0.34846276 4289569949
-0.0032569005 -0.019917235 0.34671295 4289636255
-0.0026838556 -0.019809537 0.34483817 4289636255
-0.002128422 -0.019809537 0.34483817 4289570462
-0.0015667168 -0.019730555 0.3434633 4289438876
-0.0010134978 -0.019730555 0.3434633 4289636255
-0.00046027871 -0.019730555 0.3434633 4289636255
9.2940405e-05 -0.019730555 0.3434633 4289702050
0.00064615952 -0.019730555 0.3434633 4289833636
0.0012037432 -0.019802356 0.34471318 4289833636
0.0017679044 -0.019902876 0.34646299 4289833636
0.0023427368 -0.020046474 0.34896272 4289833636
0.0029068948 -0.020060835 0.34921271 4289702050
0.0034333644 -0.019852616 0.34558809 4289899429
0.0039568157 -0.019687476 0.34271339 4289899429
0.0045088273 -0.019687476 0.34271339 4290031015
0.0050386908 -0.019601317 0.34121355 4289833636
0.0055882856 -0.019601317 0.34121355 4289965222
0.006137881 -0.019601317 0.34121355 4289965222
0.0066874768 -0.019601317 0.34121355 4289900199
0.0072370721 -0.019601317 0.34121355 4289834406
0.0077952235 -0.019622855 0.3415885 4289900199
0.0083698519 -0.019680295 0.34258839 4289900199
0.0089249173 -0.019687476 0.34271339 4290031015
0.009476928 -0.019687476 0.34271339 4289965222
0.01002894 -0.019687476 0.34271339 4290096554
0.010588668 -0.019701837 0.34296337 4290030761
0.011149202 -0.019716196 0.34321332 4290030761
0.011702018 -0.019716196 0.34321332 4290030761
0.012254834 -0.019716196 0.34321332 4289965738
0.012802989 -0.019709017 0.34308836 4290031531
0.013331275 -0.019673115 0.3424634 4290163117
0.013862617 -0.019644396 0.34196347 4290031531
0.014413421 -0.019644396 0.34196347 4290031531
0.014964224 -0.019644396 0.34196347 4290031531
0.015515027 -0.019644396 0.34196347 4289966253
0.016071703 -0.019651577 0.34208846 4289900460
0.016750248 -0.019802356 0.34471318 4290163632
0.017543916 -0.020075195 0.34946266 4289900460
0.018093847 -0.020060835 0.34921271 4289900460
0.018656326 -0.020060835 0.34921271 4290163632
0.019026205 -0.019859796 0.34571308 4290360496
0.019583048 -0.019859796 0.34571308 4290294703
0.019936018 -0.019658757 0.34221345 4290294703
0.020487223 -0.019658757 0.34221345 4290360496
0.021053795 -0.019673115 0.3424634 4290360496
0.021668486 -0.019730555 0.3434633 4290426289
0.022278311 -0.019780815 0.34433821 4290360496
0.022832939 -0.019780815 0.34433821 4290360496
0.02346397 -0.019845435 0.3454631 4290294703
0.024133386 -0.019938774 0.34708792 4290426289
0.02479025 -0.020017754 0.34846276 4290426289
0.025433362 -0.020082373 0.34958765 4290360496
0.025940681 -0.020039294 0.34883773 4290360496
0.026502555 -0.020039294 0.34883773 4290426289
0.026928673 -0.019938774 0.34708792 4290426802
0.027398642 -0.019874156 0.34596303 4290361009
0.02795589 -0.019874156 0.34596303 4290361011
0.028513134 -0.019874156 0.34596303 4290426804
0.029101888 -0.019895695 0.346338 4290295988
0.029809589 -0.019996215 0.34808782 4290295988
0.030490208 -0.020075195 0.34946266 4290361011
0.031164156 -0.020146994 0.35071254 4290426804
0.031796895 -0.020190073 0.35146245 4290558390
