# .PCD v0.7 - Point Cloud Data file format
VERSION 0.7
FIELDS x y z rgba
SIZE 4 4 4 4
TYPE F F F U
COUNT 1 1 1 1
WIDTH 1010
HEIGHT 1
VIEWPOINT 0 0 0 1 0 0 0
POINTS 1010
DATA ascii
-0.0087976428 -0.056513064 0.23922445 4291546059
-0.0083683701 -0.056217801 0.23797457 4291677388
-0.0079850629 -0.056217801 0.23797457 4291940560
-0.0076017557 -0.056217801 0.23797457 4291940560
-0.0072184484 -0.056217801 0.23797457 4291677388
-0.0068351403 -0.056217801 0.23797457 4291677388
-0.0064586103 -0.056276854 0.23822455 4291677388
-0.0060749003 -0.056276854 0.23822455 4291611852
-0.0057120919 -0.056483537 0.23909946 4291611852
-0.0053854492 -0.057103585 0.24172418 4291546059
-0.0050374349 -0.057576004 0.24372396 4291611852
-0.0046448666 -0.057576004 0.24372396 4291808974
-0.0041956012 -0.056808326 0.24047431 4291874767
-0.0038082674 -0.056808326 0.24047431 4291874767
-0.0033942629 -0.056365434 0.23859951 4291808974
-0.0030052187 -0.056276854 0.23822455 4291874769
-0.0026215084 -0.056276854 0.23822455 4291874769
-0.0022377984 -0.056276854 0.23822455 4291808976
-0.001854088 -0.056276854 0.23822455 4291611597
-0.0014703778 -0.056276854 0.23822455 4291677390
-0.0010866675 -0.056276854 0.23822455 4291808976
-0.00070332619 -0.056306381 0.23834954 4291808976
-0.00031907967 -0.056247327 0.23809956 4291808976
6.4023363e-05 -0.055893015 0.23659973 4291808976
0.00044511646 -0.055893015 0.23659973 4291874769
0.00082577305 -0.055863488 0.23647474 4292006355
0.0011900828 -0.055095807 0.23322508 4292006355
0.001553154 -0.054652918 0.23135029 4292006355
0.0019257917 -0.054652918 0.23135029 4291874769
0.0022984296 -0.054652918 0.23135029 4291874769
0.0026869406 -0.054977704 0.23272514 4291940562
0.0030782365 -0.055272967 0.23397501 4291808981
0.0034938613 -0.055893015 0.23659973 4291743188
0.0038790482 -0.055952065 0.2368497 4291743188
0.0042605437 -0.055952065 0.2368497 4291808981
0.0046444894 -0.055981595 0.23697469 4291808981
0.0050102808 -0.055804439 0.23622477 4291940567
0.0053907698 -0.055804439 0.23622477 4291678165
0.005707134 -0.055184387 0.23360005 4291678165
0.0060833953 -0.055184387 0.23360005 4291809235
0.0064596566 -0.055184387 0.23360005 4291809235
0.0067335078 -0.054357655 0.23010042 4291875026
0.0070925555 -0.054269075 0.22972545 4291809233
0.007462576 -0.054269075 0.22972545 4291875026
0.0078965183 -0.054711968 0.23160025 4291940819
0.0083722034 -0.05539107 0.23447496 4292006353
0.0088384924 -0.055952065 0.2368497 4292072146
0.0092199882 -0.055952065 0.2368497 4292006353
0.0096166842 -0.056040645 0.23722465 4292072146
0.01000932 -0.056099698 0.23747464 4292006353
0.01040276 -0.056158748 0.2377246 4291940560
0.010791336 -0.056188278 0.23784959 4291940562
0.011197931 -0.056306381 0.23834954 4292006355
0.011563622 -0.056217801 0.23797457 4291874769
0.011921832 -0.056099698 0.23747464 4292006355
0.012304334 -0.056099698 0.23747464 4291940562
0.012666805 -0.056011122 0.23709968 4292006355
0.013048703 -0.056011122 0.23709968 4291874769
0.013451841 -0.056099698 0.23747464 4291808976
0.013834343 -0.056099698 0.23747464 4291874769
0.01423181 -0.056158748 0.2377246 4292006355
0.014614715 -0.056158748 0.2377246 4291875026
0.015013391 -0.056217801 0.23797457 4291875026
0.015412871 -0.056276854 0.23822455 4291875026
0.01580487 -0.056306381 0.23834954 4291940819
0.016239716 -0.056483537 0.23909946 4291874769
0.016807334 -0.057103585 0.24172418 4291874769
0.017410083 -0.057812214 0.24472386 4292006355
0.017658774 -0.057339799 0.24272408 4291874769
0.017966082 -0.057074059 0.24159919 4291874769
0.018184304 -0.056542587 0.23934942 4291874769
0.018569827 -0.056542587 0.23934942 4291874767
0.018925652 -0.05645401 0.23897447 4291940560
0.019290373 -0.056394961 0.2387245 4292006353
0.019674886 -0.056394961 0.2387245 4291940560
0.020069905 -0.056424484 0.23884948 4291875024
0.020454623 -0.056424484 0.23884948 4291809231
0.020850243 -0.05645401 0.23897447 4291875026
0.021268481 -0.056542587 0.23934942 4291875026
0.021676617 -0.056601644 0.23959941 4291808976
0.022166122 -0.056867376 0.24072428 4291808976
0.022729512 -0.057310272 0.24259908 4291875026
0.023120269 -0.057310272 0.24259908 4291809233
0.023305107 -0.056808326 0.24047431 4291809231
0.023655498 -0.056719746 0.24009936 4291809231
0.024042228 -0.056719746 0.24009936 4291808974
0.024378091 -0.056601644 0.23959941 4291677388
0.024764016 -0.056601644 0.23959941 4291677388
0.02516306 -0.056631166 0.23972438 4291677388
0.025562506 -0.056660693 0.23984937 4291677388
0.025948834 -0.056660693 0.23984937 4291677388
0.026376329 -0.056749273 0.24022433 4291677388
0.026791112 -0.056808326 0.24047431 4291611595
0.027206697 -0.056867376 0.24072428 4291480266
0.027594434 -0.056867376 0.24072428 4291414473
0.027982172 -0.056867376 0.24072428 4291546059
0.028266797 -0.056660693 0.23984937 4291480266
0.028653124 -0.056660693 0.23984937 4291480266
0.029054584 -0.05669022 0.23997436 4291348680
0.029441115 -0.05669022 0.23997436 4291348680
0.029982993 -0.056985483 0.24122423 4291282887
0.030387273 -0.057015009 0.24134922 4291282887
0.030823831 -0.057103585 0.24172418 4291282887
0.031229317 -0.057133116 0.24184917 4291282887
0.031667884 -0.057221692 0.24222413 4291151301
0.032058038 -0.057221692 0.24222413 4291151301
0.032515164 -0.057339799 0.24272408 4291151301
0.032990843 -0.057487424 0.243349 4291085508
0.033468537 -0.057635058 0.24397394 4291019715
0.033948239 -0.057782687 0.24459887 4291019715
0.034465056 -0.05798937 0.24547377 4291019715
0.034966942 -0.058166526 0.24622369 4291019715
0.035399441 -0.05822558 0.24647367 4291019715
0.035796434 -0.05822558 0.24647367 4291019968
0.036193434 -0.05822558 0.24647367 4291019968
0.036590431 -0.05822558 0.24647367 4291019968
0.036949914 -0.058166526 0.24622369 4291019968
0.037346508 -0.058166526 0.24622369 4290954173
0.037743103 -0.058166526 0.24622369 4290954173
0.038139697 -0.058166526 0.24622369 4291019966
0.038536292 -0.058166526 0.24622369 4291085759
0.038972415 -0.05822558 0.24647367 4291019966
0.039369412 -0.05822558 0.24647367 4291019966
0.039806738 -0.058284633 0.24672364 4291019966
0.040265236 -0.058373209 0.24709859 4291019966
0.040724948 -0.058461793 0.24747357 4291019966
0.041206632 -0.058579892 0.2479735 4291019966
0.041710898 -0.058727525 0.24859844 4290954175
0.042111319 -0.058727525 0.24859844 4291019968
0.042597234 -0.058845632 0.24909839 4291085761
0.043063182 -0.058934208 0.24947335 4291085761
0.043530338 -0.059022788 0.24984831 4290954175
0.043954749 -0.059052315 0.2499733 4291085761
0.044379562 -0.059081841 0.25009829 4291019968
0.044782396 -0.059081841 0.25009829 4290954175
0.045207817 -0.059111368 0.25022328 4291019968
0.045633633 -0.059140887 0.25034824 4291019968
0.046082836 -0.05919994 0.25059822 4291019968
0.046556037 -0.059288524 0.25097319 4291019968
0.046960279 -0.059288524 0.25097319 4290954175
0.047458876 -0.059406627 0.25147313 4291019968
0.048006661 -0.059583783 0.25222304 4290954945
0.048508879 -0.05970189 0.25272301 4290823359
0.049036901 -0.059849519 0.25334793 4290889152
0.049566936 -0.059997149 0.25397286 4290889152
0.050000608 -0.060026675 0.25409785 4290889152
0.050409883 -0.060026675 0.25409785 4290823359
0.050944146 -0.060174305 0.25472277 4290823359
0.05140483 -0.060233358 0.25497276 4290823359
0.051917121 -0.060351465 0.25547272 4290691520
0.052379809 -0.060410514 0.25572267 4290559934
0.0527917 -0.060410514 0.25572267 4290757313
0.053203598 -0.060410514 0.25572267 4290691520
0.053667903 -0.060469568 0.25597265 4290560187
0.054133017 -0.060528621 0.25622264 4290560187
0.054625537 -0.060617197 0.25659758 4290691773
0.055038836 -0.060617197 0.25659758 4290691773
0.055695236 -0.060882933 0.25772247 4290428601
0.056491315 -0.061296299 0.25947228 4290560187
0.057128556 -0.061532512 0.26047218 4290559415
0.057713784 -0.061709668 0.26122209 4290559415
0.05827361 -0.061857294 0.26184702 4290493622
0.058751408 -0.061916351 0.262097 4290493622
0.059258226 -0.062004931 0.26247197 4290427829
-0.062943995 -0.067007259 0.28559449 4289571762
-0.062429298 -0.066948608 0.28534451 4290097590
-0.061969694 -0.066948608 0.28534451 4290097590
-0.061510086 -0.066948608 0.28534451 4290162866
-0.060970258 -0.066860639 0.28496957 4290228659
-0.060511257 -0.066860639 0.28496957 4290229172
-0.059314769 -0.06603954 0.28146994 4290294965
-0.058861401 -0.06603954 0.28146994 4290360758
-0.055407558 -0.063634895 0.27122101 4290558907
-0.0549707 -0.063634895 0.27122101 4290229942
-0.053578876 -0.062520556 0.26647153 4290295735
-0.053149667 -0.062520556 0.26647153 4290361785
-0.052473173 -0.062227305 0.26522166 4290427578
-0.051972404 -0.062139336 0.26484671 4290493114
-0.051545814 -0.062139336 0.26484671 4290558907
-0.051432837 -0.062520556 0.26647153 4290559164
-0.051218934 -0.062784486 0.26759642 4290427578
-0.050787918 -0.062784486 0.26759642 4290559164
-0.049674809 -0.061934061 0.26397181 4290559164
-0.049249627 -0.061934061 0.26397181 4290559164
-0.048824444 -0.061934061 0.26397181 4290624957
-0.047643024 -0.060966343 0.25984725 4290690750
-0.047088195 -0.06079039 0.25909731 4290624957
-0.046670865 -0.06079039 0.25909731 4290559164
-0.046231225 -0.060761068 0.25897235 4290559164
-0.045791984 -0.060731743 0.25884736 4290888125
-0.045331232 -0.060673092 0.25859737 4290888125
-0.044914711 -0.060673092 0.25859737 4290888125
-0.044433665 -0.060585115 0.2582224 4290888125
-0.043889906 -0.060409166 0.25747249 4290953918
-0.043475192 -0.060409166 0.25747249 4291019711
-0.042851452 -0.060115922 0.25622264 4290953916
-0.042438753 -0.060115922 0.25622264 4290953916
-0.041821048 -0.059822671 0.25497276 4290953918
-0.041207369 -0.059529427 0.25372291 4290953918
-0.040798694 -0.059529427 0.25372291 4290953916
-0.040310435 -0.059412122 0.25322294 4290953916
-0.039863173 -0.059353471 0.25297296 4291019709
-0.039416723 -0.059294827 0.25272301 4291019709
-0.03900966 -0.059294827 0.25272301 4291019711
-0.038602594 -0.059294827 0.25272301 4291019711
-0.037591055 -0.05835643 0.24872343 4291019711
-0.037190434 -0.05835643 0.24872343 4291019711
-0.036124267 -0.057300735 0.24422391 4291019711
-0.035730895 -0.057300735 0.24422391 4291019711
-0.035319433 -0.05727141 0.24409892 4291019711
-0.034908384 -0.057242088 0.24397394 4291019711
-0.034515411 -0.057242088 0.24397394 4291085504
-0.034524497 -0.057916556 0.24684863 4291151297
-0.034386087 -0.05835643 0.24872343 4291151297
-0.034053776 -0.058473732 0.24922338 4291217090
-0.033652354 -0.058473732 0.24922338 4291151297
-0.033267602 -0.058503054 0.24934836 4291151297
-0.032783605 -0.05835643 0.24872343 4291151044
-0.032382984 -0.05835643 0.24872343 4291151044
-0.031419862 -0.057330061 0.2443489 4291151044
-0.031026285 -0.057330061 0.2443489 4291348423
-0.030303663 -0.05671424 0.24172418 4291216837
-0.029914314 -0.05671424 0.24172418 4291151044
-0.029677631 -0.057007488 0.24297404 4291216839
-0.029286271 -0.057007488 0.24297404 4291151046
-0.028894911 -0.057007488 0.24297404 4291216839
-0.028635509 -0.05727141 0.24409892 4291348425
-0.028300183 -0.057388708 0.24459887 4291216839
-0.027934726 -0.057447363 0.24484885 4291216839
-0.027582519 -0.057535335 0.24522381 4291216839
-0.027326107 -0.057828583 0.24647367 4291348425
-0.027174912 -0.05835643 0.24872343 4291348423
-0.026922291 -0.058679003 0.25009829 4291216837
-0.02620138 -0.057975207 0.24709859 4291151301
-0.025803376 -0.057975207 0.24709859 4291282887
-0.025186915 -0.057476684 0.24497382 4291282889
-0.02469114 -0.057242088 0.24397394 4291151303
-0.024298171 -0.057242088 0.24397394 4291348682
-0.023892952 -0.057212763 0.24384895 4291348682
-0.023500184 -0.057212763 0.24384895 4291414475
-0.023107413 -0.057212763 0.24384895 4291414475
-0.022714643 -0.057212763 0.24384895 4291348682
-0.022321874 -0.057212763 0.24384895 4291282889
-0.021940345 -0.057242088 0.24397394 4291282889
-0.021635683 -0.057476684 0.24497382 4291151303
-0.0214145 -0.057945881 0.24697362 4291414216
-0.020846521 -0.057476684 0.24497382 4291414216
-0.020441506 -0.057447363 0.24484885 4291348423
-0.01985269 -0.056890186 0.24247409 4291414216
-0.019462137 -0.056890186 0.24247409 4291480009
-0.01893395 -0.05647964 0.24072428 4291414216
-0.018546214 -0.05647964 0.24072428 4291414216
-0.018139621 -0.056420989 0.24047431 4291414216
-0.017743062 -0.056391664 0.24034932 4291414216
-0.017337879 -0.056333017 0.24009936 4291348423
-0.016951147 -0.056333017 0.24009936 4291414216
-0.016564419 -0.056333017 0.24009936 4291545802
-0.016177688 -0.056333017 0.24009936 4291545802
-0.015577234 -0.055570569 0.2368497 4291480009
-0.015195738 -0.055570569 0.2368497 4291480009
-0.014540627 -0.054544199 0.23247516 4291545802
-0.014166178 -0.054544199 0.23247516 4291480009
-0.013776899 -0.054485552 0.23222519 4291545802
-0.013402851 -0.054485552 0.23222519 4291611595
-0.013035816 -0.054514874 0.23235017 4291611595
-0.012818221 -0.055189349 0.23522487 4291611595
-0.01267068 -0.056215718 0.23959941 4291611595
-0.012297572 -0.056274366 0.23984937 4291611595
-0.011923659 -0.056333017 0.24009936 4291545802
-0.011536929 -0.056333017 0.24009936 4291545804
-0.011156002 -0.056362338 0.24022433 4291545804
-0.010813896 -0.056596939 0.24122423 4291545804
-0.010517184 -0.057095461 0.243349 4291480011
-0.010161622 -0.057300735 0.24422391 4291546061
-0.0096332738 -0.056508966 0.24084927 4291546061
-0.0091829645 -0.056127742 0.23922445 4291546061
-0.0087976428 -0.056127742 0.23922445 4291546061
-0.0083683701 -0.055834491 0.23797457 4291611852
-0.0079850629 -0.055834491 0.23797457 4291809231
-0.0076017557 -0.055834491 0.23797457 4291808974
-0.0072184484 -0.055834491 0.23797457 4291677388
-0.0068351403 -0.055834491 0.23797457 4291809227
-0.0064586103 -0.055893142 0.23822455 4291677641
-0.0060749003 -0.055893142 0.23822455 4291677388
-0.0057150777 -0.056127742 0.23922445 4291677388
-0.0053854492 -0.05671424 0.24172418 4291611852
-0.0050348518 -0.057154112 0.24359898 4291546059
-0.0046424852 -0.057154112 0.24359898 4291808974
-0.0041934205 -0.056391664 0.24034932 4291874767
-0.0038062879 -0.056391664 0.24034932 4291874767
-0.0033924847 -0.055951793 0.23847452 4291808974
-0.003003642 -0.055863816 0.23809956 4291874769
-0.0026201329 -0.055863816 0.23809956 4291874769
-0.0022366242 -0.055863816 0.23809956 4291808976
-0.0018531152 -0.055863816 0.23809956 4291677390
-0.0014703778 -0.055893142 0.23822455 4291677390
-0.0010866675 -0.055893142 0.23822455 4291808976
-0.00070332619 -0.055922471 0.23834954 4291808976
-0.00031907967 -0.055863816 0.23809956 4291808976
6.4361571e-05 -0.055805169 0.23784959 4291677390
0.00044723268 -0.055775844 0.2377246 4291874769
0.00082577305 -0.055482596 0.23647474 4291940562
0.0012022004 -0.055277321 0.23559983 4291940562
0.0015665793 -0.054749474 0.23335007 4291940562
0.0019372362 -0.05460285 0.23272514 4291874769
0.0023120886 -0.05460285 0.23272514 4291808976
0.0026869406 -0.05460285 0.23272514 4291874769
0.0030815252 -0.054954749 0.23422498 4291874771
0.0034883243 -0.055423949 0.23622477 4291874771
0.0038688132 -0.055423949 0.23622477 4291874771
0.0042560473 -0.055511922 0.23659973 4291874771
0.0046371408 -0.055511922 0.23659973 4291808981
0.0050182333 -0.055511922 0.23659973 4291874774
0.0053993263 -0.055511922 0.23659973 4291678419
0.0057285093 -0.0550134 0.23447496 4291744212
0.0061061797 -0.0550134 0.23447496 4291809235
0.0064216382 -0.054485552 0.23222519 4291875028
0.0067408225 -0.054045677 0.23035039 4291940819
0.0070964145 -0.053928379 0.22985044 4291940819
0.0074666361 -0.053928379 0.22985044 4291940560
0.0078922566 -0.054309599 0.23147526 4292006353
0.0083722034 -0.0550134 0.23447496 4292006353
0.0088338284 -0.055541243 0.2367247 4292006353
0.009215123 -0.055541243 0.2367247 4292006353
0.0096116178 -0.05562922 0.23709968 4292006353
0.01000932 -0.055717196 0.23747464 4292006353
0.010397291 -0.055746518 0.23759961 4291940560
0.010785665 -0.055775844 0.2377246 4291940560
0.01116857 -0.055775844 0.2377246 4291940560
0.011527183 -0.055658545 0.23722465 4291874769
0.011909282 -0.055658545 0.23722465 4291874769
0.012207194 -0.055277321 0.23559983 4291874769
0.012559967 -0.055160023 0.23509988 4292006355
0.012938645 -0.055160023 0.23509988 4292006355
0.013423521 -0.055599894 0.23697469 4291940562
0.013827062 -0.055687871 0.23734964 4291940562
0.01423181 -0.055775844 0.2377246 4291940562
0.014614715 -0.055775844 0.2377246 4291874769
0.015013391 -0.055834491 0.23797457 4291940562
0.015412871 -0.055893142 0.23822455 4291940562
0.01580487 -0.055922471 0.23834954 4291940562
0.016239716 -0.056098416 0.23909946 4291874769
0.016807334 -0.05671424 0.24172418 4291808976
0.0173923 -0.057359386 0.24447389 4292006355
0.017786076 -0.057359386 0.24447389 4291808976
0.017938199 -0.056596939 0.24122423 4291940562
0.018184304 -0.056157067 0.23934942 4291808976
0.018550433 -0.056098416 0.23909946 4291677388
0.018905856 -0.056010444 0.2387245 4291808974
0.019280272 -0.055981118 0.23859951 4291940560
0.019664586 -0.055981118 0.23859951 4291940560
0.0200489 -0.055981118 0.23859951 4291874767
0.020433215 -0.055981118 0.23859951 4291874767
0.020828433 -0.056010444 0.2387245 4291875024
0.021257374 -0.056127742 0.23922445 4291875024
0.021665309 -0.056186393 0.23947442 4291874767
0.022166122 -0.05647964 0.24072428 4291874767
0.022752931 -0.056978162 0.24284905 4291940560
0.023144091 -0.056978162 0.24284905 4291808974
0.023292994 -0.056391664 0.24034932 4291743438
0.023655498 -0.056333017 0.24009936 4291809231
0.023979651 -0.056186393 0.23947442 4291809231
0.024365373 -0.056186393 0.23947442 4291611852
0.024751097 -0.056186393 0.23947442 4291611854
0.025136821 -0.056186393 0.23947442 4291611854
0.025549185 -0.05624504 0.23972438 4291611854
0.025935311 -0.05624504 0.23972438 4291743440
0.026362607 -0.056333017 0.24009936 4291611854
0.026791112 -0.056420989 0.24047431 4291546061
0.027178446 -0.056420989 0.24047431 4291480268
0.027580107 -0.056450315 0.24059929 4291480268
0.027909528 -0.056333017 0.24009936 4291480268
0.028207878 -0.056157067 0.23934942 4291480268
0.028593399 -0.056157067 0.23934942 4291480266
0.028767064 -0.055746518 0.23759961 4291348680
0.029103767 -0.055658545 0.23722465 4291348680
0.029485866 -0.055658545 0.23722465 4291348680
0.029867966 -0.055658545 0.23722465 4291282887
0.030823831 -0.05671424 0.24172418 4291348680
0.031245455 -0.056772888 0.24197415 4291348680
0.031651545 -0.056802213 0.24209914 4291151301
0.032041494 -0.056802213 0.24209914 4291348423
0.032498419 -0.056919511 0.24259908 4291216837
0.032973897 -0.057066135 0.24322401 4291085508
0.033451393 -0.057212763 0.24384895 4291019715
0.033930894 -0.057359386 0.24447389 4291019715
0.03442996 -0.057535335 0.24522381 4290953922
0.034913693 -0.057681955 0.24584873 4291019715
0.035399441 -0.057828583 0.24647367 4291019715
0.035796434 -0.057828583 0.24647367 4291085761
0.036156725 -0.057769932 0.24622369 4291085761
0.036516212 -0.057711285 0.24597372 4291019968
0.036912404 -0.057711285 0.24597372 4291019968
0.037308596 -0.057711285 0.24597372 4291019968
0.037704784 -0.057711285 0.24597372 4291283140
0.038100976 -0.057711285 0.24597372 4291085759
0.038516734 -0.05774061 0.24609871 4291085759
0.038932886 -0.057769932 0.24622369 4291085759
0.039329484 -0.057769932 0.24622369 4291019966
0.039766409 -0.057828583 0.24647367 4290954173
0.040224504 -0.057916556 0.24684863 4291019966
0.04068381 -0.058004532 0.24722359 4291019966
0.041165095 -0.05812183 0.24772353 4291019966
0.041668959 -0.058268458 0.24834847 4291019968
0.042068973 -0.058268458 0.24834847 4291019968
0.042533111 -0.05835643 0.24872343 4291085761
0.043020032 -0.058473732 0.24922338 4291019968
0.043465011 -0.05853238 0.24947335 4290954175
0.04391079 -0.058591027 0.24972332 4291019968
0.044357382 -0.058649678 0.2499733 4291019968
0.044760019 -0.058649678 0.2499733 4291019968
0.045162652 -0.058649678 0.2499733 4291019968
0.045610853 -0.058708329 0.25022328 4290954175
0.046059851 -0.058766976 0.25047323 4291151554
0.046532851 -0.058854952 0.2508482 4290954175
0.046936892 -0.058854952 0.2508482 4290954175
0.047435287 -0.058972251 0.25134814 4290954175
0.047959086 -0.059118878 0.25197309 4290823359
0.048460897 -0.059236176 0.25247303 4290889152
0.048964325 -0.059353471 0.25297296 4290823359
0.049469367 -0.059470773 0.25347292 4290889152
0.04987764 -0.059470773 0.25347292 4290889152
0.050385088 -0.059588071 0.25397286 4290823359
0.050894156 -0.059705373 0.25447282 4290823359
0.051379628 -0.059793346 0.25484776 4290757566
0.051866319 -0.059881322 0.25522274 4290691773
0.052328613 -0.059939973 0.25547272 4290691773
0.052740101 -0.059939973 0.25547272 4290757566
0.053203598 -0.05999862 0.25572267 4290691773
0.053641699 -0.060027946 0.25584766 4290691773
0.054106608 -0.060086597 0.25609764 4290691773
0.054572325 -0.060145248 0.25634763 4290757566
0.054985225 -0.060145248 0.25634763 4290560187
0.055614203 -0.06037984 0.25734749 4290428601
0.056436889 -0.060819715 0.2592223 4290560187
0.057210792 -0.061200935 0.26084712 4290691001
0.057796631 -0.061376892 0.26159707 4290625208
0.05827361 -0.061435536 0.26184702 4290493622
0.05872339 -0.061464861 0.26197201 4290493622
0.059201788 -0.061523512 0.26222199 4290427829
-0.062943995 -0.066547245 0.28559449 4289703602
-0.062429298 -0.066488996 0.28534451 4289835186
-0.061969694 -0.066488996 0.28534451 4289835186
-0.061510086 -0.066488996 0.28534451 4290163379
-0.060943514 -0.066372506 0.28484458 4290163379
-0.060484715 -0.066372506 0.28484458 4290229172
-0.059156731 -0.065411426 0.28072 4290294965
-0.058704574 -0.065411426 0.28072 4290360758
-0.058252413 -0.065411426 0.28072 4290360758
-0.055356495 -0.063139796 0.27097106 4290427321
-0.05492004 -0.063139796 0.27097106 4290295735
-0.053377826 -0.06185836 0.26547164 4290295735
-0.052950229 -0.06185836 0.26547164 4290361785
-0.052349534 -0.061654493 0.26459673 4290427578
-0.051923349 -0.061654493 0.26459673 4290427321
-0.051521488 -0.061683618 0.26472172 4290558907
-0.051408712 -0.062062223 0.26634654 4290493371
-0.051171087 -0.062295213 0.26734644 4290427578
-0.050740473 -0.062295213 0.26734644 4290493371
-0.049674809 -0.061508879 0.26397181 4290559164
-0.049202986 -0.06145063 0.26372182 4290624957
-0.048778206 -0.06145063 0.26372182 4290624957
-0.047574274 -0.06046043 0.25947228 4290624957
-0.047065485 -0.06034394 0.25897235 4290624957
-0.046648353 -0.06034394 0.25897235 4290690493
-0.046208911 -0.060314815 0.25884736 4290690493
-0.04576987 -0.060285691 0.25872236 4290756539
-0.045331232 -0.060256567 0.25859737 4290888125
-0.044914711 -0.060256567 0.25859737 4290888125
-0.044433665 -0.060169194 0.2582224 4290888125
-0.043868601 -0.059965327 0.25734749 4290953918
-0.043454088 -0.059965327 0.25734749 4290953918
-0.042830545 -0.059674095 0.25609764 4291084734
-0.042418052 -0.059674095 0.25609764 4291084734
-0.041718546 -0.059266366 0.25434783 4290953918
-0.041126169 -0.059004255 0.25322294 4290888125
-0.040718302 -0.059004255 0.25322294 4290953918
-0.040250748 -0.058916885 0.252848 4290953918
-0.03980409 -0.058858637 0.25259802 4291019711
-0.039397229 -0.058858637 0.25259802 4291019711
-0.038971074 -0.058829512 0.25247303 4291019711
-0.038564414 -0.058829512 0.25247303 4291019711
-0.037591055 -0.057955809 0.24872343 4291019711
-0.037190434 -0.057955809 0.24872343 4291019711
-0.036124267 -0.05690736 0.24422391 4291019458
-0.035730895 -0.05690736 0.24422391 4291019458
-0.035319433 -0.056878235 0.24409892 4291019458
-0.034908384 -0.056849115 0.24397394 4291085251
-0.034515411 -0.056849115 0.24397394 4291085251
-0.034524497 -0.057518955 0.24684863 4291019458
-0.034386087 -0.057955809 0.24872343 4291085251
-0.0340367 -0.058043178 0.24909839 4291151044
-0.033652354 -0.058072302 0.24922338 4291151044
-0.033267602 -0.058101423 0.24934836 4291151044
-0.032750655 -0.05789756 0.24847345 4291151044
-0.032350436 -0.05789756 0.24847345 4291151044
-0.031419862 -0.056936484 0.2443489 4291151044
-0.031026285 -0.056936484 0.2443489 4291348423
-0.030303663 -0.056324892 0.24172418 4291216837
-0.029914314 -0.056324892 0.24172418 4291151044
-0.029509703 -0.056295767 0.24159919 4291216839
-0.029120555 -0.056295767 0.24159919 4291151046
-0.028880047 -0.056587003 0.24284905 4291216839
-0.028635509 -0.056878235 0.24409892 4291348425
-0.028285723 -0.056965608 0.24447389 4291216839
-0.027934726 -0.057052981 0.24484885 4291216839
-0.027582519 -0.05714035 0.24522381 4291347655
-0.027339965 -0.05746071 0.24659866 4291479241
-0.027188567 -0.05798493 0.24884841 4291545034
-0.026935747 -0.058305293 0.25022328 4291479241
-0.026214633 -0.057606325 0.24722359 4291414218
-0.025816428 -0.057606325 0.24722359 4291151046
-0.025186915 -0.057082102 0.24497382 4291414218
-0.02469114 -0.056849115 0.24397394 4291348425
-0.024298171 -0.056849115 0.24397394 4291348425
-0.023892952 -0.05681999 0.24384895 4291414218
-0.023500184 -0.05681999 0.24384895 4291414218
-0.023107413 -0.05681999 0.24384895 4291216839
-0.022714643 -0.05681999 0.24384895 4291282889
-0.022321874 -0.05681999 0.24384895 4291348682
-0.021940345 -0.056849115 0.24397394 4291348682
-0.021646723 -0.057111226 0.24509881 4291282889
-0.0214145 -0.05754808 0.24697362 4291348680
-0.021080513 -0.057722818 0.24772353 4291348680
-0.020441506 -0.057052981 0.24484885 4291414216
-0.01985269 -0.05649963 0.24247409 4291414216
-0.019442072 -0.056441385 0.24222413 4291414216
-0.01891429 -0.056033656 0.24047431 4291414216
-0.018526956 -0.056033656 0.24047431 4291414216
-0.018130194 -0.056004532 0.24034932 4291414216
-0.017733835 -0.055975407 0.24022433 4291414216
-0.017337879 -0.055946287 0.24009936 4291348423
-0.016951147 -0.055946287 0.24009936 4291480009
-0.016555795 -0.055917162 0.23997436 4291545802
-0.016169267 -0.055917162 0.23997436 4291545802
-0.015577234 -0.055189073 0.2368497 4291480009
-0.015195738 -0.055189073 0.2368497 4291480009
-0.014556263 -0.054228 0.23272514 4291480009
-0.014181411 -0.054228 0.23272514 4291414216
-0.013776899 -0.054111503 0.23222519 4291545802
-0.013402851 -0.054111503 0.23222519 4291545802
-0.013035816 -0.054140624 0.23235017 4291545802
-0.012838653 -0.054897837 0.23559983 4291545802
-0.01267068 -0.055829793 0.23959941 4291611595
-0.012297572 -0.055888038 0.23984937 4291808974
-0.011923659 -0.055946287 0.24009936 4291611595
-0.011536929 -0.055946287 0.24009936 4291611595
-0.011156002 -0.055975407 0.24022433 4291414216
-0.010819499 -0.056237523 0.24134922 4291480009
-0.010522585 -0.056732621 0.24347399 4291480009
-0.010161622 -0.05690736 0.24422391 4291546059
-0.0096382732 -0.05615015 0.24097426 4291546059
-0.0091829645 -0.05574242 0.23922445 4291611852
-0.0087976428 -0.05574242 0.23922445 4291546059
-0.0083683701 -0.055451185 0.23797457 4291611852
-0.0079850629 -0.055451185 0.23797457 4291809231
-0.0076017557 -0.055451185 0.23797457 4291808974
-0.0072184484 -0.055451185 0.23797457 4291677388
-0.0068351403 -0.055451185 0.23797457 4291808974
-0.0064586103 -0.055509433 0.23822455 4291677388
-0.0060780877 -0.055538557 0.23834954 4291677388
-0.0057150777 -0.05574242 0.23922445 4291677388
-0.0053854492 -0.056324892 0.24172418 4291677388
-0.0050348518 -0.056761745 0.24359898 4291677388
-0.0046424852 -0.056761745 0.24359898 4291808974
-0.0041934205 -0.056004532 0.24034932 4291808974
-0.0038062879 -0.056004532 0.24034932 4291808974
-0.0033924847 -0.055567678 0.23847452 4291874767
-0.003003642 -0.055480309 0.23809956 4291808974
-0.0026201329 -0.055480309 0.23809956 4291808974
-0.0022366242 -0.055480309 0.23809956 4291808976
-0.0018531152 -0.055480309 0.23809956 4291677390
-0.0014703778 -0.055509433 0.23822455 4291808976
-0.0010866675 -0.055509433 0.23822455 4291808976
-0.00070332619 -0.055538557 0.23834954 4291874769
-0.00031924719 -0.055509433 0.23822455 4291874769
6.4463035e-05 -0.055509433 0.23822455 4291808976
0.00044723268 -0.05539294 0.2377246 4291808976
0.00083013758 -0.05539294 0.2377246 4291940562
0.0012022004 -0.054897837 0.23559983 4291808976
0.0015816829 -0.054897837 0.23559983 4291611597
0.001939317 -0.054286245 0.23297511 4291874769
0.002314572 -0.054286245 0.23297511 4291677390
0.0026898268 -0.054286245 0.23297511 4291808976
0.0030815252 -0.054577477 0.23422498 4291808976
0.0034883243 -0.055043459 0.23622477 4291874769
0.0038688132 -0.055043459 0.23622477 4291874771
0.0042560473 -0.055130828 0.23659973 4291874771
0.0046371408 -0.055130828 0.23659973 4291809235
0.0050182333 -0.055130828 0.23659973 4291809235
0.0054021785 -0.055159949 0.2367247 4291809233
0.005759045 -0.054926962 0.23572482 4291809233
0.0061387285 -0.054926962 0.23572482 4291678417
0.0064216382 -0.054111503 0.23222519 4291810003
0.0067956857 -0.054111503 0.23222519 4291940817
0.0071542971 -0.05399501 0.23172525 4291940817
0.0075194179 -0.053936761 0.23147526 4291940560
0.0078922566 -0.053936761 0.23147526 4291940560
0.0083722034 -0.05463573 0.23447496 4291940813
0.0088338284 -0.055159949 0.2367247 4292006606
0.009215123 -0.055159949 0.2367247 4291940813
0.0096116178 -0.055247322 0.23709968 4291940813
0.01000932 -0.055334691 0.23747464 4291874767
0.010397291 -0.055363812 0.23759961 4291808974
0.010785665 -0.05539294 0.2377246 4291940560
0.01116857 -0.05539294 0.2377246 4291940560
0.011527183 -0.055276442 0.23722465 4291874767
0.011909282 -0.055276442 0.23722465 4291940560
0.012207194 -0.054897837 0.23559983 4291940560
0.012559967 -0.054781344 0.23509988 4291874767
0.012938645 -0.054781344 0.23509988 4292202962
0.013423521 -0.055218197 0.23697469 4292137169
0.013827062 -0.055305567 0.23734964 4291940560
0.01423181 -0.05539294 0.2377246 4291940560
0.014614715 -0.05539294 0.2377246 4291940562
0.015013391 -0.055451185 0.23797457 4291940562
0.015412871 -0.055509433 0.23822455 4291874769
0.01580487 -0.055538557 0.23834954 4291940562
0.016239716 -0.055713296 0.23909946 4291874769
0.016816026 -0.056354016 0.24184917 4291874769
0.0173923 -0.056965608 0.24447389 4291940562
0.017786076 -0.056965608 0.24447389 4291940562
0.017938199 -0.056208398 0.24122423 4291875026
0.018326739 -0.056208398 0.24122423 4291809233
0.018550433 -0.055713296 0.23909946 4291808974
0.018905856 -0.055625927 0.2387245 4291808974
0.019280272 -0.055596802 0.23859951 4291940560
0.019664586 -0.055596802 0.23859951 4291940560
0.0200489 -0.055596802 0.23859951 4291874769
0.020433215 -0.055596802 0.23859951 4291808976
0.020828433 -0.055625927 0.2387245 4291809233
0.021257374 -0.05574242 0.23922445 4291875026
0.021665309 -0.055800669 0.23947442 4291940562
0.022166122 -0.056091901 0.24072428 4291940562
0.022752931 -0.056587003 0.24284905 4291874769
0.023144091 -0.056587003 0.24284905 4291874769
0.023292994 -0.056004532 0.24034932 4291743440
0.023680126 -0.056004532 0.24034932 4291611854
0.023979651 -0.055800669 0.23947442 4291809233
0.024365373 -0.055800669 0.23947442 4291611854
0.024751097 -0.055800669 0.23947442 4291743440
0.025136821 -0.055800669 0.23947442 4291743440
0.025549185 -0.055858914 0.23972438 4291808976
0.025935311 -0.055858914 0.23972438 4291808976
0.026362607 -0.055946287 0.24009936 4291677390
0.026791112 -0.056033656 0.24047431 4291611597
0.027178446 -0.056033656 0.24047431 4291480268
0.027580107 -0.056062777 0.24059929 4291480268
0.027909528 -0.055946287 0.24009936 4291414475
0.028207878 -0.055771545 0.23934942 4291414475
0.028593399 -0.055771545 0.23934942 4291414475
0.028767064 -0.055363812 0.23759961 4291348682
0.029103767 -0.055276442 0.23722465 4291348680
0.029485866 -0.055276442 0.23722465 4291348680
0.029867966 -0.055276442 0.23722465 4291348680
0.030855706 -0.056383137 0.24197415 4291348680
0.031245455 -0.056383137 0.24197415 4291348423
0.031651545 -0.056412261 0.24209914 4291216837
0.032041494 -0.056412261 0.24209914 4291348423
0.032498419 -0.056528755 0.24259908 4291348423
0.032973897 -0.056674372 0.24322401 4291085508
0.033451393 -0.05681999 0.24384895 4291282887
0.033930894 -0.056965608 0.24447389 4291019715
0.03442996 -0.05714035 0.24522381 4291019715
0.034913693 -0.057285964 0.24584873 4291019968
0.035399441 -0.057431586 0.24647367 4291085761
0.035796434 -0.057431586 0.24647367 4291151554
0.036156725 -0.057373337 0.24622369 4291085761
0.036516212 -0.057315089 0.24597372 4291019968
0.036912404 -0.057315089 0.24597372 4291019968
0.037308596 -0.057315089 0.24597372 4290954175
0.037704784 -0.057315089 0.24597372 4291085761
0.038100976 -0.057315089 0.24597372 4291085759
0.038516734 -0.057344213 0.24609871 4291085759
0.038932886 -0.057373337 0.24622369 4291019966
0.039329484 -0.057373337 0.24622369 4290954173
0.039766409 -0.057431586 0.24647367 4290954175
0.040224504 -0.057518955 0.24684863 4290954175
0.04068381 -0.057606325 0.24722359 4291085761
0.041123558 -0.057664573 0.24747357 4291085761
0.04152216 -0.057664573 0.24747357 4291019968
0.042026628 -0.057810191 0.24809849 4291019968
0.042511739 -0.057926685 0.24859844 4291085761
0.042976882 -0.058014054 0.2489734 4290954175
0.043421462 -0.058072302 0.24922338 4290954175
0.043866836 -0.058130547 0.24947335 4291019968
0.044268668 -0.058130547 0.24947335 4290889152
0.044715255 -0.058188796 0.24972332 4290889152
0.045140069 -0.05821792 0.24984831 4290889152
0.045565285 -0.058247045 0.2499733 4290823359
0.046036866 -0.05833441 0.25034824 4290889152
0.046509665 -0.058421783 0.25072321 4290823359
0.046913505 -0.058421783 0.25072321 4290823359
0.047411699 -0.058538277 0.25122315 4290823359
0.047935296 -0.058683898 0.2518481 4290823359
0.048436906 -0.058800388 0.25234804 4290823359
0.048915945 -0.058887761 0.25272301 4290823359
0.049396183 -0.05897513 0.25309795 4290823359
0.049803853 -0.05897513 0.25309795 4290889152
0.050310701 -0.059091628 0.25359792 4290823359
0.050819162 -0.059208117 0.25409785 4290823359
0.051329236 -0.059324615 0.25459781 4290823359
0.051815517 -0.059411984 0.25497276 4290757566
0.052277409 -0.059470233 0.25522274 4290757566
0.052688494 -0.059470233 0.25522274 4290757566
0.053151593 -0.059528481 0.25547272 4290691773
0.053615492 -0.059586722 0.25572267 4290560187
0.054053795 -0.059615847 0.25584766 4290691773
0.054545715 -0.05970322 0.25622264 4290757566
0.054958414 -0.05970322 0.25622264 4290494394
0.055560187 -0.059907086 0.25709754 4290494394
0.05635526 -0.060314815 0.25884736 4290494394
0.05715597 -0.060722545 0.26059717 4290625210
0.057713784 -0.060868159 0.26122209 4290625210
0.058245793 -0.060984652 0.26172203 4290493624
0.058695372 -0.061013777 0.26184702 4290493624
0.059173569 -0.061072025 0.262097 4290427831
-0.062888905 -0.066029392 0.28534451 4289703602
-0.062401954 -0.066000469 0.28521952 4289966772
-0.061942548 -0.066000469 0.28521952 4289769393
-0.061429258 -0.06594263 0.28496957 4290032565
-0.06091677 -0.065884784 0.28471959 4290032565
-0.060458176 -0.065884784 0.28471959 4290098358
-0.058893349 -0.064670056 0.27947015 4290164151
-0.058443204 -0.064670056 0.27947015 4290164151
-0.057993058 -0.064670056 0.27947015 4290229944
-0.055254359 -0.062587649 0.2704711 4290427321
-0.054818708 -0.062587649 0.2704711 4290427574
-0.053151648 -0.061170463 0.26434675 4290295988
-0.052725863 -0.061170463 0.26434675 4290229942
-0.052300077 -0.061170463 0.26434675 4290493114
-0.051874295 -0.061170463 0.26434675 4290427321
-0.051472832 -0.061199386 0.26447174 4290493114
-0.051384583 -0.061604299 0.26622155 4290558907
-0.051171087 -0.0618646 0.26734644 4290493114
-0.050669305 -0.06177783 0.26697147 4290493371
-0.050239291 -0.06177783 0.26697147 4290559164
-0.049156345 -0.060968008 0.26347184 4290624957
-0.048731972 -0.060968008 0.26347184 4290624957
-0.047528438 -0.059984654 0.2592223 4290624957
-0.047065485 -0.059926815 0.25897235 4290624957
-0.046648353 -0.059926815 0.25897235 4290690493
-0.0461866 -0.059868969 0.25872236 4290690493
-0.045747761 -0.059840046 0.25859737 4290756539
-0.045309324 -0.059811123 0.25847238 4290888125
-0.044893004 -0.059811123 0.25847238 4290888125
-0.044433665 -0.059753276 0.2582224 4290756539
-0.0438473 -0.059521902 0.25722253 4290756539
-0.043432988 -0.059521902 0.25722253 4291019711
-0.042642418 -0.0590013 0.25497276 4290953918
-0.042231735 -0.0590013 0.25497276 4290888125
-0.04153404 -0.058596388 0.25322294 4291018941
-0.041065276 -0.058509625 0.252848 4291084734
-0.040658008 -0.058509625 0.252848 4290887872
-0.040210955 -0.058451779 0.25259802 4290887872
-0.039784394 -0.058422856 0.25247303 4290953665
-0.039377734 -0.058422856 0.25247303 4291019458
-0.038971074 -0.058422856 0.25247303 4291019458
-0.038564414 -0.058422856 0.25247303 4291019458
-0.037591055 -0.057555191 0.24872343 4291151044
-0.037190434 -0.057555191 0.24872343 4291019458
-0.036124267 -0.056513991 0.24422391 4290953667
-0.035730895 -0.056513991 0.24422391 4291019460
-0.035337519 -0.056513991 0.24422391 4291085253
-0.034926265 -0.056485068 0.24409892 4291019460
-0.034533091 -0.056485068 0.24409892 4291085251
-0.034541979 -0.057150278 0.24697362 4291019458
-0.034386087 -0.057555191 0.24872343 4291019458
-0.034002542 -0.057584111 0.24884841 4291151044
-0.033635478 -0.057641957 0.24909839 4291151044
-0.033250928 -0.05767088 0.24922338 4291151044
-0.032750655 -0.057497345 0.24847345 4291151044
-0.032350436 -0.057497345 0.24847345 4291151044
-0.031452004 -0.056600757 0.24459887 4291151044
-0.031058025 -0.056600757 0.24459887 4291216837
-0.030335 -0.055993389 0.24197415 4291216837
-0.029945249 -0.055993389 0.24197415 4291151044
-0.029509703 -0.055906624 0.24159919 4291216837
-0.029120555 -0.055906624 0.24159919 4291216837
-0.028880047 -0.056195844 0.24284905 4291216839
-0.028635509 -0.056485068 0.24409892 4291216839
-0.028285723 -0.056571838 0.24447389 4291348425
-0.027934726 -0.056658603 0.24484885 4291348425
-0.027582519 -0.056745369 0.24522381 4291479241
-0.027339965 -0.057063513 0.24659866 4291479241
-0.027202222 -0.057613034 0.2489734 4291545034
-0.026935747 -0.057902258 0.25022328 4291479241
-0.026267646 -0.057323813 0.24772353 4291414218
-0.025868636 -0.057323813 0.24772353 4291216839
-0.025212616 -0.056745369 0.24522381 4291216839
-0.02469114 -0.056456149 0.24397394 4291348425
-0.024298171 -0.056456149 0.24397394 4291282889
-0.023892952 -0.056427225 0.24384895 4291282889
-0.023500184 -0.056427225 0.24384895 4291348682
-0.023119258 -0.056456149 0.24397394 4291151303
-0.022726286 -0.056456149 0.24397394 4291282889
-0.022333317 -0.056456149 0.24397394 4291348682
-0.021940345 -0.056456149 0.24397394 4291348680
-0.021646723 -0.056716446 0.24509881 4291414473
-0.0214145 -0.057150278 0.24697362 4291348680
-0.021080513 -0.057323813 0.24772353 4291348680
-0.020441506 -0.056658603 0.24484885 4291414216
-0.020047124 -0.056658603 0.24484885 4291480009
-0.019442072 -0.056051236 0.24222413 4291414216
-0.01891429 -0.055646326 0.24047431 4291414216
-0.018526956 -0.055646326 0.24047431 4291414216
-0.018130194 -0.055617403 0.24034932 4291414216
-0.017733835 -0.05558848 0.24022433 4291414216
-0.017337879 -0.055559561 0.24009936 4291414216
-0.016951147 -0.055559561 0.24009936 4291480009
-0.016555795 -0.055530638 0.23997436 4291545802
-0.016169267 -0.055530638 0.23997436 4291611848
-0.015577234 -0.054807581 0.2368497 4291546055
-0.015195738 -0.054807581 0.2368497 4291480262
-0.014524993 -0.053737462 0.23222519 4291480262
-0.014150946 -0.053737462 0.23222519 4291414469
-0.01367309 -0.053332549 0.23047538 4291546055
-0.013301861 -0.053332549 0.23047538 4291480262
-0.012930633 -0.053332549 0.23047538 4291546055
-0.012838653 -0.054518357 0.23559983 4291546055
-0.01267068 -0.055443872 0.23959941 4291611848
-0.012297572 -0.055501714 0.23984937 4291546055
-0.011923659 -0.055559561 0.24009936 4291546055
-0.011536929 -0.055559561 0.24009936 4291546055
-0.011156002 -0.05558848 0.24022433 4291348676
-0.010819499 -0.055848781 0.24134922 4291480262
-0.010522585 -0.05634046 0.24347399 4291546055
-0.010156422 -0.056485068 0.24409892 4291546312
-0.0096332738 -0.055733092 0.24084927 4291480519
-0.009173369 -0.055299256 0.23897447 4291546312
-0.0087884497 -0.055299256 0.23897447 4291546312
-0.0083683701 -0.055067878 0.23797457 4291546312
-0.0079850629 -0.055067878 0.23797457 4291743691
-0.0076017557 -0.055067878 0.23797457 4291809227
-0.0072184484 -0.055067878 0.23797457 4291809227
-0.0068351403 -0.055067878 0.23797457 4291875020
-0.0064586103 -0.055125725 0.23822455 4291677641
-0.0060780877 -0.055154648 0.23834954 4291677641
-0.0057150777 -0.055357102 0.23922445 4291809227
-0.0053854492 -0.055935547 0.24172418 4291677388
-0.0050348518 -0.056369383 0.24359898 4291677388
-0.0046424852 -0.056369383 0.24359898 4291677388
-0.0041934205 -0.055617403 0.24034932 4291677388
-0.0038062879 -0.055617403 0.24034932 4291808974
-0.0033924847 -0.055183567 0.23847452 4291808974
-0.0030020652 -0.055067878 0.23797457 4291808974
-0.0026187575 -0.055067878 0.23797457 4291808974
-0.0022354501 -0.055067878 0.23797457 4291808974
-0.0018521424 -0.055067878 0.23797457 4291808974
-0.0014688349 -0.055067878 0.23797457 4291874767
-0.0010866675 -0.055125725 0.23822455 4291808974
-0.00070332619 -0.055154648 0.23834954 4291940560
-0.00031924719 -0.055125725 0.23822455 4291940560
6.4463035e-05 -0.055125725 0.23822455 4291874769
0.00044699752 -0.054981112 0.23759961 4291808976
0.00082970114 -0.054981112 0.23759961 4291808976
0.0012002871 -0.054431591 0.23522487 4291808976
0.0015791657 -0.054431591 0.23522487 4291677392
0.001939317 -0.053910993 0.23297511 4291808978
0.002314572 -0.053910993 0.23297511 4291611597
0.0026898268 -0.053910993 0.23297511 4291808976
0.0030815252 -0.054200213 0.23422498 4291874769
0.0034846328 -0.054605126 0.23597479 4291874769
0.0038647191 -0.054605126 0.23597479 4291677390
0.0042515504 -0.054691892 0.23634975 4291874769
0.0046371408 -0.054749738 0.23659973 4291809233
0.0050182333 -0.054749738 0.23659973 4291743440
0.0054021785 -0.054778658 0.2367247 4291743440
0.005759045 -0.05454728 0.23572482 4291809233
0.0061387285 -0.05454728 0.23572482 4291612622
0.0064216382 -0.053737462 0.23222519 4291678415
0.0067956857 -0.053737462 0.23222519 4291678415
0.0071542971 -0.053621769 0.23172525 4291744208
0.0075194179 -0.053563923 0.23147526 4291940560
0.0078922566 -0.053563923 0.23147526 4291940560
0.0083722034 -0.05425806 0.23447496 4291875020
0.008805844 -0.054605126 0.23597479 4291875020
0.0092102578 -0.054749738 0.23659973 4291809227
0.0096065504 -0.054836504 0.23697469 4291875020
0.010004052 -0.05492327 0.23734964 4291808974
0.010397291 -0.054981112 0.23759961 4291808974
0.010785665 -0.055010036 0.2377246 4291940560
0.01116857 -0.055010036 0.2377246 4291940560
0.011515036 -0.054836504 0.23697469 4291874767
0.011896733 -0.054836504 0.23697469 4291940560
0.012207194 -0.054518357 0.23559983 4291940560
0.012399713 -0.053708538 0.2321002 4291874767
0.012773558 -0.053708538 0.2321002 4291940560
0.013182804 -0.05385315 0.23272514 4291940560
0.013688718 -0.054373745 0.23497489 4291940560
0.01423181 -0.055010036 0.2377246 4291808974
0.014614715 -0.055010036 0.2377246 4291940562
0.015013391 -0.055067878 0.23797457 4291940562
0.015412871 -0.055125725 0.23822455 4291874769
0.015796581 -0.055125725 0.23822455 4291808976
0.016239716 -0.055328179 0.23909946 4291874769
0.016816026 -0.05596447 0.24184917 4291940562
0.0173923 -0.056571838 0.24447389 4291875026
0.017786076 -0.056571838 0.24447389 4291875026
0.017919611 -0.055762015 0.24097426 4291875026
0.018307749 -0.055762015 0.24097426 4291809233
0.018540734 -0.055299256 0.23897447 4291874769
0.01888606 -0.055183567 0.23847452 4291874769
0.019270172 -0.055183567 0.23847452 4291874769
0.019654283 -0.055183567 0.23847452 4291874769
0.020038398 -0.055183567 0.23847452 4291808976
0.020422511 -0.055183567 0.23847452 4291808976
0.020817528 -0.05521249 0.23859951 4291809233
0.021224055 -0.055270333 0.23884948 4291875026
0.021654002 -0.055386022 0.23934942 4291940562
0.022166122 -0.055704169 0.24072428 4291940562
0.022752931 -0.056195844 0.24284905 4291874769
0.023144091 -0.056195844 0.24284905 4291874769
0.023280881 -0.05558848 0.24022433 4291743440
0.02366781 -0.05558848 0.24022433 4291611854
0.023967136 -0.055386022 0.23934942 4291809233
0.024352657 -0.055386022 0.23934942 4291743440
0.02473818 -0.055386022 0.23934942 4291743438
0.025123702 -0.055386022 0.23934942 4291743438
0.025509223 -0.055386022 0.23934942 4291874767
0.02592179 -0.055443872 0.23959941 4291874767
0.026348883 -0.055530638 0.23997436 4291677388
0.026763262 -0.05558848 0.24022433 4291611595
0.027178446 -0.055646326 0.24047431 4291611854
0.027565779 -0.055646326 0.24047431 4291546061
0.027895 -0.055530638 0.23997436 4291480268
0.028207878 -0.055386022 0.23934942 4291414475
0.028399294 -0.055010036 0.2377246 4291414473
0.028767064 -0.054981112 0.23759961 4291414473
0.028858425 -0.054431591 0.23522487 4291546059
0.029237302 -0.054431591 0.23522487 4291348680
0.029867966 -0.054894347 0.23722465 4291348680
0.030855706 -0.055993389 0.24197415 4291348680
0.031245455 -0.055993389 0.24197415 4291414216
0.031651545 -0.056022312 0.24209914 4291348423
0.032041494 -0.056022312 0.24209914 4291348423
0.032498419 -0.056138001 0.24259908 4291216837
0.032973897 -0.056282613 0.24322401 4291282887
0.033451393 -0.056427225 0.24384895 4291282887
0.033913545 -0.056542914 0.2443489 4291085508
0.034394864 -0.056687523 0.24497382 4291019715
0.034842692 -0.056774288 0.24534878 4291019715
0.035237879 -0.056774288 0.24534878 4291085508
0.035723824 -0.0569189 0.24597372 4291085761
0.036120016 -0.0569189 0.24597372 4291151554
0.036479101 -0.056861058 0.24572375 4291151554
0.03687489 -0.056861058 0.24572375 4291151554
0.03727068 -0.056861058 0.24572375 4291019711
0.037666466 -0.056861058 0.24572375 4291085504
0.03806226 -0.056861058 0.24572375 4291085504
0.038477607 -0.056889977 0.24584873 4291151297
0.038893364 -0.0569189 0.24597372 4291151297
0.039289556 -0.0569189 0.24597372 4291019711
0.039726075 -0.056976743 0.24622369 4291019711
0.040183771 -0.057063513 0.24659866 4291019711
0.040642675 -0.057150278 0.24697362 4291019968
0.041123558 -0.057265971 0.24747357 4291019968
0.04152216 -0.057265971 0.24747357 4290954175
0.042026628 -0.057410579 0.24809849 4290954175
0.042511739 -0.057526268 0.24859844 4291019968
0.042976882 -0.057613034 0.2489734 4290954175
0.043421462 -0.05767088 0.24922338 4291085761
0.043866836 -0.057728723 0.24947335 4291085761
0.044268668 -0.057728723 0.24947335 4290823359
0.044715255 -0.057786565 0.24972332 4290823359
0.045140069 -0.057815488 0.24984831 4290954945
0.045565285 -0.057844412 0.2499733 4290823359
0.046036866 -0.057931174 0.25034824 4290888899
0.046509665 -0.058017947 0.25072321 4290823106
0.046913505 -0.058017947 0.25072321 4290823106
0.047411699 -0.058133632 0.25122315 4290823106
0.047935296 -0.058278248 0.2518481 4290823359
0.048436906 -0.058393933 0.25234804 4290823359
0.048915945 -0.058480702 0.25272301 4290889152
0.049396183 -0.058567464 0.25309795 4290889152
0.049803853 -0.058567464 0.25309795 4290889152
0.050310701 -0.058683157 0.25359792 4290823359
0.050819162 -0.058798842 0.25409785 4290954175
0.051329236 -0.058914538 0.25459781 4290888382
0.051815517 -0.0590013 0.25497276 4290888382
0.052277409 -0.059059147 0.25522274 4290888382
0.052688494 -0.059059147 0.25522274 4290757564
0.053151593 -0.059116993 0.25547272 4290560185
0.053615492 -0.059174832 0.25572267 4290560185
0.054053795 -0.059203755 0.25584766 4290560185
0.054545715 -0.059290525 0.25622264 4290691771
0.054958414 -0.059290525 0.25622264 4290494392
0.055560187 -0.059492979 0.25709754 4290494392
0.05635526 -0.059897892 0.25884736 4290494392
0.056827009 -0.059955731 0.25909731 4290494392
0.057575714 -0.060302801 0.26059717 4290494392
0.05816235 -0.060476333 0.26134709 4290559415
0.058667354 -0.060563099 0.26172203 4290493622
0.05914535 -0.060620945 0.26197201 4290427829
-0.063237518 -0.065454908 0.28484458 4289835186
-0.062751174 -0.065426186 0.28471959 4289769393
-0.062292576 -0.065426186 0.28471959 4290098358
-0.061833974 -0.065426186 0.28471959 4289835186
-0.061321486 -0.065368742 0.2844696 4289901236
-0.060836546 -0.06534002 0.28434461 4289901236
-0.060378551 -0.06534002 0.28434461 4290032822
-0.058893349 -0.064219907 0.27947015 4290098615
-0.058181826 -0.063932694 0.27822027 4290032822
-0.057733692 -0.063932694 0.27822027 4290098615
-0.055254359 -0.062152002 0.2704711 4290361785
-0.054818708 -0.062152002 0.2704711 4290230199
-0.053151648 -0.060744677 0.26434675 4290164406
-0.052576285 -0.060572352 0.26359683 4290230199
-0.052151706 -0.060572352 0.26359683 4290427578
-0.051849764 -0.060715955 0.26422176 4290427321
