# .PCD v0.7 - Point Cloud Data file format
VERSION 0.7
FIELDS x y z rgba
SIZE 4 4 4 4
TYPE F F F U
COUNT 1 1 1 1
WIDTH 1024
HEIGHT 1
VIEWPOINT 0 0 0 1 0 0 0
POINTS 1024
DATA ascii
-0.059524488 0.020644428 0.28909412 4290558390
-0.059058845 0.020644428 0.28909412 4290558390
-0.058466539 0.020599803 0.2884692 4290624183
-0.05785111 0.020546248 0.28771925 4290624183
-0.057387676 0.020546248 0.28771925 4290689974
-0.056825332 0.020510547 0.28721932 4290689974
-0.056338184 0.020501621 0.28709432 4290755769
-0.055875756 0.020501621 0.28709432 4290755769
-0.055461578 0.020519473 0.28734431 4290755256
-0.055022676 0.020528398 0.2874693 4290821049
-0.054559648 0.020528398 0.2874693 4290755256
-0.054237738 0.020581951 0.28821921 4290755256
-0.054006688 0.020671204 0.28946906 4290821049
-0.053517323 0.02066228 0.2893441 4290886842
-0.053051274 0.02066228 0.2893441 4290886842
-0.052494366 0.020626577 0.28884414 4290952635
-0.051826496 0.020546248 0.28771925 4290821562
-0.051363066 0.020546248 0.28771925 4291018941
-0.05081119 0.020510547 0.28721932 4291018941
-0.050304741 0.020492695 0.28696933 4291018941
-0.049842522 0.020492695 0.28696933 4291018941
-0.049380295 0.020492695 0.28696933 4290887355
-0.048918072 0.020492695 0.28696933 4290888125
-0.048519161 0.020519473 0.28734431 4290888125
-0.048098139 0.020537324 0.28759429 4290887872
-0.047759123 0.020590877 0.2883442 4290953665
-0.047294684 0.020590877 0.2883442 4290953665
-0.046789646 0.020573026 0.28809422 4290887872
-0.046144728 0.020492695 0.28696933 4290953665
-0.045682508 0.020492695 0.28696933 4290953665
-0.045141503 0.020456996 0.2864694 4290887872
-0.044602104 0.020421293 0.28596944 4290887872
-0.04414149 0.020421293 0.28596944 4290888125
-0.043661788 0.020412369 0.28584448 4290953918
-0.043182489 0.020403443 0.28571948 4291019711
-0.042722277 0.020403443 0.28571948 4291019711
-0.042280555 0.020412369 0.28584448 4290953918
-0.041893285 0.02044807 0.28634441 4290953918
-0.041432068 0.02044807 0.28634441 4290953918
-0.041185454 0.020555174 0.28784424 4291019711
-0.04063341 0.020510547 0.28721932 4291150527
-0.040170781 0.020510547 0.28721932 4291150527
-0.039639037 0.020474847 0.28671938 4291019711
-0.039160136 0.020465922 0.28659439 4291019711
-0.03864789 0.020439144 0.28621942 4291085251
-0.038186871 0.020439144 0.28621942 4291085251
-0.037725855 0.020439144 0.28621942 4291085251
-0.037297387 0.020456996 0.2864694 4291085251
-0.036852043 0.020465922 0.28659439 4291151044
-0.036406294 0.020474847 0.28671938 4291151044
-0.035991475 0.020501621 0.28709432 4291347653
-0.035529047 0.020501621 0.28709432 4291347653
-0.035081889 0.020510547 0.28721932 4291479239
-0.034649394 0.020528398 0.2874693 4291479239
-0.034216091 0.020546248 0.28771925 4291545032
-0.033752657 0.020546248 0.28771925 4291347653
-0.03327477 0.020537324 0.28759429 4291348423
-0.032811537 0.020537324 0.28759429 4291216837
-0.032306131 0.020510547 0.28721932 4291217090
-0.031843506 0.020510547 0.28721932 4291217090
-0.031380877 0.020510547 0.28721932 4291348423
-0.030945163 0.020528398 0.2874693 4291348423
-0.030508637 0.020546248 0.28771925 4291348423
-0.030058257 0.020555174 0.28784424 4291348423
-0.029594624 0.020555174 0.28784424 4291414216
-0.029143641 0.0205641 0.28796923 4291414216
-0.028717153 0.020590877 0.2883442 4291414216
-0.02828945 0.020617651 0.28871915 4291480009
-0.027872592 0.020653354 0.28921911 4291480009
-0.027406743 0.020653354 0.28921911 4291480009
-0.026940895 0.020653354 0.28921911 4291480009
-0.02648649 0.02066228 0.2893441 4291480009
-0.0260092 0.020653354 0.28921911 4291348423
-0.025543354 0.020653354 0.28921911 4291414216
-0.025077505 0.020653354 0.28921911 4291480009
-0.024632929 0.020671204 0.28946906 4291545802
-0.024166679 0.020671204 0.28946906 4291545802
-0.023720894 0.020689055 0.28971905 4291545802
-0.023254244 0.020689055 0.28971905 4291677388
-0.022807252 0.020706907 0.28996903 4291611595
-0.022349827 0.020715833 0.29009402 4291611595
-0.021891998 0.020724759 0.29021901 4291611595
-0.021442993 0.020742606 0.29046896 4291611595
-0.020975132 0.020742606 0.29046896 4291545802
-0.020542568 0.02077831 0.29096892 4291611597
-0.020108392 0.020814011 0.29146886 4291611597
-0.019655764 0.020831862 0.29171884 4291677390
-0.019185891 0.020831862 0.29171884 4291611597
-0.018716017 0.020831862 0.29171884 4291480268
-0.018246142 0.020831862 0.29171884 4291611854
-0.017776269 0.020831862 0.29171884 4291611854
-0.01731381 0.020840788 0.29184383 4291546061
-0.016850948 0.020849714 0.29196882 4291677392
-0.016380671 0.020849714 0.29196882 4291677392
-0.015917206 0.020858636 0.29209378 4291677390
-0.015453338 0.020867562 0.29221877 4291808976
-0.014989067 0.020876488 0.29234377 4291611595
-0.014518187 0.020876488 0.29234377 4291545802
-0.014053313 0.020885414 0.29246876 4291808974
-0.013593839 0.020903265 0.29271874 4291808974
-0.013139163 0.020930041 0.29309368 4291874767
-0.012677879 0.020947892 0.29334366 4291808974
-0.012205388 0.020947892 0.29334366 4291808974
-0.011747894 0.020974666 0.29371861 4291808974
-0.011293991 0.021010369 0.29421857 4291808976
-0.010833878 0.021037145 0.29459351 4291940562
-0.010368166 0.021054996 0.29484349 4291874769
-0.009910034 0.021090699 0.29534346 4291874769
-0.0094343228 0.021090699 0.29534346 4291874771
-0.0089775659 0.021135325 0.29596838 4291808978
-0.0085367458 0.021224577 0.29721823 4291939792
-0.0080851223 0.021295981 0.29821813 4292071378
-0.0076175299 0.021331685 0.29871809 4292005585
-0.0071393684 0.02134061 0.29884309 4292005585
-0.006658019 0.02134061 0.29884309 4291808976
-0.0061792531 0.021349533 0.29896805 4291874769
-0.0057000853 0.021358458 0.29909304 4291874769
-0.0052205138 0.021367384 0.29921803 4291874769
-0.0047405404 0.02137631 0.29934302 4291874769
-0.0042583863 0.02137631 0.29934302 4291940562
-0.003777809 0.021385236 0.29946801 4291874769
-0.0032982042 0.021403087 0.29971799 4291940562
-0.00281662 0.021412011 0.29984295 4292006355
-0.0023385244 0.02145664 0.30046791 4292006355
-0.0018545585 0.02145664 0.30046791 4291940562
-0.001374013 0.021510191 0.30121782 4291940562
-0.00089178956 0.021581596 0.30221772 4291940564
-0.00040601005 0.021635147 0.30296764 4291940564
8.225294e-05 0.021706551 0.30396754 4292072150
0.00057303155 0.021751177 0.30459246 4291940564
0.0010653868 0.021786878 0.30509239 4291940310
0.0015568016 0.021786878 0.30509239 4291940310
0.0020498945 0.021804729 0.30534238 4291940564
0.0025427525 0.021813655 0.30546737 4291940564
0.0030372548 0.021831507 0.30571735 4291874771
0.0035354481 0.021867206 0.30621728 4291874771
0.0040286747 0.021867206 0.30621728 4291940564
0.0045292848 0.02190291 0.30671725 4291940564
0.0050315042 0.021938611 0.30721718 4291940564
0.0055398308 0.021992162 0.3079671 4292006357
0.0060481243 0.022036789 0.30859202 4291940564
0.0065584308 0.022081418 0.30921698 4291874771
0.0070564891 0.022081418 0.30921698 4291940564
0.0075728693 0.022134969 0.30996689 4291940564
0.008088409 0.022179596 0.31059182 4292072148
0.0086059626 0.022224221 0.31121674 4292072148
0.0091255307 0.02226885 0.3118417 4292006355
0.0096432511 0.022304552 0.31234163 4292006355
0.010166643 0.022349177 0.31296656 4292202964
0.01067074 0.022349177 0.31296656 4292202964
0.01119269 0.02238488 0.31346652 4292268757
0.01171625 0.022420581 0.31396645 4292137171
0.012251151 0.022474132 0.31471637 4291940562
0.012788467 0.022527685 0.31546628 4292006355
0.0133282 0.022581238 0.31621623 4292072148
0.013837532 0.022581238 0.31621623 4292072148
0.014392229 0.022652641 0.3172161 4292006355
0.014950147 0.022724044 0.318216 4292006355
0.015511288 0.022795448 0.31921589 4292072150
0.0160631 0.022848999 0.31996581 4292006357
0.016610852 0.022893628 0.32059076 4292072150
0.01714726 0.022920404 0.32096571 4291874771
0.017664243 0.022920404 0.32096571 4291875028
0.018287422 0.023054283 0.32284051 4291875028
0.019302549 0.023661209 0.3313396 4291743442
0.01991855 0.023759391 0.33271447 4291546063
0.020462137 0.023768315 0.33283943 4291546063
0.020998245 0.023768315 0.33283943 4291414477
0.021534352 0.023768315 0.33283943 4291480270
0.022095324 0.023795091 0.3332144 4291348684
-0.097399794 0.022433449 0.30721718 4289373853
-0.096668415 0.022378689 0.30646726 4289373855
-0.096174784 0.022378689 0.30646726 4289439648
-0.095134854 0.022250915 0.30471745 4289374368
-0.09421701 0.02215052 0.30334258 4289505954
-0.093728416 0.02215052 0.30334258 4289505700
-0.093201414 0.022141395 0.30321762 4289637286
-0.092713013 0.022141395 0.30321762 4289505700
-0.092338659 0.022168774 0.30359256 4289637286
-0.092227794 0.022260042 0.30484244 4289572265
-0.091699176 0.022250915 0.30471745 4289572265
-0.091170952 0.022241788 0.30459246 4289572265
-0.09064313 0.022232661 0.30446747 4289638058
-0.090152726 0.022232661 0.30446747 4289768874
-0.089662313 0.022232661 0.30446747 4289703081
-0.089062095 0.022205282 0.30409253 4289768874
-0.088572294 0.022205282 0.30409253 4289768874
-0.087720446 0.022114014 0.30284265 4289834667
-0.087232657 0.022114014 0.30284265 4289966253
-0.086064652 0.021940606 0.30046791 4289900460
-0.085260294 0.021858465 0.29934302 4289900460
-0.084778145 0.021858465 0.29934302 4289900460
-0.084155202 0.021821959 0.29884309 4289834667
-0.083638862 0.021812832 0.29871809 4289965740
-0.083088115 0.021794578 0.29846811 4290163119
-0.082607374 0.021794578 0.29846811 4290163119
-0.082126632 0.021794578 0.29846811 4289965740
-0.081782639 0.021831084 0.29896805 4289966253
-0.081233121 0.021812832 0.29871809 4290097839
-0.08075197 0.021812832 0.29871809 4290097839
-0.080203652 0.021794578 0.29846811 4289966253
-0.079722911 0.021794578 0.29846811 4290097839
-0.078744404 0.021657677 0.29659331 4290163632
-0.077771947 0.021520777 0.2947185 4290228912
-0.07729724 0.021520777 0.2947185 4290163119
-0.076561898 0.021447763 0.29371861 4290031533
-0.076088808 0.021447763 0.29371861 4290031533
-0.075615704 0.021447763 0.29371861 4290162349
-0.075110644 0.021438638 0.29359365 4290293935
-0.074605979 0.021429511 0.29346865 4290294703
-0.07391227 0.021365624 0.29259375 4290163117
-0.073440991 0.021365624 0.29259375 4290163117
-0.072439812 0.021210469 0.29046896 4290228910
-0.071971945 0.021210469 0.29046896 4290097837
-0.071565621 0.021228723 0.29071894 4290097837
-0.071066789 0.021219596 0.29059395 4290163884
-0.070598736 0.021219596 0.29059395 4290229677
-0.070130669 0.021219596 0.29059395 4290163884
-0.069662608 0.021219596 0.29059395 4290098091
-0.069164783 0.021210469 0.29046896 4290294957
-0.068696924 0.021210469 0.29046896 4290294957
-0.06825842 0.021219596 0.29059395 4290097837
-0.067790359 0.021219596 0.29059395 4290295216
-0.067351252 0.021228723 0.29071894 4290163630
-0.066940501 0.021246977 0.29096892 4290229423
-0.06647183 0.021246977 0.29096892 4290229425
-0.065804705 0.02118309 0.29009402 4290229425
-0.065168545 0.02112833 0.2893441 4290295216
-0.064674549 0.021119203 0.28921911 4290361009
-0.064208701 0.021119203 0.28921911 4290361009
-0.063687757 0.021100949 0.28896913 4290295216
-0.063194968 0.021091823 0.28884414 4290295218
-0.062729724 0.021091823 0.28884414 4290361011
-0.062237535 0.021082696 0.28871915 4290295218
-0.061772492 0.021082696 0.28871915 4290558390
-0.061360534 0.021100949 0.28896913 4290689976
-0.060921431 0.021110076 0.28909412 4290426804
-0.060508057 0.02112833 0.2893441 4290361011
-0.060042009 0.02112833 0.2893441 4290426804
-0.059524488 0.021110076 0.28909412 4290426804
-0.059058845 0.021110076 0.28909412 4290426804
-0.058491867 0.021073569 0.28859416 4290558390
-0.05785111 0.021009682 0.28771925 4290624183
-0.057387676 0.021009682 0.28771925 4290689976
-0.056924243 0.021009682 0.28771925 4290689976
-0.056411766 0.02099143 0.2874693 4290689976
-0.055948734 0.02099143 0.2874693 4290689976
-0.055533949 0.021009682 0.28771925 4290755256
-0.055070516 0.021009682 0.28771925 4290821049
-0.05460709 0.021009682 0.28771925 4290755256
-0.05426126 0.021055317 0.2883442 4290755256
-0.053890094 0.021091823 0.28884414 4290821049
-0.053471088 0.021110076 0.28909412 4290886842
-0.053005442 0.021110076 0.28909412 4290886842
-0.052494366 0.021091823 0.28884414 4290886842
-0.051826496 0.021009682 0.28771925 4290821562
-0.051363066 0.021009682 0.28771925 4291018941
-0.050855413 0.02099143 0.2874693 4291018941
-0.050370473 0.020982303 0.28734431 4290887355
-0.04988594 0.020973176 0.28721932 4291018941
-0.049423311 0.020973176 0.28721932 4290887355
-0.048960686 0.020973176 0.28721932 4290887355
-0.048540268 0.02099143 0.2874693 4291018941
-0.048119038 0.021009682 0.28771925 4290888125
-0.047883336 0.021110076 0.28909412 4290953918
-0.04745869 0.02112833 0.2893441 4290953918
-0.046972342 0.021119203 0.28921911 4290888125
-0.046265315 0.021009682 0.28771925 4290888125
-0.045801885 0.021009682 0.28771925 4290953918
-0.045180894 0.02093667 0.28671938 4290888125
-0.044660591 0.020909289 0.28634441 4290888125
-0.04419937 0.020909289 0.28634441 4290888125
-0.043680876 0.020881906 0.28596944 4290888125
-0.043220267 0.020881906 0.28596944 4290953918
-0.042759653 0.020881906 0.28596944 4291019711
-0.042336013 0.02090016 0.28621942 4290953918
-0.041911572 0.020918416 0.2864694 4290953918
-0.04145015 0.020918416 0.2864694 4291019711
-0.041060269 0.02095492 0.28696933 4291085504
-0.040598042 0.02095492 0.28696933 4291216320
-0.040135819 0.02095492 0.28696933 4291150527
-0.039639037 0.02093667 0.28671938 4291150527
-0.039177217 0.02093667 0.28671938 4291150527
-0.038681645 0.020918416 0.2864694 4291216320
-0.038220223 0.020918416 0.2864694 4291216320
-0.037758805 0.020918416 0.2864694 4291216067
-0.037329931 0.02093667 0.28671938 4291216067
-0.036900256 0.02095492 0.28696933 4291281860
-0.036438029 0.02095492 0.28696933 4291281860
-0.036007144 0.020973176 0.28721932 4291281860
-0.035544515 0.020973176 0.28721932 4291281860
-0.035081889 0.020973176 0.28721932 4291347653
-0.034649394 0.02099143 0.2874693 4291479239
-0.034201231 0.021000557 0.28759429 4291347653
-0.033723336 0.02099143 0.2874693 4291347653
-0.033260308 0.02099143 0.2874693 4291479239
-0.032811537 0.021000557 0.28759429 4291347653
-0.032348309 0.021000557 0.28759429 4291216837
-0.03188508 0.021000557 0.28759429 4291151044
-0.031421848 0.021000557 0.28759429 4291216837
-0.030972069 0.021009682 0.28771925 4291348423
-0.030535145 0.021027936 0.28796923 4291414216
-0.03008436 0.021037063 0.28809422 4291348423
-0.029620327 0.021037063 0.28809422 4291414216
-0.029168939 0.02104619 0.28821921 4291414216
-0.028717153 0.021055317 0.2883442 4291414216
-0.02828945 0.021082696 0.28871915 4291480009
-0.027872592 0.021119203 0.28921911 4291545802
-0.027406743 0.021119203 0.28921911 4291480009
-0.026940895 0.021119203 0.28921911 4291610825
-0.02648649 0.02112833 0.2893441 4291610825
-0.0260092 0.021119203 0.28921911 4291480009
-0.025543354 0.021119203 0.28921911 4291545802
-0.025077505 0.021119203 0.28921911 4291480009
-0.024632929 0.021137455 0.28946906 4291545802
-0.024166679 0.021137455 0.28946906 4291545802
-0.023720894 0.021155709 0.28971905 4291545802
-0.023254244 0.021155709 0.28971905 4291611595
-0.022807252 0.021173963 0.28996903 4291611595
-0.022349827 0.02118309 0.29009402 4291545802
-0.021891998 0.021192217 0.29021901 4291545802
-0.021442993 0.021210469 0.29046896 4291611595
-0.020975132 0.021210469 0.29046896 4291545802
-0.020542568 0.021246977 0.29096892 4291545802
-0.020108392 0.021283483 0.29146886 4291611595
-0.019655764 0.021301737 0.29171884 4291677388
-0.019185891 0.021301737 0.29171884 4291545802
-0.018716017 0.021301737 0.29171884 4291480268
-0.018246142 0.021301737 0.29171884 4291611854
-0.017776269 0.021301737 0.29171884 4291546063
-0.01731381 0.021310864 0.29184383 4291546063
-0.016850948 0.021319991 0.29196882 4291546063
-0.016380671 0.021319991 0.29196882 4291546063
-0.015917206 0.021329116 0.29209378 4291611854
-0.015453338 0.021338243 0.29221877 4291611854
-0.014989067 0.02134737 0.29234377 4291546061
-0.014518187 0.02134737 0.29234377 4291546061
-0.014053313 0.021356497 0.29246876 4291677388
-0.013593839 0.021374751 0.29271874 4291808974
-0.013139163 0.02140213 0.29309368 4291611852
-0.012677879 0.021420384 0.29334366 4291743438
-0.012205388 0.021420384 0.29334366 4291874767
-0.011747894 0.021447763 0.29371861 4291808974
-0.011293991 0.021484271 0.29421857 4291874767
-0.010833878 0.02151165 0.29459351 4291874767
-0.010368166 0.021529904 0.29484349 4291940560
-0.009910034 0.021566411 0.29534346 4291874767
-0.0094343228 0.021566411 0.29534346 4291874769
-0.0089775659 0.021612044 0.29596838 4291808976
-0.0085367458 0.02170331 0.29721823 4292005585
-0.0080851223 0.021776324 0.29821813 4292137171
-0.0076175299 0.021812832 0.29871809 4292005585
-0.0071393684 0.021821959 0.29884309 4292005585
-0.006658019 0.021821959 0.29884309 4291808976
-0.0061792531 0.021831084 0.29896805 4291874769
-0.0057000853 0.021840211 0.29909304 4291808976
-0.0052205138 0.021849338 0.29921803 4291874769
-0.0047405404 0.021858465 0.29934302 4291874769
-0.0042583863 0.021858465 0.29934302 4291940562
-0.003777809 0.021867592 0.29946801 4291940560
-0.0032982042 0.021885846 0.29971799 4291940560
-0.00281662 0.021894971 0.29984295 4292137169
-0.0023385244 0.021940606 0.30046791 4292137169
-0.0018545585 0.021940606 0.30046791 4292071378
-0.001374013 0.021995366 0.30121782 4292071378
-0.00089178956 0.022068381 0.30221772 4292071378
-0.00040601005 0.022123141 0.30296764 4292071378
8.225294e-05 0.022196155 0.30396754 4292071378
0.00057303155 0.022241788 0.30459246 4292071378
0.0010653868 0.022278294 0.30509239 4292006357
0.0015568016 0.022278294 0.30509239 4292006357
0.0020498945 0.022296548 0.30534238 4291940564
0.0025427525 0.022305675 0.30546737 4291940564
0.0030372548 0.022323929 0.30571735 4291874771
0.0035354481 0.022360435 0.30621728 4291874771
0.0040286747 0.022360435 0.30621728 4291940564
0.0045292848 0.022396943 0.30671725 4291940564
0.0050315042 0.022433449 0.30721718 4291940564
0.0055398308 0.022488208 0.3079671 4291940564
0.0060481243 0.022533841 0.30859202 4291940564
0.0065584308 0.022579476 0.30921698 4291874771
0.0070564891 0.022579476 0.30921698 4291940564
0.0075728693 0.022634236 0.30996689 4292006357
0.008088409 0.022679869 0.31059182 4292006355
0.0086059626 0.022725502 0.31121674 4292072148
0.0091255307 0.022771137 0.3118417 4291940562
0.0096432511 0.022807643 0.31234163 4291940562
0.010166643 0.022853276 0.31296656 4292137171
0.01067074 0.022853276 0.31296656 4292137171
0.01119269 0.022889784 0.31346652 4292202964
0.01171625 0.02292629 0.31396645 4292005585
0.012251151 0.022981049 0.31471637 4292006355
0.012788467 0.023035809 0.31546628 4292006355
0.0133282 0.023090573 0.31621623 4291940562
0.013837532 0.023090573 0.31621623 4291940562
0.014392229 0.023163583 0.3172161 4291940562
0.014950147 0.023236599 0.318216 4292006355
0.015511288 0.023309613 0.31921589 4292006355
0.0160631 0.023364373 0.31996581 4291940562
0.016610852 0.023410007 0.32059076 4292006357
0.01714726 0.023437386 0.32096571 4291940564
0.017664243 0.023437386 0.32096571 4291940564
0.018287422 0.023574287 0.32284051 4291940564
0.019237017 0.024112761 0.33021471 4291808978
0.019903583 0.024277044 0.33246449 4291611599
0.020462137 0.024304422 0.33283943 4291480270
0.020998245 0.024304422 0.33283943 4291414477
0.021534352 0.024304422 0.33283943 4291414477
0.022095324 0.024331804 0.3332144 4291414477
-0.097399794 0.022928284 0.30721718 4289373853
-0.096707843 0.022881644 0.30659226 4289373855
-0.096214004 0.022881644 0.30659226 4289308062
-0.095056809 0.022723068 0.30446747 4289374114
-0.09410055 0.022611132 0.30296764 4289439907
-0.093612559 0.022611132 0.30296764 4289505700
-0.093124576 0.022611132 0.30296764 4289637286
-0.092713013 0.022629788 0.30321762 4289374886
-0.092604764 0.022723068 0.30446747 4289506472
-0.092227794 0.022751052 0.30484244 4289572265
-0.091736786 0.022751052 0.30484244 4289572265
-0.091283195 0.02276038 0.30496743 4289506472
-0.090717554 0.022741724 0.30471745 4289572265
-0.090226747 0.022741724 0.30471745 4289572265
-0.089735925 0.022741724 0.30471745 4289506472
-0.089098692 0.022704411 0.30421749 4289703081
-0.08860869 0.022704411 0.30421749 4289768874
-0.087865256 0.022639114 0.30334258 4289834667
-0.08694464 0.022527179 0.30184275 4289768874
-0.086458459 0.022527179 0.30184275 4289834667
-0.085367098 0.022368604 0.29971799 4289900460
-0.084884338 0.022368604 0.29971799 4289900460
-0.084190391 0.022312634 0.29896805 4289834667
-0.083638862 0.022293979 0.29871809 4289965740
-0.083088115 0.022275323 0.29846811 4290031533
-0.082607374 0.022275323 0.29846811 4290163119
-0.082126632 0.022275323 0.29846811 4289965740
-0.081748456 0.022303307 0.29884309 4289966251
-0.081233121 0.022293979 0.29871809 4289966251
-0.08075197 0.022293979 0.29871809 4289900458
-0.080203652 0.022275323 0.29846811 4290097837
-0.079255521 0.022144729 0.2967183 4290097837
-0.078744404 0.022135401 0.29659331 4290163630
-0.077771947 0.021995481 0.2947185 4290163632
-0.07729724 0.021995481 0.2947185 4290097839
-0.076561898 0.021920856 0.29371861 4290163119
-0.076088808 0.021920856 0.29371861 4290163119
-0.075615704 0.021920856 0.29371861 4290031533
-0.075110644 0.02191153 0.29359365 4290163119
-0.074605979 0.021902202 0.29346865 4290031533
-0.07391227 0.021836905 0.29259375 4290031533
-0.073440991 0.021836905 0.29259375 4290031531
-0.072439812 0.021678329 0.29046896 4290163117
-0.071971945 0.021678329 0.29046896 4289966251
-0.071565621 0.021696985 0.29071894 4290097837
-0.071066789 0.021687657 0.29059395 4290098091
-0.070598736 0.021687657 0.29059395 4290163884
-0.070130669 0.021687657 0.29059395 4290163884
-0.069662608 0.021687657 0.29059395 4290163884
-0.069194548 0.021687657 0.29059395 4290163884
-0.068756044 0.021696985 0.29071894 4290163884
-0.068287782 0.021696985 0.29071894 4289900712
-0.067819521 0.021696985 0.29071894 4290098091
-0.067351252 0.021696985 0.29071894 4290163630
-0.066940501 0.021715641 0.29096892 4290163630
-0.06647183 0.021715641 0.29096892 4290098607
-0.065804705 0.021650346 0.29009402 4290098607
-0.065196693 0.021603703 0.28946906 4290164400
-0.064674549 0.021585049 0.28921911 4290164400
-0.064208701 0.021585049 0.28921911 4290164402
-0.063742854 0.021585049 0.28921911 4290164402
-0.063249663 0.021575721 0.28909412 4290295988
-0.062784016 0.021575721 0.28909412 4290230195
-0.062291421 0.021566393 0.28896913 4290164402
-0.061825976 0.021566393 0.28896913 4290230195
-0.061387077 0.021575721 0.28909412 4290493367
-0.060947768 0.021585049 0.28921911 4290295988
-0.060586467 0.02162236 0.28971905 4290230195
-0.060119815 0.02162236 0.28971905 4290295988
-0.059653159 0.02162236 0.28971905 4290426804
-0.059058845 0.021575721 0.28909412 4290426804
-0.058593199 0.021575721 0.28909412 4290426804
-0.057976767 0.021519752 0.2883442 4290624183
-0.057412606 0.02148244 0.28784424 4290624183
-0.056948971 0.02148244 0.28784424 4290624183
-0.056460813 0.021473112 0.28771925 4290689976
-0.055997383 0.021473112 0.28771925 4290689976
-0.055558074 0.02148244 0.28784424 4290624183
-0.05509444 0.02148244 0.28784424 4290689976
-0.054630812 0.02148244 0.28784424 4290689976
-0.054284781 0.021529082 0.2884692 4290689976
-0.053866774 0.021547737 0.28871915 4290755769
-0.053401731 0.021547737 0.28871915 4290821562
-0.052936688 0.021547737 0.28871915 4290821562
-0.052471649 0.021547737 0.28871915 4290821562
-0.051871527 0.021491768 0.28796923 4290821562
-0.051407691 0.021491768 0.28796923 4290821562
-0.050899632 0.021473112 0.28771925 4290887355
-0.050414294 0.021463785 0.28759429 4290887355
-0.049929358 0.021454457 0.2874693 4291084734
-0.049466327 0.021454457 0.2874693 4291084734
-0.049003299 0.021454457 0.2874693 4290887355
-0.048582472 0.021473112 0.28771925 4290887355
-0.048160847 0.021491768 0.28796923 4291084734
-0.047966141 0.021613032 0.28959405 4291018941
-0.04752019 0.02162236 0.28971905 4290756539
-0.047175329 0.021678329 0.29046896 4290888125
-0.046466295 0.021566393 0.28896913 4290953918
-0.045881476 0.021510424 0.28821921 4290953918
-0.045299064 0.021454457 0.2874693 4290953918
-0.044719074 0.021398488 0.28671938 4290953918
-0.04419937 0.021370504 0.28634441 4290888125
-0.043738153 0.021370504 0.28634441 4290953918
-0.043258049 0.021361176 0.28621942 4290953918
-0.042797033 0.021361176 0.28621942 4290953918
-0.04237299 0.021379832 0.2864694 4290953918
-0.041911572 0.021379832 0.2864694 4290953918
-0.041413981 0.021361176 0.28621942 4291019711
-0.040917199 0.02134252 0.28596944 4291085504
-0.040456586 0.02134252 0.28596944 4291216320
-0.039995972 0.02134252 0.28596944 4291150527
-0.039535359 0.02134252 0.28596944 4291216320
-0.039160136 0.02138916 0.28659439 4291150527
-0.038698521 0.02138916 0.28659439 4291216320
-0.038253576 0.021398488 0.28671938 4291216320
-0.037824698 0.021417143 0.28696933 4291216067
-0.037362475 0.021417143 0.28696933 4291216067
-0.036916327 0.021426471 0.28709432 4291281860
-0.036469772 0.021435801 0.28721932 4291281860
-0.036007144 0.021435801 0.28721932 4291281860
-0.035544515 0.021435801 0.28721932 4291281860
-0.035112426 0.021454457 0.2874693 4291281860
-0.03466446 0.021463785 0.28759429 4291347653
-0.034201231 0.021463785 0.28759429 4291479239
-0.033723336 0.021454457 0.2874693 4291347653
-0.033260308 0.021454457 0.2874693 4291347653
-0.032811537 0.021463785 0.28759429 4291347653
-0.032348309 0.021463785 0.28759429 4291281860
-0.031912789 0.02148244 0.28784424 4291281860
-0.031449158 0.02148244 0.28784424 4291216837
-0.030998979 0.021491768 0.28796923 4291348423
-0.030561652 0.021510424 0.28821921 4291480009
-0.030097414 0.021510424 0.28821921 4291348423
-0.029646028 0.021519752 0.2883442 4291414216
-0.029181588 0.021519752 0.2883442 4291414216
-0.028742045 0.021538407 0.28859416 4291414216
-0.028313944 0.021566393 0.28896913 4291480009
-0.028017133 0.021696985 0.29071894 4291545802
-0.02754887 0.021696985 0.29071894 4291480009
-0.027080605 0.021696985 0.29071894 4291480009
-0.026520813 0.02162236 0.28971905 4291480009
-0.026042918 0.021613032 0.28959405 4291545802
-0.025576469 0.021613032 0.28959405 4291480009
-0.025110016 0.021613032 0.28959405 4291480009
-0.024643566 0.021613032 0.28959405 4291545802
-0.024187548 0.02162236 0.28971905 4291480009
-0.023741363 0.021641018 0.28996903 4291545802
-0.023274308 0.021641018 0.28996903 4291546059
-0.022807252 0.021641018 0.28996903 4291546059
-0.022359457 0.021659674 0.29021901 4291546059
-0.021901423 0.021669 0.29034397 4291480266
-0.02145222 0.021687657 0.29059395 4291546059
-0.020984158 0.021687657 0.29059395 4291546059
-0.020551391 0.021724969 0.29109392 4291546059
-0.020108392 0.021752954 0.29146886 4291546059
-0.019655764 0.02177161 0.29171884 4291546059
-0.019185891 0.02177161 0.29171884 4291480266
-0.018716017 0.02177161 0.29171884 4291480268
-0.018246142 0.02177161 0.29171884 4291480268
-0.017783886 0.021780938 0.29184383 4291546061
-0.017321225 0.021790266 0.29196882 4291546061
-0.01685816 0.021799592 0.29209378 4291480270
-0.016387682 0.021799592 0.29209378 4291480270
-0.015924016 0.02180892 0.29221877 4291546063
-0.015459947 0.021818249 0.29234377 4291611856
-0.014995476 0.021827577 0.29246876 4291677390
-0.014524395 0.021827577 0.29246876 4291611597
-0.014065324 0.021846235 0.29271874 4291677390
-0.013605447 0.021864889 0.29296869 4291808976
-0.013144766 0.021883545 0.29321867 4291611852
-0.012683281 0.021902202 0.29346865 4291546059
-0.012210589 0.021902202 0.29346865 4291809231
-0.011757893 0.021939512 0.29396859 4291743438
-0.011298789 0.021967499 0.29434356 4291808974
-0.010838475 0.021995481 0.2947185 4291874767
-0.010381351 0.022032794 0.29521847 4291874767
-0.0099226153 0.022070106 0.2957184 4291874767
-0.0094462996 0.022070106 0.2957184 4291808974
-0.0089965221 0.022135401 0.29659331 4291808974
-0.0085475156 0.022210026 0.29759321 4292005583
-0.0080885114 0.022265993 0.29834312 4292005583
-0.0076175299 0.022293979 0.29871809 4292005583
-0.0071423538 0.022312634 0.29896805 4291939790
-0.0066635879 0.022321962 0.29909304 4291808974
-0.0061818366 0.022321962 0.29909304 4291874767
-0.0057024672 0.02233129 0.29921803 4291808974
-0.0052248752 0.022349946 0.29946801 4291808974
-0.0047425199 0.022349946 0.29946801 4291874767
-0.0042601642 0.022349946 0.29946801 4291940560
-0.0037809624 0.022368604 0.29971799 4292071376
-0.0032995793 0.022377929 0.29984295 4292005583
-0.0028177942 0.022387259 0.29996794 4292071376
-0.0023385244 0.022424571 0.30046791 4292137169
-0.0018545585 0.022424571 0.30046791 4291940560
-0.0013745831 0.022489868 0.30134282 4291940560
-0.00089178956 0.022555163 0.30221772 4291874767
-0.00040634506 0.022629788 0.30321762 4291940560
8.2286766e-05 0.022695085 0.30409253 4292005583
0.00057326671 0.022741724 0.30471745 4291676618
0.0010653868 0.022769706 0.30509239 4292137169
0.0015568016 0.022769706 0.30509239 4292137169
0.0020498945 0.022788363 0.30534238 4292137169
0.0025437928 0.022807021 0.30559236 4292071376
0.0030384967 0.022825677 0.30584234 4292071378
0.0035368912 0.022862988 0.30634227 4292071378
0.0040303194 0.022862988 0.30634227 4291874769
0.0045311297 0.022900298 0.30684221 4291940562
0.0050355983 0.022946941 0.30746716 4291940564
0.0055443277 0.023002909 0.30821708 4291940564
0.0060554733 0.023058876 0.30896699 4292006357
0.0065663834 0.023105515 0.30959192 4291940564
0.0070821592 0.023161484 0.31034184 4291940564
0.0075820293 0.023161484 0.31034184 4292006357
0.0081014289 0.023217451 0.31109175 4292006357
0.0086197881 0.023264093 0.31171671 4292072150
0.0091401609 0.023310732 0.31234163 4292137173
0.0096625453 0.023357373 0.31296656 4292137173
0.010182885 0.023394685 0.31346652 4292137171
0.010687787 0.023394685 0.31346652 4292071378
0.01121054 0.023431998 0.31396645 4292006355
0.011734908 0.02346931 0.31446642 4291874769
0.012270613 0.023525279 0.31521633 4292006355
0.012808735 0.023581246 0.31596625 4292006355
0.013359808 0.023655871 0.31696615 4291940562
0.013914104 0.023730496 0.31796604 4291940562
0.014426254 0.023730496 0.31796604 4291874769
0.014979508 0.023795791 0.31884095 4292006355
0.015535582 0.023861088 0.31971586 4291874769
0.016088199 0.023917055 0.32046577 4292006355
0.016630279 0.023954367 0.32096571 4291940564
0.017160615 0.023973024 0.32121569 4291940564
0.017678 0.023973024 0.32121569 4291874771
0.018294504 0.024103615 0.3229655 4291808978
0.019237017 0.024644639 0.33021471 4291808978
0.019888619 0.024793889 0.3322145 4291611599
0.020469822 0.024849856 0.33296442 4291545804
0.021006132 0.024849856 0.33296442 4291480011
0.021542437 0.024849856 0.33296442 4291151303
-0.097399794 0.023423122 0.30721718 4289373855
-0.096747272 0.023385005 0.30671725 4289373855
-0.096253231 0.023385005 0.30671725 4289242269
-0.094978757 0.023194417 0.30421749 4289374114
-0.09410055 0.023099124 0.30296764 4289439907
-0.093535319 0.023080066 0.30271766 4289374114
-0.093047738 0.023080066 0.30271766 4289505700
-0.092713013 0.023118185 0.30321762 4289374886
-0.092528731 0.023194417 0.30421749 4289506472
-0.092265613 0.023251595 0.30496743 4289506472
-0.091774404 0.023251595 0.30496743 4289506472
-0.091283195 0.023251595 0.30496743 4289309093
-0.090754762 0.023242066 0.30484244 4289506472
-0.090263754 0.023242066 0.30484244 4289506472
-0.089772739 0.023242066 0.30484244 4289506472
-0.089098692 0.023194417 0.30421749 4289572265
-0.08860869 0.023194417 0.30421749 4289638058
-0.08743082 0.023013361 0.30184275 4289768874
-0.08694464 0.023013361 0.30184275 4289768874
-0.085921444 0.02287042 0.29996794 4289834667
-0.085224696 0.022813244 0.29921803 4289900460
-0.084742747 0.022813244 0.29921803 4289900460
-0.084225588 0.022803714 0.29909304 4289834667
-0.083673857 0.022784658 0.29884309 4289965740
-0.083157703 0.022775128 0.29871809 4290031533
-0.08267656 0.022775128 0.29871809 4290031533
-0.082195416 0.022775128 0.29871809 4290031533
-0.081714265 0.022775128 0.29871809 4289966251
-0.081233121 0.022775128 0.29871809 4289966251
-0.08081954 0.022794185 0.29896805 4289966251
-0.080203652 0.022756068 0.29846811 4289966251
-0.079255521 0.022622658 0.2967183 4289966251
-0.078777589 0.022622658 0.2967183 4290097837
-0.077837914 0.022489246 0.29496849 4290097837
-0.077362798 0.022489246 0.29496849 4289966251
-0.076757379 0.022451131 0.29446855 4290163119
-0.076121189 0.022403482 0.2938436 4290163119
-0.075647883 0.022403482 0.2938436 4289965740
-0.07520657 0.022413012 0.29396859 4290163119
-0.074669525 0.022393953 0.29371861 4289965740
-0.074070133 0.022355836 0.29321867 4289965740
-0.073597848 0.022355836 0.29321867 4289966253
-0.072751515 0.022241484 0.29171884 4290097839
-0.07203389 0.02216525 0.29071894 4289966251
-0.071565621 0.02216525 0.29071894 4289966251
-0.071097359 0.02216525 0.29071894 4290097837
-0.070629098 0.02216525 0.29071894 4290097837
-0.070160836 0.02216525 0.29071894 4290163884
-0.069752499 0.022184309 0.29096892 4290163884
-0.069224305 0.02216525 0.29071894 4290098091
-0.068756044 0.02216525 0.29071894 4290098091
-0.068287782 0.02216525 0.29071894 4289900712
-0.067819521 0.02216525 0.29071894 4290098091
-0.067351252 0.02216525 0.29071894 4290163630
-0.066825479 0.02214619 0.29046896 4290097837
-0.06635762 0.02214619 0.29046896 4290229423
-0.0656913 0.022079485 0.28959405 4290229423
-0.065140396 0.022050899 0.28921911 4290229423
-0.064674549 0.022050899 0.28921911 4290229423
-0.064208701 0.022050899 0.28921911 4290295216
-0.063742854 0.022050899 0.28921911 4290229423
-0.063249663 0.022041367 0.28909412 4290295218
-0.062784016 0.022041367 0.28909412 4290229425
-0.062291421 0.022031838 0.28896913 4290295218
-0.061825976 0.022031838 0.28896913 4290361011
-0.061387077 0.022041367 0.28909412 4290426804
-0.060947768 0.022050899 0.28921911 4290426804
-0.060586467 0.022089014 0.28971905 4290361011
-0.060119815 0.022089014 0.28971905 4290558390
-0.059653159 0.022089014 0.28971905 4290558390
-0.059058845 0.022041367 0.28909412 4290558390
-0.058593199 0.022041367 0.28909412 4290426804
-0.057976767 0.021984192 0.2883442 4290624183
-0.057412606 0.021946074 0.28784424 4290624183
-0.056948971 0.021946074 0.28784424 4290624183
-0.056460813 0.021936543 0.28771925 4290689976
-0.055997383 0.021936543 0.28771925 4290689976
-0.055558074 0.021946074 0.28784424 4290624183
-0.05509444 0.021946074 0.28784424 4290689976
-0.054630812 0.021946074 0.28784424 4290624183
-0.054284781 0.021993723 0.2884692 4290689976
-0.053820141 0.021993723 0.2884692 4290689976
-0.053401731 0.022012779 0.28871915 4290821562
-0.052936688 0.022012779 0.28871915 4290755769
-0.052471649 0.022012779 0.28871915 4290821562
-0.051894039 0.021965133 0.28809422 4290821562
-0.051430002 0.021965133 0.28809422 4290755769
-0.050943855 0.021955604 0.28796923 4290887355
-0.050436199 0.021936543 0.28771925 4291018941
-0.049972769 0.021936543 0.28771925 4291084734
-0.049509339 0.021936543 0.28771925 4291018941
-0.049045905 0.021936543 0.28771925 4290887355
-0.048624683 0.021955604 0.28796923 4290887355
-0.048202656 0.021974662 0.28821921 4291084734
-0.048007544 0.022098543 0.28984404 4290887355
-0.048196703 0.022403482 0.2938436 4290821562
-0.047784306 0.02243207 0.29421857 4291018941
-0.046667274 0.022127133 0.29021901 4290953918
-0.045881476 0.021974662 0.28821921 4290953918
-0.045417238 0.021974662 0.28821921 4290953918
-0.044816542 0.021907957 0.28734431 4290953918
-0.044276539 0.021869838 0.28684434 4290953918
-0.043814518 0.021869838 0.28684434 4290953918
-0.043333612 0.021860311 0.28671938 4291019711
-0.042853098 0.021850782 0.28659439 4291019711
-0.042391479 0.021850782 0.28659439 4290953918
-0.041929856 0.021850782 0.28659439 4291019711
-0.041413981 0.021822192 0.28621942 4291150527
-0.040917199 0.021803133 0.28596944 4291150527
-0.040456586 0.021803133 0.28596944 4291150527
-0.039995972 0.021803133 0.28596944 4291150527
-0.039535359 0.021803133 0.28596944 4291150527
-0.039160136 0.021850782 0.28659439 4291150527
-0.038698521 0.021850782 0.28659439 4291150527
-0.038286924 0.021879368 0.28696933 4291150527
-0.037857648 0.021898428 0.28721932 4291150527
-0.037395023 0.021898428 0.28721932 4291216320
-0.036948472 0.021907957 0.28734431 4291216067
-0.036501512 0.021917487 0.2874693 4291216067
-0.036054153 0.021927016 0.28759429 4291216067
-0.035590921 0.021927016 0.28759429 4291347653
-0.035142954 0.021936543 0.28771925 4291281860
-0.03466446 0.021927016 0.28759429 4291281860
-0.034201231 0.021927016 0.28759429 4291216067
-0.033737998 0.021927016 0.28759429 4291281860
-0.03327477 0.021927016 0.28759429 4291347653
-0.032811537 0.021927016 0.28759429 4291347653
-0.032362364 0.021936543 0.28771925 4291281860
-0.031940505 0.021965133 0.28809422 4291281860
-0.031476468 0.021965133 0.28809422 4291479239
-0.031025888 0.021974662 0.28821921 4291545032
-0.030574905 0.021984192 0.2883442 4291414216
-0.030123517 0.021993723 0.2884692 4291216837
-0.029671727 0.02200325 0.28859416 4291348423
-0.029206885 0.02200325 0.28859416 4291414216
-0.028779391 0.022031838 0.28896913 4291480009
-0.028485395 0.02216525 0.29071894 4291545802
-0.028089404 0.022222426 0.29146886 4291545802
-0.027596245 0.022203365 0.29121888 4291480009
-0.027127175 0.022203365 0.29121888 4291414216
-0.026600901 0.022155719 0.29059395 4291545802
-0.026076639 0.022108074 0.28996903 4291545802
-0.025609585 0.022108074 0.28996903 4291480009
-0.02514253 0.022108074 0.28996903 4291545802
-0.024675475 0.022108074 0.28996903 4291545802
-0.024208419 0.022108074 0.28996903 4291480009
-0.023751596 0.022117604 0.29009402 4291545802
-0.023294372 0.022127133 0.29021901 4291480266
-0.022826914 0.022127133 0.29021901 4291546059
-0.022359457 0.022127133 0.29021901 4291546059
-0.021920281 0.022155719 0.29059395 4291480266
-0.021479901 0.022184309 0.29096892 4291546059
-0.021011235 0.022184309 0.29096892 4291480266
-0.020577863 0.022222426 0.29146886 4291546059
-0.020125639 0.022241484 0.29171884 4291546059
-0.019655764 0.022241484 0.29171884 4291611597
-0.019194113 0.022251014 0.29184383 4291545804
-0.018724035 0.022251014 0.29184383 4291545804
-0.018261777 0.022260543 0.29196882 4291611597
-0.017791502 0.022260543 0.29196882 4291677390
-0.01732864 0.02227007 0.29209378 4291611597
-0.016865375 0.022279602 0.29221877 4291611599
-0.016394695 0.022279602 0.29221877 4291611599
-0.015930828 0.022289131 0.29234377 4291480270
-0.015466558 0.02229866 0.29246876 4291546063
-0.015008293 0.022317719 0.29271874 4291611597
-0.014549222 0.022336777 0.29296869 4291677390
-0.014077335 0.022336777 0.29296869 4291808976
-0.013617055 0.022355836 0.29321867 4291677390
-0.013155973 0.022374894 0.29346865 4291743440
-0.012694083 0.022393953 0.29371861 4291546061
-0.01223659 0.022422541 0.29409358 4291743438
-0.011762892 0.022422541 0.29409358 4291743438
-0.011303587 0.022451131 0.29446855 4291743438
-0.010847668 0.022489246 0.29496849 4291743438
-0.010390141 0.022527363 0.29546842 4291743438
-0.0099393912 0.022584541 0.29621837 4291743438
-0.009490218 0.022651246 0.29709327 4291808974
-0.0090116877 0.022651246 0.29709327 4291808974
-0.0085546961 0.022708422 0.29784319 4291874767
-0.0080919005 0.022756068 0.29846811 4291874767
-0.0076207174 0.022784658 0.29884309 4291874767
-0.0071453401 0.022803714 0.29909304 4291808974
-0.0066663725 0.022813244 0.29921803 4291808974
-0.0061844201 0.022813244 0.29921803 4291808974
-0.0057072314 0.022832304 0.29946801 4291808974
-0.0052270563 0.022841834 0.299593 4291874767
-0.004746479 0.022851363 0.29971799 4291874767
-0.0042637205 0.022851363 0.29971799 4291874767
-0.0037825389 0.02286089 0.29984295 4292005583
-0.0033009548 0.02287042 0.29996794 4292005583
-0.0028201425 0.022889478 0.30021793 4292005583
-0.0023394972 0.022918068 0.3005929 4292137169
-0.00185533 0.022918068 0.3005929 4292005583
-0.0013745831 0.022975244 0.30134282 4292071376
-0.00089178956 0.023041949 0.30221772 4292005583
-0.00040634506 0.023118185 0.30321762 4291939790
8.2286766e-05 0.02318489 0.30409253 4292071376
0.00057326671 0.023232536 0.30471745 4292071376
0.0010653868 0.023261122 0.30509239 4292137169
0.0015568016 0.023261122 0.30509239 4292071376
0.0020498945 0.023280181 0.30534238 4292071376
0.0025437928 0.023299241 0.30559236 4292071376
0.0030397382 0.023327827 0.3059673 4292137169
0.0035383343 0.023365946 0.30646726 4292137169
0.0040385411 0.023404064 0.3069672 4292005585
0.0045329756 0.023404064 0.3069672 4292071378
0.0050396919 0.023461239 0.30771711 4291874771
0.0055488246 0.023518417 0.30846706 4291874771
0.006060373 0.023575593 0.30921698 4292006357
0.0065743364 0.023632769 0.30996689 4292006357
0.0070935683 0.023699474 0.3108418 4291940564
0.0075942441 0.023699474 0.3108418 4291940564
0.0081111938 0.02374712 0.31146672 4292006357
0.0086301565 0.023794767 0.31209165 4292006357
0.0091511337 0.023842415 0.3127166 4292006357
0.0096702632 0.02388053 0.31321654 4292006357
0.010195064 0.023928177 0.31384146 4291940562
0.010700571 0.023928177 0.31384146 4291940562
0.01122393 0.023966296 0.31434143 4292006355
0.011753563 0.024013942 0.31496635 4291940562
0.012290074 0.024071118 0.31571627 4292006355
0.012839135 0.024147352 0.31671616 4292006355
0.013386148 0.024214057 0.31759107 4291874769
0.01394145 0.024290293 0.31859097 4291808976
0.014454607 0.024290293 0.31859097 4291874769
0.015008868 0.024356999 0.31946588 4292006355
0.015559874 0.024414174 0.32021579 4291743440
0.016107021 0.024461821 0.32084072 4291940819
0.016649706 0.024499938 0.32134068 4291809235
0.017194001 0.024538055 0.32184061 4291809235
0.017712392 0.024538055 0.32184061 4291874771
0.018535221 0.024947817 0.32721505 4291808978
0.019251581 0.02519558 0.33046469 4291808976
0.019888619 0.02532899 0.3322145 4291611597
0.020469822 0.025386166 0.33296442 4291611597
0.021014016 0.025395695 0.33308941 4291545804
0.021550525 0.025395695 0.33308941 4291152073
-0.096904963 0.023917958 0.30721718 4289308321
-0.096410118 0.023917958 0.30721718 4289176735
-0.094978757 0.023684422 0.30421749 4289374114
-0.094488747 0.023684422 0.30421749 4289374114
-0.093535319 0.023567654 0.30271766 4289439907
-0.093047738 0.023567654 0.30271766 4289505700
-0.092713013 0.023606578 0.30321762 4289505700
-0.092528731 0.023684422 0.30421749 4289505700
-0.092265613 0.023742808 0.30496743 4289637286
-0.091774404 0.023742808 0.30496743 4289637286
-0.091283195 0.023742808 0.30496743 4289505700
-0.09079197 0.023742808 0.30496743 4289637286
-0.090300761 0.023742808 0.30496743 4289637288
-0.089809544 0.023742808 0.30496743 4289637288
-0.089098692 0.023684422 0.30421749 4289703081
-0.08860869 0.023684422 0.30421749 4289703081
-0.08743082 0.023499539 0.30184275 4289703081
-0.08694464 0.023499539 0.30184275 4289703081
-0.085921444 0.023353579 0.29996794 4289834667
-0.085224696 0.023295196 0.29921803 4289900460
-0.084742747 0.023295196 0.29921803 4289900460
-0.084260784 0.023295196 0.29921803 4289834667
-0.083708845 0.023275733 0.29896805 4289965740
-0.083157703 0.023256274 0.29871809 4290031533
-0.08267656 0.023256274 0.29871809 4289966251
-0.082195416 0.023256274 0.29871809 4289966251
-0.081714265 0.023256274 0.29871809 4289900458
-0.081199132 0.023246543 0.2985931 4289966251
-0.080718182 0.023246543 0.2985931 4289966251
-0.080203652 0.023236811 0.29846811 4289966251
-0.07945583 0.023158966 0.29746822 4290097837
-0.078976691 0.023158966 0.29746822 4289966251
-0.078233697 0.02308112 0.29646832 4289966251
-0.077395581 0.022974085 0.29509348 4289966251
-0.076920278 0.022974085 0.29509348 4290163119
-0.076315455 0.022935161 0.29459351 4290163119
-0.075840943 0.022935161 0.29459351 4289965740
-0.075398423 0.022944892 0.2947185 4290163119
-0.074923716 0.022944892 0.2947185 4290031280
-0.074259572 0.022886507 0.29396859 4290031280
-0.07378608 0.022886507 0.29396859 4290163379
-0.073187903 0.022847585 0.29346865 4290097586
-0.072312608 0.022721088 0.29184383 4290097586
-0.071842536 0.022721088 0.29184383 4289966000
-0.071341895 0.022711357 0.29171884 4290097839
-0.070689835 0.022652972 0.29096892 4290229425
-0.070221163 0.022652972 0.29096892 4290163632
-0.069752499 0.022652972 0.29096892 4290163632
-0.069283828 0.022652972 0.29096892 4290163632
-0.068756044 0.022633512 0.29071894 4290426804
-0.068287782 0.022633512 0.29071894 4290097837
-0.067819521 0.022633512 0.29071894 4290097837
-0.067351252 0.022633512 0.29071894 4290163630
-0.066739216 0.022584859 0.29009402 4290097837
-0.066271961 0.022584859 0.29009402 4290229423
-0.065662943 0.022536203 0.28946906 4290295216
-0.065140396 0.022516744 0.28921911 4290229423
-0.064674549 0.022516744 0.28921911 4290229423
-0.064208701 0.022516744 0.28921911 4290229423
-0.063742854 0.022516744 0.28921911 4290229423
-0.063277006 0.022516744 0.28921911 4290229423
-0.062811159 0.022516744 0.28921911 4290229423
-0.062345311 0.022516744 0.28921911 4290361011
-0.06187946 0.022516744 0.28921911 4290295218
-0.061413616 0.022516744 0.28921911 4290426804
-0.06100044 0.022536203 0.28946906 4290361011
-0.060638744 0.022575127 0.28996903 4290361011
-0.060171686 0.022575127 0.28996903 4290426804
-0.059756104 0.02259459 0.29021901 4290426804
-0.059186511 0.022555666 0.28971905 4290426804
-0.058719855 0.022555666 0.28971905 4290426804
-0.058077287 0.022487551 0.28884414 4290624183
-0.057487398 0.022438899 0.28821921 4290624183
-0.05702316 0.022438899 0.28821921 4290624183
-0.056558926 0.022438899 0.28821921 4290624183
-0.056070361 0.022429168 0.28809422 4290624183
-0.055606324 0.022429168 0.28809422 4290624183
-0.055214059 0.02245836 0.2884692 4290624183
-0.054749422 0.02245836 0.2884692 4290624183
-0.054284781 0.02245836 0.2884692 4290689976
-0.053820141 0.02245836 0.2884692 4290689976
-0.053378616 0.022468088 0.28859416 4290689976
-0.052913774 0.022468088 0.28859416 4290755769
-0.052448936 0.022468088 0.28859416 4290821562
-0.051894039 0.022429168 0.28809422 4290821562
-0.051430002 0.022429168 0.28809422 4290821562
-0.050943855 0.022419436 0.28796923 4290821562
-0.050436199 0.022399975 0.28771925 4290887355
-0.049972769 0.022399975 0.28771925 4291018688
-0.049509339 0.022399975 0.28771925 4290755516
-0.049045905 0.022399975 0.28771925 4290887102
-0.048624683 0.022419436 0.28796923 4290887102
-0.048202656 0.022438899 0.28821921 4290887102
-0.048007544 0.022565397 0.28984404 4291018688
-0.048196703 0.022876777 0.2938436 4290690493
-0.047317423 0.022682164 0.29134387 4290887872
-0.046667274 0.02259459 0.29021901 4290888125
-0.045881476 0.022438899 0.28821921 4290953918
-0.045417238 0.022438899 0.28821921 4290953918
-0.044816542 0.022370784 0.28734431 4290953918
-0.044276539 0.02233186 0.28684434 4291019711
-0.043814518 0.02233186 0.28684434 4290953918
-0.043333612 0.022322131 0.28671938 4291019711
-0.042853098 0.022312401 0.28659439 4291019711
-0.04237299 0.022302669 0.2864694 4291150527
-0.041911572 0.022302669 0.2864694 4291150527
-0.041413981 0.022283208 0.28621942 4291084734
-0.040917199 0.022263745 0.28596944 4291084734
-0.040456586 0.022263745 0.28596944 4291084734
-0.039995972 0.022263745 0.28596944 4291150527
-0.039535359 0.022263745 0.28596944 4291150527
-0.039143059 0.022302669 0.2864694 4291150527
-0.038698521 0.022312401 0.28659439 4291150527
-0.038286924 0.02234159 0.28696933 4291150527
-0.037857648 0.022361053 0.28721932 4291216320
-0.037395023 0.022361053 0.28721932 4291216320
-0.036948472 0.022370784 0.28734431 4291216320
-0.036501512 0.022380514 0.2874693 4291282113
-0.036069818 0.022399975 0.28771925 4291216320
-0.035606384 0.022399975 0.28771925 4291282113
-0.035158221 0.022409705 0.28784424 4291282113
-0.034709655 0.022419436 0.28796923 4291282113
-0.034230955 0.022409705 0.28784424 4291216320
-0.03376732 0.022409705 0.28784424 4291282113
-0.033303689 0.022409705 0.28784424 4291347653
-0.032840054 0.022409705 0.28784424 4291347653
-0.032390479 0.022419436 0.28796923 4291281860
-0.031954363 0.022438899 0.28821921 4291281860
-0.031490125 0.022438899 0.28821921 4291479239
-0.031052798 0.02245836 0.2884692 4291545032
-0.030588157 0.02245836 0.2884692 4291414216
-0.030136567 0.022468088 0.28859416 4291216837
-0.029697429 0.022487551 0.28884414 4291348423
-0.029232185 0.022487551 0.28884414 4291414216
-0.028804287 0.022516744 0.28921911 4291414216
-0.028583368 0.022711357 0.29171884 4291480009
-0.028233945 0.022808662 0.29296869 4291480009
-0.027738372 0.022789203 0.29271874 4291414216
-0.027266888 0.022789203 0.29271874 4291414216
