# .PCD v0.7 - Point Cloud Data file format
VERSION 0.7
FIELDS x y z rgba
SIZE 4 4 4 4
TYPE F F F U
COUNT 1 1 1 1
WIDTH 1045
HEIGHT 1
VIEWPOINT 0 0 0 1 0 0 0
POINTS 1045
DATA ascii
-0.03770702 0.1111617 0.38483387 4290232004
-0.037123304 0.11127001 0.38520885 4290363588
-0.036538377 0.11137833 0.38558382 4290232002
-0.03595224 0.11148663 0.38595876 4290297795
-0.035330575 0.11148663 0.38595876 4290232002
-0.034753866 0.11163105 0.38645872 4290232002
-0.034175549 0.11177546 0.38695866 4290297795
-0.033595618 0.11191987 0.38745859 4290297795
-0.033045989 0.11217259 0.3883335 4290232002
-0.032420497 0.11217259 0.3883335 4290232002
-0.031897336 0.11253362 0.38958338 4290232002
-0.03139022 0.11296686 0.39108321 4290297795
-0.030888095 0.1134362 0.39270803 4290297795
-0.030342225 0.11376113 0.39383292 4290297795
-0.029755013 0.11394165 0.39445785 4290297795
-0.029119657 0.11394165 0.39445785 4290166209
-0.028538454 0.11415827 0.39520779 4290166209
-0.027919536 0.11423047 0.39545774 4290166209
-0.027299818 0.11430268 0.39570773 4290166209
-0.026687711 0.114411 0.3960827 4290297282
-0.026049739 0.114411 0.3960827 4290297282
-0.02543582 0.1145193 0.39645764 4290363075
-0.024851965 0.11477202 0.39733255 4290363075
-0.024356687 0.11545798 0.39970729 4290494145
-0.023905665 0.11639667 0.40295696 4290494145
-0.02346581 0.11744365 0.40658155 4290559938
-0.006057838 0.084661968 0.29309368 4282399025
-0.0055857501 0.084661968 0.29309368 4283189826
-0.0050918548 0.084300935 0.29184383 4284308307
-0.0046000066 0.083903797 0.29046896 4285492068
-0.004132146 0.083903797 0.29046896 4286084205
-0.0036611322 0.083831593 0.29021901 4286874756
-0.0031936739 0.083831593 0.29021901 4287269514
-0.0027297381 0.083939902 0.29059395 4288125595
-0.0022684855 0.084192626 0.29146886 4288191388
-0.0017990142 0.084192626 0.29146886 4287993237
-0.0013335338 0.08444535 0.29234377 4287861651
-0.00086375978 0.084553659 0.29271874 4288256409
-0.00039361534 0.084842481 0.29371861 4288322202
7.9547252e-05 0.084914684 0.29396859 4288387997
0.00055327994 0.08495079 0.29409358 4288387997
0.0010247966 0.084770277 0.29346865 4288190618
0.0014968512 0.084734172 0.29334366 4288190618
0.001968503 0.084698066 0.29321867 4288190618
0.0024407927 0.084698066 0.29321867 4288322204
0.0029130825 0.084698066 0.29321867 4288585625
0.0033983595 0.085023001 0.29434356 4288585625
0.0038773939 0.085131302 0.2947185 4288651672
0.00433918 0.084878579 0.2938436 4288651672
0.0048124758 0.084878579 0.2938436 4288586649
0.005263289 0.084517553 0.29259375 4288520856
0.0057345727 0.084517553 0.29259375 4288586649
0.0061872988 0.08426483 0.29171884 4288718235
0.0066400594 0.084048212 0.29096892 4288652188
0.0071087256 0.084048212 0.29096892 4288717981
0.0075415871 0.083651073 0.28959405 4288717983
0.0079631079 0.083181731 0.28796923 4288717983
0.0084269429 0.083181731 0.28796923 4288915109
0.0088676242 0.082965113 0.28721932 4288980902
0.0093302503 0.082965113 0.28721932 4289111718
0.0097758314 0.082820706 0.28671938 4289045925
0.010237652 0.082820706 0.28671938 4289046948
0.010690145 0.082748502 0.2864694 4288981155
0.011141833 0.082676291 0.28621942 4288981155
0.011602849 0.082676291 0.28621942 4289046948
0.012063865 0.082676291 0.28621942 4289178534
0.01252488 0.082676291 0.28621942 4289178534
0.012997238 0.082748502 0.2864694 4289178281
0.0134704 0.082820706 0.28671938 4289178281
0.013932223 0.082820706 0.28671938 4289243304
0.014406592 0.08289291 0.28696933 4289440683
0.014868815 0.08289291 0.28696933 4289440683
0.015331039 0.08289291 0.28696933 4289309097
0.015841413 0.083145633 0.28784424 4289309097
0.016411245 0.083687179 0.28971905 4289309097
0.01705993 0.084589764 0.29284373 4289506476
0.017576512 0.084806383 0.29359365 4289572269
0.018118558 0.085131302 0.2947185 4289638062
0.018593265 0.085131302 0.2947185 4289638062
0.019051798 0.085059106 0.29446855 4289506729
0.019302331 0.084084317 0.29109392 4289638315
0.019771196 0.084084317 0.29109392 4289572522
0.02017054 0.083795495 0.29009402 4289572522
0.020637795 0.083795495 0.29009402 4289506729
0.021105053 0.083795495 0.29009402 4289572522
0.021563016 0.08375939 0.28996903 4289507499
0.02203007 0.08375939 0.28996903 4289507499
0.022506824 0.083795495 0.29009402 4289507499
0.022974079 0.083795495 0.29009402 4289375913
0.023451438 0.083831593 0.29021901 4289507246
0.023918895 0.083831593 0.29021901 4289573039
0.024407357 0.083903797 0.29046896 4289573039
0.046212822 0.13119897 0.45420149 4287338647
0.04694441 0.13119897 0.45420149 4285891197
0.031250473 0.085997783 0.2977182 4284970095
0.031730011 0.085997783 0.2977182 4284376413
0.032493513 0.086755954 0.30034292 4283586897
0.033718336 0.088705525 0.30709219 4283323979
0.050964382 0.13213766 0.45745113 4283192393
0.05181421 0.13242649 0.45845103 4282929231
0.05255264 0.13242649 0.45845103 4282666059
0.053436358 0.13278751 0.45970088 4282665807
0.054294638 0.13307634 0.46070078 4282797393
0.055126283 0.13329296 0.4614507 4282862675
0.055960339 0.13350958 0.46220061 4282665296
0.056704812 0.13350958 0.46220061 4282927696
0.057526957 0.13369009 0.46282557 4283388247
0.058335379 0.1338345 0.4633255 4283848282
0.059161354 0.13401501 0.46395043 4283979868
0.059989341 0.13419554 0.46457538 4289309867
0.060737632 0.13419554 0.46457538 4292599517
0.061535552 0.13430384 0.46495032 4291942357
0.062351428 0.13444826 0.46545029 4291942357
0.063168906 0.13459267 0.46595022 4292074460
0.063919418 0.13459267 0.46595022 4290561221
0.064721964 0.13470098 0.46632519 4285429117
-0.15650328 0.090507127 0.31159171 4290956499
-0.15600137 0.090507127 0.31159171 4291548636
-0.15568662 0.090616032 0.31196666 4292930798
-0.15537065 0.090724953 0.31234163 4292404454
-0.15486757 0.090724953 0.31234163 4292338661
-0.15454979 0.090833873 0.3127166 4292470247
-0.1542308 0.090942778 0.31309155 4292732908
-0.15372649 0.090942778 0.31309155 4292601322
-0.1534057 0.091051698 0.31346652 4292601322
-0.15314466 0.09119691 0.31396645 4292798701
-0.15257818 0.091160603 0.31384146 4292732910
-0.15207267 0.091160603 0.31384146 4292864496
-0.15174825 0.091269523 0.31421643 4293192437
-0.15136246 0.091342136 0.31446642 4293324023
-0.15085596 0.091342136 0.31446642 4292995310
-0.1505287 0.091451041 0.31484136 4292929517
-0.15020026 0.091559961 0.31521633 4292996078
-0.14969255 0.091559961 0.31521633 4292798699
-0.14936227 0.091668867 0.31559128 4292732906
-0.14903082 0.091777787 0.31596625 4292996078
-0.14852187 0.091777787 0.31596625 4292997109
-0.14824714 0.091922998 0.31646618 4292602351
-0.14797081 0.092068225 0.31696615 4292404718
-0.14746027 0.092068225 0.31696615 4292602097
-0.14712356 0.09217713 0.31734109 4292667626
-0.14684339 0.092322357 0.31784105 4292470247
-0.14650407 0.092431262 0.318216 4292535777
-0.14599152 0.092431262 0.318216 4292075226
-0.14570753 0.092576489 0.31871596 4291480771
-0.14536498 0.092685394 0.3190909 4289243809
-0.14485101 0.092685394 0.3190909 4286612859
-0.14445013 0.092758007 0.31934088 4285362792
-0.14410478 0.09286692 0.31971586 4282797130
-0.14358981 0.09286692 0.31971586 4282797130
-0.14324263 0.092975833 0.3200908 4283851882
-0.14283852 0.093048446 0.32034078 4287667876
-0.14226702 0.093012139 0.32021579 4291352020
-0.14175124 0.093012139 0.32021579 4292009950
-0.14145596 0.093157351 0.32071573 4291748062
-0.1411591 0.093302578 0.32121569 4291879648
-0.14064172 0.093302578 0.32121569 4292274152
-0.14034241 0.09344779 0.32171562 4292208359
-0.1399872 0.09355671 0.3220906 4292207843
-0.1394684 0.09355671 0.3220906 4292076257
-0.13911137 0.093665615 0.32246554 4292732126
-0.13880683 0.093810841 0.3229655 4290297785
-0.13850071 0.093956053 0.32346544 4287204742
-0.1379797 0.093956053 0.32346544 4284046678
-0.13798982 0.094319098 0.32471532 4283256394
-0.13794301 0.094645835 0.32584018 4282993222
-0.13762903 0.094791062 0.32634014 4282466368
-0.13710339 0.094791062 0.32634014 4282268989
-0.13678698 0.094936274 0.32684007 4282465598
-0.13631265 0.094972581 0.32696506 4282334012
-0.135786 0.094972581 0.32696506 4282267959
-0.075996362 0.10891351 0.37495995 4281018403
-0.075342149 0.1088409 0.37470996 4281018403
-0.074738599 0.1088409 0.37470996 4281083945
-0.07413505 0.1088409 0.37470996 4281412910
-0.07360509 0.10894982 0.37508494 4281739831
-0.073000938 0.10894982 0.37508494 4284305758
-0.072565652 0.10920395 0.37595984 4286939262
-0.071984015 0.10924026 0.37608483 4287465606
-0.071425691 0.10931285 0.37633479 4287664268
-0.070255041 0.10844155 0.37333512 4288387991
-0.069653705 0.10844155 0.37333512 4288388248
-0.068335727 0.10731611 0.36946052 4288388248
-0.06732814 0.10666263 0.36721078 4288322204
-0.066736676 0.10666263 0.36721078 4288585376
-0.066190235 0.10673524 0.36746076 4288651171
-0.065598361 0.10673524 0.36746076 4288716964
-0.065050706 0.10680784 0.36771071 4288716964
-0.064524159 0.10691676 0.36808568 4288716964
-0.064061537 0.10713459 0.3688356 4288716710
-0.06346745 0.10713459 0.3688356 4288650917
-0.063192949 0.10767916 0.3707104 4288716710
-0.062891304 0.10818742 0.37246022 4288716710
-0.062563114 0.10865938 0.37408504 4288716710
-0.062126193 0.10894982 0.37508494 4288848296
-0.061522041 0.10894982 0.37508494 4288848298
-0.060917888 0.10894982 0.37508494 4289045677
-0.060293637 0.10891351 0.37495995 4289045677
-0.059689689 0.10891351 0.37495995 4289045677
-0.059125129 0.10898612 0.37520993 4288980654
-0.058520775 0.10898612 0.37520993 4289046447
-0.057955001 0.10905872 0.37545988 4288980654
-0.05746479 0.10927655 0.3762098 4288914861
-0.056953285 0.10945808 0.37683475 4288914861
-0.056402374 0.10956699 0.37720969 4288914861
-0.055794798 0.10956699 0.37720969 4288980654
-0.055260371 0.10971221 0.37770966 4289046447
-0.054688156 0.10978481 0.37795961 4289308849
-0.054115146 0.10985743 0.37820959 4289243056
-0.053505961 0.10985743 0.37820959 4289112242
-0.052914254 0.10989373 0.37833458 4289112242
-0.052287586 0.10985743 0.37820959 4289047219
-0.0516784 0.10985743 0.37820959 4289178805
-0.051069219 0.10985743 0.37820959 4289310389
-0.050476708 0.10989373 0.37833458 4289376182
-0.049949691 0.11007525 0.37895951 4289506996
-0.049371842 0.11014786 0.37920949 4289835961
-0.04885748 0.11036569 0.3799594 4289901754
-0.048245475 0.11036569 0.3799594 4290033340
-0.047727484 0.11058351 0.38070932 4290230719
-0.047160674 0.11069243 0.38108429 4290296512
-0.046607926 0.11083765 0.38158423 4290559684
-0.045993302 0.11083765 0.38158423 4290559684
-0.045393549 0.11087395 0.38170922 4290626249
-0.044793386 0.11091026 0.38183421 4290692042
-0.044236209 0.11105547 0.38233414 4290626249
-0.043677419 0.1112007 0.38283411 4290692042
-0.043060783 0.1112007 0.38283411 4290560967
-0.042499579 0.11134591 0.38333404 4290363588
-0.041923106 0.11145483 0.38370901 4290495174
-0.041331973 0.11152744 0.383959 4290363588
-0.040713526 0.11152744 0.383959 4290363077
-0.040121183 0.11160004 0.38420895 4290363077
-0.039528038 0.11167265 0.38445893 4290297797
-0.038934086 0.11174526 0.38470891 4290232004
-0.038351774 0.11185417 0.38508385 4290297797
-0.037731513 0.11185417 0.38508385 4290297797
-0.037147395 0.11196309 0.38545883 4290297795
-0.036562063 0.112072 0.38583377 4290297795
-0.035975523 0.11218092 0.38620874 4290363075
-0.035353456 0.11218092 0.38620874 4290297282
-0.034776345 0.11232613 0.38670868 4290297282
-0.034197628 0.11247135 0.38720864 4290363075
-0.033617295 0.11261657 0.38770857 4290363075
-0.033056628 0.11283439 0.38845849 4290363075
-0.032430932 0.11283439 0.38845849 4290363588
-0.031897336 0.11316114 0.38958338 4290297795
-0.031380188 0.11356048 0.39095822 4290297795
-0.030868435 0.11399614 0.39245808 4290297795
-0.030332595 0.11435919 0.39370793 4290232002
-0.029755013 0.11457701 0.39445785 4290232002
-0.029119657 0.11457701 0.39445785 4290232002
-0.028493326 0.11461332 0.39458284 4290166209
-0.027866591 0.11464962 0.39470783 4290166209
-0.027248081 0.11472223 0.39495781 4290166209
-0.026611917 0.11472223 0.39495781 4290232002
-0.026008638 0.11486745 0.39545774 4290297795
-0.025411764 0.11504897 0.3960827 4290429122
-0.024789423 0.11512158 0.39633265 4290363329
-0.024341457 0.1160292 0.39945734 4290297536
-0.023890834 0.11697311 0.40270698 4290297536
-0.023429742 0.11791702 0.40595663 4290429122
-0.006057838 0.085134059 0.29309368 4282268209
-0.0055857501 0.085134059 0.29309368 4282598459
-0.0050918548 0.084771015 0.29184383 4282072115
-0.0046000066 0.084371664 0.29046896 4281742128
-0.004132146 0.084371664 0.29046896 4282465851
-0.0036642854 0.084371664 0.29046896 4283717212
-0.0031964246 0.084371664 0.29046896 4283454040
-0.0027367827 0.084625795 0.29134387 4284901486
-0.0022762676 0.084952541 0.29246876 4285822588
-0.0018082715 0.085097753 0.29296869 4286941323
-0.0013363843 0.085097753 0.29296869 4287467667
-0.00086634152 0.085279278 0.29359365 4287863191
-0.00039428534 0.085460804 0.29421857 4288257949
8.076481e-05 0.086695157 0.29846811 4288782755
0.00055962871 0.086404718 0.29746822 4288585376
0.0010387631 0.086404718 0.29746822 4288191388
0.00151152 0.086041674 0.29621837 4287994009
0.0019886412 0.086041674 0.29621837 4287994009
0.0024668027 0.086077973 0.29634333 4288125595
0.0029453672 0.08611428 0.29646832 4288191639
0.0034257772 0.086186893 0.2967183 4288389018
0.0039037038 0.086186893 0.2967183 4288520086
0.004374248 0.086041674 0.29621837 4288520086
0.0048513692 0.086041674 0.29621837 4288455063
0.0052925171 0.085460804 0.29421857 4288520856
0.0057541695 0.085279278 0.29359365 4288520856
0.006227063 0.085279278 0.29359365 4288652442
0.0066856951 0.085097753 0.29296869 4288586649
0.0071423147 0.084916234 0.29234377 4288652442
0.0075936657 0.084698409 0.29159385 4288717983
0.0080633378 0.084698409 0.29159385 4288717983
0.0085147237 0.084516883 0.29096892 4288848546
0.0089833895 0.084516883 0.29096892 4288716960
0.0094520552 0.084516883 0.29096892 4288914335
0.0099079367 0.08440797 0.29059395 4288914335
0.010375998 0.08440797 0.29059395 4288980385
0.010830069 0.084299058 0.29021901 4288980385
0.011297528 0.084299058 0.29021901 4289046178
0.011754852 0.084226452 0.28996903 4289111971
0.012200833 0.084081225 0.28946906 4289046948
0.012661615 0.084044926 0.2893441 4289178534
0.013127664 0.084044926 0.2893441 4289309097
0.013576096 0.083936013 0.28896913 4289309097
0.014041542 0.083936013 0.28896913 4289243304
0.014519537 0.084008627 0.28921911 4289309097
0.01499186 0.084044926 0.2893441 4289440683
0.015457909 0.084044926 0.2893441 4289309097
0.016027136 0.084589489 0.29121888 4289309097
0.016595323 0.085097753 0.29296869 4289243304
0.017118178 0.085351884 0.2938436 4289440936
0.017658819 0.08567863 0.29496849 4289506729
0.018141611 0.085714936 0.29509348 4289638315
0.018711543 0.086150587 0.29659331 4289440936
0.019197354 0.086186893 0.2967183 4289506472
0.019675281 0.086186893 0.2967183 4289638058
0.020034358 0.08567863 0.29496849 4289638058
0.020509467 0.08567863 0.29496849 4289638058
0.02071782 0.084589489 0.29121888 4289506729
0.021150518 0.084444277 0.29071894 4289506729
0.021618783 0.084444277 0.29071894 4289572522
0.022049064 0.084299058 0.29021901 4289638315
0.022516523 0.084299058 0.29021901 4289507499
0.046212822 0.13193057 0.45420149 4283585626
0.04694441 0.13193057 0.45420149 4282863687
0.047741596 0.13211209 0.45482641 4282666308
0.048474185 0.13211209 0.45482641 4282929219
0.049274389 0.13229361 0.45545134 4283258184
0.050117772 0.13258405 0.45645124 4283323979
0.050964382 0.13287449 0.45745113 4283258186
0.05181421 0.13316493 0.45845103 4282863689
0.05255264 0.13316493 0.45845103 4282600517
0.053436358 0.13352796 0.45970088 4282600266
0.054294638 0.1338184 0.46070078 4282731852
0.055126283 0.13403623 0.4614507 4282797647
0.055960339 0.13425405 0.46220061 4282666061
0.056704812 0.13425405 0.46220061 4282797647
0.057526957 0.13443558 0.46282557 4283192405
0.058335379 0.13458079 0.4633255 4283585880
0.059161354 0.13476232 0.46395043 4284375396
0.059989341 0.13494384 0.46457538 4290230969
0.060737632 0.13494384 0.46457538 4292402138
0.061535552 0.13505276 0.46495032 4292074196
0.062351428 0.13519797 0.46545029 4292008403
0.063168906 0.13534319 0.46595022 4292008665
0.063919418 0.13534319 0.46595022 4289903289
0.064721964 0.13545211 0.46632519 4284705394
-0.15631494 0.090899482 0.31121674 4287600552
-0.15581365 0.090899482 0.31121674 4289969100
-0.1554995 0.091009006 0.31159171 4291747042
-0.15518413 0.091118522 0.31196666 4292668144
-0.15468165 0.091118522 0.31196666 4291945191
-0.1543027 0.09119153 0.31221664 4292076777
-0.1540461 0.091337562 0.3127166 4292338925
-0.1535424 0.091337562 0.3127166 4292404718
-0.1532222 0.091447078 0.31309155 4292404718
-0.1529008 0.091556594 0.31346652 4292536304
-0.15239589 0.091556594 0.31346652 4292535790
-0.15207267 0.09166611 0.31384146 4292535790
-0.15174825 0.091775626 0.31421643 4292798962
-0.15136246 0.091848642 0.31446642 4292864755
-0.15085596 0.091848642 0.31446642 4292536044
-0.1505287 0.091958158 0.31484136 4292930802
-0.15020026 0.092067674 0.31521633 4293128177
-0.14963318 0.092031173 0.31509134 4292799212
-0.14912567 0.092031173 0.31509134 4292733419
-0.14879499 0.092140682 0.31546628 4292996591
-0.14828686 0.092140682 0.31546628 4293062902
-0.14801295 0.092286713 0.31596625 4292668144
-0.14767906 0.092396222 0.31634119 4292535792
-0.14716953 0.092396222 0.31634119 4292535792
-0.14689179 0.092542253 0.31684116 4292799216
-0.14655466 0.092651762 0.3172161 4292536044
-0.14627391 0.092797793 0.31771606 4292338663
-0.14576216 0.092797793 0.31771606 4291943905
-0.14542182 0.092907302 0.31809101 4291746261
-0.1450803 0.093016826 0.31846598 4291877847
-0.14456733 0.093016826 0.31846598 4290298550
-0.14422399 0.093126349 0.31884095 4288061588
-0.14387944 0.093235858 0.31921589 4285364853
-0.14336526 0.093235858 0.31921589 4285299060
-0.14301892 0.093345381 0.31959087 4287142815
-0.14267132 0.093454897 0.31996581 4290169293
-0.14226702 0.093527906 0.32021579 4291812831
-0.14175124 0.093527906 0.32021579 4291615452
-0.14145596 0.09367393 0.32071573 4292142050
-0.1411591 0.093819954 0.32121569 4292339429
-0.14064172 0.093819954 0.32121569 4292274406
-0.14034241 0.093965977 0.32171562 4292077027
-0.1399872 0.094075494 0.3220906 4292011234
-0.13941428 0.094038993 0.32196561 4291945441
-0.13889569 0.094038993 0.32196561 4291482311
-0.13859196 0.09418501 0.32246554 4288455833
-0.13823313 0.094294533 0.32284051 4285887339
-0.13771312 0.094294533 0.32284051 4283716170
-0.13788359 0.094769105 0.32446533 4282928199
-0.13794301 0.095170662 0.32584018 4282533441
-0.13778716 0.095426209 0.32671508 4281810235
-0.13726091 0.095426209 0.32671508 4281876028
-0.1368393 0.095499218 0.32696506 4282137660
-0.075996362 0.10951746 0.37495995 4280887587
-0.07539241 0.10951746 0.37495995 4280821794
-0.074788459 0.10951746 0.37495995 4280887589
-0.074258693 0.10962697 0.37533489 4281084968
-0.073654138 0.10962697 0.37533489 4281148459
-0.073219858 0.10988251 0.3762098 4282332733
-0.072613895 0.10988251 0.3762098 4285228391
-0.072031856 0.10991902 0.37633479 4286873216
-0.071710356 0.11035709 0.37783465 4286874752
-0.070631362 0.10962697 0.37533489 4287664268
-0.070026807 0.10962697 0.37533489 4288519834
-0.068266377 0.10780168 0.36908558 4288256662
-0.06732814 0.1072541 0.36721078 4288256409
-0.066691242 0.10718108 0.36696079 4288585374
-0.066100173 0.10718108 0.36696079 4288585124
-0.065509103 0.10718108 0.36696079 4288650917
-0.065006487 0.10732711 0.36746076 4288782503
-0.064480342 0.10743663 0.3678357 4288716710
-0.064018115 0.10765566 0.36858562 4288519331
-0.063424431 0.10765566 0.36858562 4288650917
-0.063150331 0.10820325 0.37046042 4288782503
-0.062891304 0.10878734 0.37246022 4288716710
-0.062354084 0.10889685 0.37283516 4288716710
-0.062001985 0.10933493 0.37433502 4288979882
-0.061399039 0.10933493 0.37433502 4288979882
-0.060796093 0.10933493 0.37433502 4289111468
-0.06023334 0.10940794 0.37458497 4289111470
-0.059649896 0.10944444 0.37470996 4289177263
-0.059066042 0.10948095 0.37483495 4288980656
-0.058462288 0.10948095 0.37483495 4289112242
-0.057916418 0.10959047 0.37520993 4289046449
-0.057407521 0.109773 0.37583485 4288980656
-0.056896612 0.10995553 0.37645978 4288784045
-0.056365002 0.11010155 0.37695974 4288849838
-0.055757828 0.11010155 0.37695974 4288915631
-0.055205509 0.11021107 0.37733468 4288981424
-0.054633904 0.11028408 0.37758467 4289178033
-0.054061498 0.11035709 0.37783465 4289309619
-0.053452916 0.11035709 0.37783465 4289112242
-0.052844334 0.11035709 0.37783465 4289112242
-0.052218471 0.11032059 0.37770966 4288916146
-0.05161009 0.11032059 0.37770966 4289113525
-0.051001713 0.11032059 0.37770966 4289310391
-0.050393332 0.11032059 0.37770966 4289376184
-0.049817897 0.11039359 0.37795961 4289441975
-0.049323022 0.11064913 0.37883452 4289705147
-0.04885748 0.11097769 0.3799594 4289770938
-0.048245475 0.11097769 0.3799594 4289902524
-0.047727484 0.11119672 0.38070932 4289902524
-0.047160674 0.11130624 0.38108429 4290099903
-0.046577394 0.11137926 0.38133428 4290231489
-0.045963176 0.11137926 0.38133428 4290231489
-0.045393549 0.11148877 0.38170922 4290495176
-0.044793386 0.11152527 0.38183421 4290495176
-0.044221751 0.1116348 0.38220918 4290363590
-0.043663159 0.11178081 0.38270912 4290297797
-0.043046724 0.11178081 0.38270912 4290560967
-0.042485721 0.11192684 0.38320905 4290495174
-0.041923106 0.11207286 0.38370901 4290560454
-0.041331973 0.11214588 0.383959 4290363075
-0.040713526 0.11214588 0.383959 4290297282
-0.040121183 0.11221889 0.38420895 4290363075
-0.039528038 0.1122919 0.38445893 4290297282
-0.038934086 0.11236491 0.38470891 4290165696
-0.038351774 0.11247443 0.38508385 4290297282
-0.037731513 0.11247443 0.38508385 4290428868
-0.037147395 0.11258395 0.38545883 4290363075
-0.036562063 0.11269346 0.38583377 4290363075
-0.035975523 0.11280298 0.38620874 4290363329
-0.035353456 0.11280298 0.38620874 4290429122
-0.034776345 0.112949 0.38670868 4290429122
-0.034197628 0.11309503 0.38720864 4290363329
-0.033617295 0.11324105 0.38770857 4290429122
-0.033056628 0.11346008 0.38845849 4290560708
-0.032430932 0.11346008 0.38845849 4290429122
-0.031897336 0.11378863 0.38958338 4290429122
-0.031380188 0.1141902 0.39095822 4290363329
-0.030868435 0.11462827 0.39245808 4290297536
-0.030332595 0.11499333 0.39370793 4290297536
-0.029755013 0.11521236 0.39445785 4290297536
-0.029119657 0.11521236 0.39445785 4290232256
-0.028493326 0.11524887 0.39458284 4290166463
-0.027866591 0.11528537 0.39470783 4290232002
-0.027248081 0.11535839 0.39495781 4290297795
-0.026611917 0.11535839 0.39495781 4290297795
-0.026008638 0.11550441 0.39545774 4290297795
-0.025411764 0.11568695 0.3960827 4290429122
-0.024789423 0.11575995 0.39633265 4290363329
-0.024341457 0.1166726 0.39945734 4290363329
-0.023890834 0.11762175 0.40270698 4290297536
-0.023429742 0.1185709 0.40595663 4290429122
-0.006057838 0.085606143 0.29309368 4282202929
-0.0055857501 0.085606143 0.29309368 4282269494
-0.0050918548 0.085241087 0.29184383 4282269494
-0.0045960485 0.084766515 0.29021901 4282137656
-0.0041285902 0.084766515 0.29021901 4282532414
-0.0036611322 0.084766515 0.29021901 4282336583
-0.0031964246 0.084839523 0.29046896 4281349688
-0.0027367827 0.085095063 0.29134387 4282270540
-0.0022762676 0.085423619 0.29246876 4282402126
-0.0018082715 0.085569635 0.29296869 4282402122
-0.0013363843 0.085569635 0.29296869 4282994259
-0.00086634152 0.085752174 0.29359365 4284047199
-0.00039428534 0.085934699 0.29421857 4284836715
8.076481e-05 0.087175898 0.29846811 4286348412
0.00055962871 0.08688385 0.29746822 4286874756
0.0010387631 0.08688385 0.29746822 4288124566
0.00151152 0.086518794 0.29621837 4288848289
0.0019886412 0.086518794 0.29621837 4288321945
0.0024668027 0.086555295 0.29634333 4289045668
0.0029453672 0.086591803 0.29646832 4288980383
0.0034257772 0.086664811 0.2967183 4288980383
0.0039037038 0.086664811 0.2967183 4288520086
0.0043816306 0.086664811 0.2967183 4288520086
0.0048759328 0.086956859 0.2977182 4288454809
0.0053554699 0.086956859 0.2977182 4288454809
0.0057713171 0.086007714 0.29446855 4288454809
0.006227063 0.085752174 0.29359365 4288586395
0.0066999565 0.085752174 0.29359365 4288454809
0.0071575823 0.085569635 0.29296869 4288454809
0.0076164501 0.085423619 0.29246876 4288652190
0.0080875317 0.085423619 0.29246876 4288652190
0.0085586142 0.085423619 0.29246876 4288782753
0.0090335542 0.085460126 0.29259375 4288716960
0.0095088976 0.085496627 0.29271874 4288848289
0.0099803815 0.085496627 0.29271874 4288782496
0.010456329 0.085533135 0.29284373 4288782496
0.010923351 0.085496627 0.29271874 4289045668
0.011394836 0.085496627 0.29271874 4289045925
0.011861253 0.085460126 0.29259375 4289111718
0.012332536 0.085460126 0.29259375 4288980902
0.012798349 0.085423619 0.29246876 4289112488
0.013258089 0.085350603 0.29221877 4289178281
0.013728769 0.085350603 0.29221877 4289178281
0.014211595 0.085423619 0.29246876 4289243304
0.014682677 0.085423619 0.29246876 4289243304
0.015166711 0.085496627 0.29271874 4289243304
0.015691612 0.085788667 0.29371861 4289309097
0.016185343 0.085898191 0.29409358 4289178281
0.016680283 0.086007714 0.29446855 4289112488
0.017154586 0.086007714 0.29446855 4289440936
0.017673785 0.086226746 0.29521847 4289440936
0.018195398 0.086445779 0.29596838 4289440936
0.018829821 0.087175898 0.29846811 4289440936
0.019520814 0.088125043 0.30171776 4289440936
0.020006793 0.088125043 0.30171776 4289572522
0.020246586 0.087066375 0.29809314 4289506729
0.02053554 0.086263254 0.29534346 4289506729
0.02101125 0.086263254 0.29534346 4289440936
0.021277823 0.085423619 0.29246876 4289440936
0.021748904 0.085423619 0.29246876 4289440936
0.022115532 0.085022055 0.29109392 4289440936
0.022584401 0.085022055 0.29109392 4289441706
0.043119717 0.13215107 0.45245168 4288454811
0.043848488 0.13215107 0.45245168 4285952627
0.044638824 0.13233359 0.4530766 4283781458
0.045368597 0.13233359 0.4530766 4284110427
0.046149235 0.13247961 0.45357653 4283781462
0.04693149 0.13262564 0.4540765 4283585876
0.047741596 0.13284467 0.45482641 4283454290
0.048474185 0.13284467 0.45482641 4283258186
0.049274389 0.1330272 0.45545134 4283192393
0.050104048 0.13328274 0.45632625 4283192393
0.050950456 0.13357478 0.45732614 4283126600
0.051800083 0.13386683 0.45832604 4282732103
0.052538313 0.13386683 0.45832604 4282403138
0.0534073 0.13419539 0.4594509 4282534473
0.054265179 0.13448744 0.4604508 4282731852
0.055111352 0.13474298 0.46132571 4282731852
0.055930074 0.13492551 0.46195066 4282666059
0.056674145 0.13492551 0.46195066 4282863440
0.057511423 0.13514455 0.46270058 4283126612
0.058335379 0.13532707 0.4633255 4283258196
0.059161354 0.1355096 0.46395043 4284508263
0.059973203 0.13565563 0.46445039 4290824129
0.060721289 0.13565563 0.46445039 4292139989
0.061519008 0.13576514 0.46482533 4292008914
0.062317938 0.13587466 0.4652003 4291877328
0.06311807 0.13598417 0.46557525 4292403674
0.063867979 0.13598417 0.46557525 4289442989
0.064669922 0.13609369 0.46595022 4284178533
-0.15612662 0.091290653 0.3108418 4283124577
-0.15562592 0.091290653 0.3108418 4285690504
-0.15531237 0.091400772 0.31121674 4288520632
-0.15493545 0.09147419 0.31146672 4290626008
-0.15443377 0.09147419 0.31146672 4292077036
-0.15417916 0.091621011 0.31196666 4291945450
-0.15379982 0.09169443 0.31221664 4291945450
-0.15329692 0.09169443 0.31221664 4292011243
-0.15303871 0.091841266 0.3127166 4292011243
-0.15265693 0.091914669 0.31296656 4292011243
-0.15215284 0.091914669 0.31296656 4292077038
-0.15183043 0.092024796 0.31334153 4292208624
-0.1515068 0.092134915 0.31371647 4292471283
-0.15112182 0.092208326 0.31396645 4292537076
-0.15061611 0.092208326 0.31396645 4292667892
-0.15028968 0.092318453 0.31434143 4292865271
-0.14996204 0.092428572 0.31471637 4292997107
-0.14945512 0.092428572 0.31471637 4292668142
-0.14912567 0.0925387 0.31509134 4292602349
-0.14879499 0.092648812 0.31546628 4292733935
-0.14828686 0.092648812 0.31546628 4292602351
-0.14801295 0.092795648 0.31596625 4292733937
-0.14767906 0.09290576 0.31634119 4292536304
-0.14716953 0.09290576 0.31634119 4292404718
-0.14683384 0.093015887 0.31671616 4292733423
-0.1463237 0.093015887 0.31671616 4292667630
-0.14604372 0.093162715 0.3172161 4292865521
-0.14553279 0.093162715 0.3172161 4292536556
-0.14519326 0.093272835 0.31759107 4292142050
-0.14485255 0.093382962 0.31796604 4292010464
-0.14434038 0.093382962 0.31796604 4292668129
-0.14399785 0.093493082 0.31834099 4291812820
-0.14365411 0.093603201 0.31871596 4289445053
-0.14314073 0.093603201 0.31871596 4288721330
-0.14273924 0.093676612 0.31896591 4289906637
-0.14239267 0.093786739 0.31934088 4292275185
-0.14187831 0.093786739 0.31934088 4291682530
-0.14152993 0.093896866 0.31971586 4291879909
-0.14123547 0.094043687 0.32021579 4292142566
-0.14088447 0.094153814 0.32059076 4292471531
-0.14036809 0.094153814 0.32059076 4292274152
-0.14006981 0.094300635 0.3210907 4291879394
-0.13976991 0.094447464 0.32159063 4291813085
-0.13925192 0.094447464 0.32159063 4291878878
-0.13889569 0.094557591 0.32196561 4289178532
-0.13859196 0.094704412 0.32246554 4286217847
-0.13823313 0.094814539 0.32284051 4283911753
-0.13771312 0.094814539 0.32284051 4283385409
-0.13788359 0.095291726 0.32446533 4282402623
-0.13836631 0.09598916 0.32684007 4282007865
-0.13789259 0.096025869 0.32696506 4281481783
-0.13736594 0.096025869 0.32696506 4281613369
-0.075996362 0.11012141 0.37495995 4280756001
-0.07539241 0.11012141 0.37495995 4280756001
-0.074788459 0.11012141 0.37495995 4280821794
-0.074184507 0.11012141 0.37495995 4280887587
-0.073654138 0.11023153 0.37533489 4281083947
-0.073122561 0.11034165 0.37570986 4281083947
-0.072517402 0.11034165 0.37570986 4282399809
-0.072031856 0.11052519 0.37633479 4285426287
-0.071283363 0.11030495 0.37558487 4286611584
-0.070631362 0.11023153 0.37533489 4286479998
-0.070026807 0.11023153 0.37533489 4287401100
-0.068266377 0.10839618 0.36908558 4287861651
-0.067373976 0.10791899 0.36746076 4288190618
-0.066691242 0.10777216 0.36696079 4288585376
-0.066100173 0.10777216 0.36696079 4288651171
-0.065509103 0.10777216 0.36696079 4288651171
-0.065006487 0.10791899 0.36746076 4288716710
-0.064480342 0.1080291 0.3678357 4288716710
-0.064018115 0.10824935 0.36858562 4288519331
-0.063424431 0.10824935 0.36858562 4288650917
-0.063150331 0.10879996 0.37046042 4288782757
-0.062933505 0.10946068 0.37271017 4288782757
-0.062354084 0.10949739 0.37283516 4288848550
-0.062001985 0.10993788 0.37433502 4288980136
-0.061399039 0.10993788 0.37433502 4289045675
-0.060796093 0.10993788 0.37433502 4289111468
-0.06023334 0.11001129 0.37458497 4289177263
-0.059649896 0.110048 0.37470996 4289243056
-0.059066042 0.11008471 0.37483495 4289112242
-0.058462288 0.11008471 0.37483495 4289178035
-0.057916418 0.11019483 0.37520993 4289112242
-0.057350244 0.11026824 0.37545988 4288980656
-0.056839947 0.11045178 0.37608483 4288849838
-0.056308933 0.11059861 0.37658477 4288981424
-0.055702366 0.11059861 0.37658477 4289178803
-0.055150654 0.11070873 0.37695974 4289178803
-0.054579649 0.11078214 0.37720969 4289309619
-0.054007847 0.11085556 0.37745968 4289309619
-0.053399868 0.11085556 0.37745968 4288981426
-0.052774407 0.11081885 0.37733468 4288981426
-0.052149352 0.11078214 0.37720969 4288916146
-0.051541775 0.11078214 0.37720969 4289179318
-0.050900452 0.11070873 0.37695974 4289310904
-0.050293278 0.11070873 0.37695974 4289245111
-0.049719051 0.11078214 0.37720969 4289376182
-0.049209114 0.11100238 0.37795961 4289507768
-0.048600335 0.11100238 0.37795961 4289441975
-0.048150256 0.11136945 0.37920949 4289836733
-0.04766481 0.11166312 0.38020939 4289705658
-0.047114272 0.11180994 0.38070932 4289771451
-0.046562128 0.11195678 0.38120928 4289771451
-0.045948111 0.11195678 0.38120928 4289705658
-0.045348957 0.11199348 0.38133428 4289771453
-0.044793386 0.11214031 0.38183421 4290297797
-0.044192828 0.11217701 0.3819592 4290232004
-0.043663159 0.11239725 0.38270912 4290166211
-0.043046724 0.11239725 0.38270912 4289442486
-0.042485721 0.11254408 0.38320905 4290232002
-0.041923106 0.11269092 0.38370901 4290363075
-0.041331973 0.11276433 0.383959 4290297282
-0.040713526 0.11276433 0.383959 4290231489
-0.040134232 0.11287445 0.38433394 4290297282
-0.039540887 0.11294787 0.38458392 4290099903
-0.03895938 0.11305798 0.38495886 4290231489
-0.03836422 0.1131314 0.38520885 4290297282
-0.037743762 0.1131314 0.38520885 4290363075
-0.037171483 0.11327823 0.38570878 4290297282
-0.036585752 0.11338835 0.38608375 4290428868
-0.03599881 0.11349847 0.38645872 4290429122
-0.03537634 0.11349847 0.38645872 4290626501
-0.034798827 0.1136453 0.38695866 4290560708
-0.034208667 0.11375543 0.38733363 4290560708
-0.033638969 0.11393896 0.38795856 4290560708
-0.033056628 0.11408578 0.38845849 4290429122
-0.032430932 0.11408578 0.38845849 4290560708
-0.031897336 0.11441615 0.38958338 4290560708
-0.031370156 0.11478323 0.39083326 4290363329
-0.030858604 0.11522371 0.39233309 4290297536
-0.030313337 0.11555407 0.39345798 4290297536
-0.029736158 0.11577432 0.39420789 4290297536
-0.029101206 0.11577432 0.39420789 4290297536
-0.028475277 0.11581103 0.39433289 4290297536
-0.027848942 0.11584772 0.39445785 4290232256
-0.027239457 0.11595785 0.39483282 4290298049
-0.026603496 0.11595785 0.39483282 4290166463
-0.025975758 0.11599456 0.39495781 4290298049
-0.025371669 0.11614138 0.39545774 4290363329
-0.024789423 0.11639833 0.39633265 4290429122
-0.024326222 0.1172426 0.39920735 4290429122
-0.023876004 0.11819698 0.402457 4290297536
-0.023372034 0.11893112 0.40495673 4290429122
-0.0045960485 0.085233979 0.29021901 4281743153
-0.0041285902 0.085233979 0.29021901 4282006325
-0.0036611322 0.085233979 0.29021901 4282006846
-0.0031991755 0.0853808 0.29071894 4281612088
-0.0027403049 0.085674465 0.29171884 4281349949
-0.0022801585 0.086041525 0.29296869 4281613121
-0.001810586 0.086151652 0.29334366 4281876295
-0.0013420858 0.0864086 0.29421857 4281810502
-0.00086818554 0.0864086 0.29421857 4282204995
-0.00040634506 0.089051522 0.30321762 4282665546
8.2016195e-05 0.089014813 0.30309263 4282269499
0.00056245032 0.087803468 0.29896805 4283124808
0.0010396361 0.0874364 0.2977182 4284176986
0.0015191732 0.0874364 0.2977182 4284571744
0.001997032 0.08736299 0.29746822 4285229157
0.0024730454 0.08725287 0.29709327 4286545017
0.0029515759 0.08725287 0.29709327 4287070846
0.0034315491 0.087289572 0.29721823 4287399811
0.0039102812 0.087289572 0.29721823 4287598984
0.004437001 0.088243961 0.30046791 4287862156
0.0048759328 0.0874364 0.2977182 4288718753
0.0053554699 0.0874364 0.2977182 4288521374
0.0057615181 0.08633519 0.29396859 4288850339
0.006227063 0.08622507 0.29359365 4288126616
0.0066999565 0.08622507 0.29359365 4288850339
0.0071575823 0.086041525 0.29296869 4288389788
0.0076164501 0.085894704 0.29246876 4288718753
0.0080875317 0.085894704 0.29246876 4288521374
0.0085586142 0.085894704 0.29246876 4288521123
0.0090335542 0.085931413 0.29259375 4288257951
0.0095088976 0.085968122 0.29271874 4288651167
0.0099803815 0.085968122 0.29271874 4288782753
0.010451866 0.085968122 0.29271874 4289111718
0.010923351 0.085968122 0.29271874 4289111718
0.011394836 0.085968122 0.29271874 4289177511
0.011861253 0.085931413 0.29259375 4289045925
0.012332536 0.085931413 0.29259375 4288849316
0.012798349 0.085894704 0.29246876 4288980902
0.013258089 0.085821286 0.29221877 4289309867
0.013728769 0.085821286 0.29221877 4288980902
0.014211595 0.085894704 0.29246876 4288915109
0.014682677 0.085894704 0.29246876 4288915109
0.015166711 0.085968122 0.29271874 4288980902
0.015691612 0.086261772 0.29371861 4289046695
0.016185343 0.086371899 0.29409358 4289112488
0.016680283 0.086482018 0.29446855 4289112488
0.017154586 0.086482018 0.29446855 4289112741
0.017673785 0.086702265 0.29521847 4289310120
0.018195398 0.086922504 0.29596838 4288915362
0.018829821 0.087656647 0.29846811 4289902257
0.019439949 0.088243961 0.30046791 4289968050
0.019932205 0.08828067 0.3005929 4289639085
0.020246586 0.08754652 0.29809314 4289902257
0.02053554 0.086738974 0.29534346 4290033843
0.02101125 0.086738974 0.29534346 4289902257
0.021277823 0.085894704 0.29246876 4289310120
0.021748904 0.085894704 0.29246876 4289441706
0.022115532 0.085490927 0.29109392 4288717983
0.022584401 0.085490927 0.29109392 4289967797
0.035168853 0.13042046 0.44407755 4289375660
0.035884131 0.13042046 0.44407755 4289507246
0.036599409 0.13042046 0.44407755 4289638832
0.037388206 0.1306774 0.44495246 4289836211
0.038211934 0.13104448 0.44620234 4289967797
0.039039679 0.13141155 0.44745219 4290230969
0.039849248 0.13170521 0.44845209 4290296762
0.040673342 0.13203558 0.44957697 4290165946
0.041397478 0.13203558 0.44957697 4290165946
0.042227007 0.13236594 0.45070186 4290297785
0.043024424 0.13258618 0.45145178 4290824129
0.043824259 0.13280642 0.45220169 4289506727
0.044626508 0.13302667 0.45295161 4286677628
0.045356084 0.13302667 0.45295161 4283717466
0.046136521 0.1331735 0.45345154 4283059536
0.04693149 0.13335703 0.4540765 4283585878
0.047741596 0.13357727 0.45482641 4283454292
0.048474185 0.13357727 0.45482641 4283192141
0.049274389 0.13376081 0.45545134 4282994762
0.050104048 0.13401777 0.45632625 4282929229
0.050950456 0.13431142 0.45732614 4282863436
0.051785957 0.13456836 0.45820105 4282666057
0.052523986 0.13456836 0.45820105 4282534471
0.053392775 0.13489874 0.45932594 4282534473
0.054250449 0.13519238 0.46032581 4282666059
0.055096418 0.13544933 0.46120071 4282731854
0.055930074 0.13566959 0.46195066 4282731854
0.056674145 0.13566959 0.46195066 4283060819
0.057495885 0.13585311 0.46257558 4283126612
0.058319643 0.13603665 0.46320051 4283060819
0.05912948 0.13618349 0.46370047 4285495160
0.059940923 0.13633031 0.46420041 4291218885
0.060688607 0.13633031 0.46420041 4292008401
0.061502464 0.13647713 0.46470034 4291943121
0.062284451 0.13655055 0.46495032 4291877328
0.063067243 0.13662396 0.4652003 4292666331
0.063816547 0.13662396 0.4652003 4288587165
0.06461788 0.13673408 0.46557525 4283716696
0.065402888 0.1368075 0.46582523 4282071871
-0.15612662 0.091791324 0.3108418 4283650653
-0.15562592 0.091791324 0.3108418 4283124309
-0.15531237 0.091902047 0.31121674 4284637564
-0.15493545 0.091975868 0.31146672 4286545561
-0.15443377 0.091975868 0.31146672 4288787136
-0.15417916 0.092123494 0.31196666 4290300375
-0.15379982 0.092197314 0.31221664 4291945450
-0.15329692 0.092197314 0.31221664 4291682278
-0.15279403 0.092197314 0.31221664 4291945704
-0.15241309 0.092271134 0.31246662 4291879911
-0.15190978 0.092271134 0.31246662 4292142829
-0.15158817 0.092381857 0.31284156 4292208622
-0.15126535 0.092492588 0.31321654 4292406003
-0.15088119 0.092566401 0.31346652 4292406003
-0.15037629 0.092566401 0.31346652 4292603128
-0.15005064 0.092677124 0.31384146 4292603128
-0.14972381 0.092787854 0.31421643 4292537074
-0.14921771 0.092787854 0.31421643 4292273902
-0.14888905 0.09289857 0.31459138 4292471281
-0.1485592 0.093009301 0.31496635 4292471281
-0.14805187 0.093009301 0.31496635 4292405488
-0.14777875 0.093156934 0.31546628 4292602867
-0.14744568 0.093267664 0.31584126 4292537074
-0.14693694 0.093267664 0.31584126 4292471281
-0.14666 0.09341529 0.31634119 4292799730
-0.1463237 0.093526021 0.31671616 4292668144
-0.14604372 0.093673654 0.3172161 4292997107
-0.14553279 0.093673654 0.3172161 4292339177
-0.14519326 0.093784377 0.31759107 4292142566
-0.14485255 0.093895108 0.31796604 4292076773
-0.14434038 0.093895108 0.31796604 4292142820
-0.14388476 0.09393201 0.31809101 4292142820
-0.14337242 0.09393201 0.31809101 4292404972
-0.14286005 0.09393201 0.31809101 4292536558
-0.14251551 0.094042741 0.31846598 4292142829
-0.14216976 0.094153471 0.31884095 4291813864
-0.14165619 0.094153471 0.31884095 4291945702
-0.14130862 0.094264187 0.31921589 4292011495
-0.14095983 0.094374917 0.31959087 4292142566
-0.14066477 0.094522551 0.3200908 4292142566
-0.14014919 0.094522551 0.3200908 4291945189
-0.13985172 0.094670184 0.32059076 4291682017
-0.13960695 0.094854727 0.32121569 4291812571
-0.13908955 0.094854727 0.32121569 4289970367
-0.13868003 0.094928548 0.32146567 4287203721
-0.1383771 0.095076174 0.32196561 4284506208
-0.13807257 0.095223807 0.32246554 4283978059
-0.13755317 0.095223807 0.32246554 4283254336
-0.13788359 0.095814347 0.32446533 4282205244
-0.13836631 0.096515603 0.32684007 4281942072
-0.14000103 0.098028846 0.33196452 4281285174
-0.074788459 0.11072536 0.37495995 4280690465
-0.074184507 0.11072536 0.37495995 4280624672
-0.073580563 0.11072536 0.37495995 4280821543
-0.073025264 0.11079918 0.37520993 4281084715
-0.07242091 0.11079918 0.37520993 4280623398
-0.071840473 0.11083608 0.37533489 4282728774
-0.071235918 0.11083608 0.37533489 4286019449
-0.069902241 0.10969193 0.37146032 4286282621
-0.069303922 0.10969193 0.37146032 4287137928
-0.067965843 0.10851086 0.36746076 4287203721
-0.067305222 0.10840013 0.36708578 4288124825
-0.066691242 0.10836322 0.36696079 4288519583
-0.065875039 0.10799414 0.36571094 4288650914
-0.065285988 0.10799414 0.36571094 4288650914
-0.064918041 0.10836322 0.36696079 4288716453
-0.06445843 0.10858466 0.36771071 4288848039
-0.063952997 0.10873231 0.36821067 4288650917
-0.063359916 0.10873231 0.36821067 4288716710
-0.063022502 0.10917521 0.36971051 4288782503
-0.062891304 0.10998719 0.37246022 4288848296
-0.062354084 0.11009791 0.37283516 4288979882
-0.061939877 0.11043009 0.37396005 4288848296
-0.061378539 0.11050391 0.37421003 4289045675
-0.060775794 0.11050391 0.37421003 4289111468
-0.06017305 0.11050391 0.37421003 4289177263
-0.059570309 0.11050391 0.37421003 4289243056
-0.059006952 0.11057772 0.37445998 4289112240
-0.058403805 0.11057772 0.37445998 4289112240
-0.057858538 0.11068846 0.37483495 4289112240
-0.057350244 0.11087299 0.37545988 4289046447
-0.056839947 0.11105754 0.37608483 4289112240
-0.056308933 0.11120517 0.37658477 4289178033
-0.055702366 0.11120517 0.37658477 4289178803
-0.055150654 0.1113159 0.37695974 4289310389
-0.054579649 0.11138971 0.37720969 4289441205
-0.054007847 0.11146353 0.37745968 4289441205
-0.053399868 0.11146353 0.37745968 4288981424
-0.052774407 0.11142662 0.37733468 4288981424
-0.052149352 0.11138971 0.37720969 4288981939
-0.051541775 0.11138971 0.37720969 4289245111
-0.050900452 0.1113159 0.37695974 4289376697
-0.050293278 0.1113159 0.37695974 4289310904
-0.049719051 0.11138971 0.37720969 4289376695
-0.049209114 0.11161116 0.37795961 4289376695
-0.048600335 0.11161116 0.37795961 4289507768
-0.048150256 0.11198024 0.37920949 4289770940
-0.04766481 0.11227552 0.38020939 4289705660
-0.047114272 0.11242314 0.38070932 4289705660
-0.046562128 0.11257078 0.38120928 4289705660
-0.045948111 0.11257078 0.38120928 4289705660
-0.045348957 0.1126077 0.38133428 4289837246
-0.044749398 0.1126446 0.38145924 4290100418
-0.044178367 0.11275533 0.38183421 4289903039
-0.043663159 0.11301368 0.38270912 4289903039
-0.043046724 0.11301368 0.38270912 4290166211
-0.042485721 0.11316132 0.38320905 4290297797
-0.041923106 0.11330895 0.38370901 4290100418
-0.041331973 0.11338277 0.383959 4290100418
-0.040713526 0.11338277 0.383959 4290100418
-0.040134232 0.11349349 0.38433394 4290166211
-0.039553739 0.11360423 0.38470891 4290100416
-0.03895938 0.11367803 0.38495886 4290166209
-0.03837667 0.11378876 0.38533384 4290297282
-0.037756007 0.11378876 0.38533384 4290231489
-0.037171483 0.11389948 0.38570878 4290363075
-0.036597595 0.11404712 0.38620874 4290428868
-0.036010452 0.11415784 0.38658369 4290429122
-0.035387781 0.11415784 0.38658369 4290626501
-0.034810066 0.11430548 0.38708365 4290626501
-0.034230743 0.11445311 0.38758358 4290626501
-0.033638969 0.11456384 0.38795856 4290626247
-0.033067264 0.11474838 0.38858348 4290428868
-0.032441366 0.11474838 0.38858348 4290626247
-0.031897336 0.11504365 0.38958338 4290626247
-0.031360123 0.11537583 0.39070827 4290363075
-0.030848773 0.11581872 0.3922081 4290231489
-0.030313337 0.11618782 0.39345798 4290428352
-0.029726731 0.11637235 0.3940829 4290428352
-0.029091978 0.11637235 0.3940829 4290297536
-0.028475277 0.11644617 0.39433289 4290297536
-0.027848942 0.11648308 0.39445785 4290297536
-0.027213588 0.11648308 0.39445785 4290231743
-0.026578231 0.11648308 0.39445785 4290100670
-0.025967536 0.11659381 0.39483282 4290232256
-0.025371669 0.11677834 0.39545774 4290298049
-0.024797242 0.11707361 0.39645764 4290363842
-0.024318606 0.11784869 0.39908236 4290298049
-0.023846345 0.11869759 0.40195706 4290232256
-0.023321537 0.11932503 0.40408182 4290363329
-0.022670681 0.11932503 0.40408182 4290758087
-0.022047067 0.11947267 0.40458179 4286413955
-0.0014025195 0.090794802 0.30746716 4281745479
-0.00090322271 0.090388797 0.30609229 4281811268
-0.00040668002 0.089613721 0.30346757 4281745475
8.2016195e-05 0.089503005 0.30309263 4282007614
0.00057020993 0.089503005 0.30309263 4282007614
0.0010457464 0.088432655 0.29946801 4282533441
0.0015204488 0.087989755 0.29796818 4282072890
0.0020003885 0.087989755 0.29796818 4282269497
0.0024751259 0.087805212 0.29734322 4282466876
0.0029540593 0.087805212 0.29734322 4283583047
0.0035368912 0.090462618 0.30634227 4283319875
0.0049312017 0.088912465 0.30109283 4284310622
0.005416174 0.088912465 0.30109283 4284705380
0.0057615181 0.086808681 0.29396859 4285822321
0.0062350156 0.086808681 0.29396859 4285822321
0.0067142178 0.086882502 0.29421857 4286873982
0.0071636895 0.086587228 0.29321867 4287466119
0.0076197051 0.086402692 0.29259375 4287664272
0.0080909878 0.086402692 0.29259375 4287795858
0.0085586142 0.086365782 0.29246876 4288124823
0.0090296958 0.086365782 0.29246876 4288124823
0.009504837 0.086402692 0.29259375 4288651167
0.0099803815 0.086439602 0.29271874 4288980132
0.010451866 0.086439602 0.29271874 4288322202
0.010923351 0.086439602 0.29271874 4289045925
0.011404566 0.086513415 0.29296869 4288915111
0.011906853 0.086734861 0.29371861 4289375662
0.012385216 0.086771771 0.2938436 4289441455
0.012858512 0.086771771 0.2938436 4289441455
0.013331808 0.086771771 0.2938436 4289178281
0.013805104 0.086771771 0.2938436 4289309867
0.014278402 0.086771771 0.2938436 4289375660
0.014751698 0.086771771 0.2938436 4289573039
0.015224993 0.086771771 0.2938436 4289573039
0.015725 0.086919412 0.29434356 4288717730
0.016219735 0.087030128 0.2947185 4289111718
0.016708601 0.087103948 0.29496849 4289177511
0.01718371 0.087103948 0.29496849 4289112488
0.017703714 0.087325402 0.2957184 4288849316
0.018210767 0.087473035 0.29621837 4287599251
0.018877132 0.088358834 0.29921803 4287467665
0.019439949 0.088727921 0.30046791 4287204491
0.019932205 0.088764831 0.3005929 4286743940
0.020424858 0.088801734 0.30071786 4286414201
0.035168853 0.13113573 0.44407755 4290230199
0.035884131 0.13113573 0.44407755 4289901487
0.036599409 0.13113573 0.44407755 4289901487
0.037388206 0.13139409 0.44495246 4289967280
0.038211934 0.13176318 0.44620234 4290164659
0.039039679 0.13213226 0.44745219 4290297015
0.039849248 0.13242753 0.44845209 4290362808
0.04057157 0.13242753 0.44845209 4290231992
0.041385971 0.1327228 0.44945198 4290231992
0.042203587 0.13301806 0.45045188 4290297532
0.043012515 0.13327643 0.45132679 4290429118
0.043812148 0.13349788 0.4520767 4290824129
0.044540308 0.13349788 0.4520767 4290231992
0.045343567 0.13371933 0.45282662 4287666329
0.046123806 0.13386697 0.45332658 4285560953
0.046918575 0.1340515 0.45395151 4283849050
0.047741596 0.13430986 0.45482641 4282927948
0.048474185 0.13430986 0.45482641 4283257683
0.049274389 0.13449441 0.45545134 4282928718
0.050090324 0.13471586 0.45620126 4282929231
0.050936531 0.13501112 0.45720115 4282929231
0.051771831 0.13526948 0.45807606 4282797645
0.052509658 0.13526948 0.45807606 4282731852
0.053378243 0.13560165 0.45920095 4282535241
0.054220989 0.13586003 0.46007586 4282535241
0.055066559 0.13611838 0.46095076 4282535245
0.05589981 0.13633983 0.46170068 4282666831
0.056643475 0.13633983 0.46170068 4283061335
0.05748035 0.13656127 0.46245059 4283258714
0.058303908 0.13674581 0.46307552 4282796880
0.05912948 0.13693036 0.46370047 4286152323
0.059940923 0.137078 0.46420041 4291811024
0.060688607 0.137078 0.46420041 4291811024
0.061469384 0.13715182 0.46445039 4292074196
0.062250964 0.13722563 0.46470034 4292008403
0.0630503 0.13733636 0.46507531 4292599768
