# .PCD v0.7 - Point Cloud Data file format
VERSION 0.7
FIELDS x y z rgba
SIZE 4 4 4 4
TYPE F F F U
COUNT 1 1 1 1
WIDTH 1069
HEIGHT 1
VIEWPOINT 0 0 0 1 0 0 0
POINTS 1069
DATA ascii
-0.14952064 0.11977521 0.36571094 4287201413
-0.14893159 0.11977521 0.36571094 4284767072
-0.14834255 0.11977521 0.36571094 4283383622
-0.14780396 0.11981614 0.36583591 4283120450
-0.14726502 0.11985707 0.3659609 4282333501
-0.14667556 0.11985707 0.3659609 4282201915
-0.14618589 0.11993895 0.36621088 4281939507
-0.14569542 0.12002082 0.36646086 4281742128
-0.14510515 0.12002082 0.36646086 4281676335
-0.14461346 0.12010268 0.36671081 4281676335
-0.14417006 0.12022549 0.36708578 4281741875
-0.14372547 0.1203483 0.36746076 4281676082
-0.1431336 0.1203483 0.36746076 4281282355
-0.14263867 0.12043016 0.36771071 4281348148
-0.14219126 0.12055297 0.36808568 4281086516
-0.14159837 0.12055297 0.36808568 4281349688
-0.14114913 0.12067577 0.36846063 4281021232
-0.14065102 0.12075764 0.36871061 4281021232
-0.14019956 0.12088045 0.36908558 4281152818
-0.13960508 0.12088045 0.36908558 4281218611
-0.1391518 0.12100325 0.36946052 4281415477
-0.13869733 0.12112606 0.3698355 4281349684
-0.13810164 0.12112606 0.3698355 4281349684
-0.13764533 0.12124886 0.37021044 4281349684
-0.13718785 0.12137166 0.37058541 4281349684
-0.13672915 0.12149446 0.37096035 4281283891
-0.13603991 0.1214126 0.3707104 4281415477
-0.13544281 0.1214126 0.3707104 4281481270
-0.13493662 0.12149446 0.37096035 4281809465
-0.13433911 0.12149446 0.37096035 4282138430
-0.13383172 0.12157634 0.37121034 4282729551
-0.13327867 0.12161727 0.37133533 4286348166
-0.13276988 0.12169915 0.37158531 4291481558
-0.13217136 0.12169915 0.37158531 4291613144
-0.13166136 0.12178101 0.37183526 4291744728
-0.13115056 0.12186288 0.37208524 4291810521
-0.13055122 0.12186288 0.37208524 4292007900
-0.13008288 0.12198569 0.37246022 4292007900
-0.12961328 0.12210849 0.37283516 4291810775
-0.12914251 0.1222313 0.37321013 4291679189
-0.12854138 0.1222313 0.37321013 4291219147
-0.12811163 0.12239503 0.37371007 4289113771
-0.12763764 0.12251784 0.37408504 4284111444
-0.12716241 0.12264064 0.37445998 4283585100
-0.12655927 0.12264064 0.37445998 4282794816
-0.12608226 0.12276345 0.37483495 4282465851
-0.12560403 0.12288626 0.37520993 4281941825
-0.12499968 0.12288626 0.37520993 4281810239
-0.12447818 0.12296811 0.37545988 4281875262
-0.12395591 0.12304999 0.37570986 4281809469
-0.12343283 0.12313186 0.37595984 4281612090
-0.12282726 0.12313186 0.37595984 4281546297
-0.12230296 0.12321372 0.3762098 4281415479
-0.12177785 0.1232956 0.37645978 4281481272
-0.12121172 0.12333653 0.37658477 4281415477
-0.12060516 0.12333653 0.37658477 4281349684
-0.12003841 0.12337747 0.37670976 4281611316
-0.1195109 0.12345934 0.37695974 4281545523
-0.11878546 0.12333653 0.37658477 4281808695
-0.11817888 0.12333653 0.37658477 4282137660
-0.11761134 0.12337747 0.37670976 4282006344
-0.11708221 0.12345934 0.37695974 4283453790
-0.11647504 0.12345934 0.37695974 4289376182
-0.11590628 0.12350027 0.3770847 4291678937
-0.11537533 0.12358214 0.37733468 4291480268
-0.11488161 0.12370495 0.37770966 4291546061
-0.11427323 0.12370495 0.37770966 4291546312
-0.11377768 0.12382775 0.3780846 4291612105
-0.11335576 0.12403243 0.37870955 4291415746
-0.11274577 0.12403243 0.37870955 4287994510
-0.11243185 0.1243599 0.37970942 4282732620
-0.11233553 0.12493299 0.38145924 4282666827
-0.11230682 0.12558794 0.38345903 4282009412
-0.11198042 0.12591542 0.38445893 4281877826
0.044763107 0.14409047 0.439953 4282597956
0.045471743 0.14409047 0.439953 4286084733
0.046206623 0.14417234 0.44020298 4290887622
0.046915658 0.14417234 0.44020298 4291744980
0.047651742 0.14425421 0.44045293 4291613394
0.04840235 0.14437702 0.44082791 4291679187
0.049168095 0.14454076 0.44132784 4291613394
0.049935449 0.14470451 0.4418278 4291548114
0.050647106 0.14470451 0.4418278 4291613907
0.051416878 0.14486824 0.44232774 4291548114
0.052202988 0.14507291 0.44295269 4291548114
0.05297618 0.14523666 0.44345263 4291483093
0.053690452 0.14523666 0.44345263 4291548886
0.054450728 0.14535946 0.4438276 4291614679
0.055212207 0.14548226 0.44420254 4291614679
0.055974901 0.14560507 0.44457752 4291614679
0.056722857 0.14568692 0.44482747 4291746265
0.057439346 0.14568692 0.44482747 4291812056
0.058188513 0.14576881 0.44507745 4291877849
0.058955029 0.14589161 0.44545242 4291877849
0.05970601 0.14597347 0.44570237 4291877849
0.060423907 0.14597347 0.44570237 4291943390
0.061193243 0.14609627 0.44607735 4292074976
0.061963778 0.14621907 0.44645229 4292009696
0.062717982 0.14630096 0.44670227 4291943903
0.063437492 0.14630096 0.44670227 4292207075
0.064210854 0.14642376 0.44707724 4292404454
0.064985409 0.14654656 0.44745219 4292667880
0.065779544 0.14671031 0.44795215 4292799466
0.066501066 0.14671031 0.44795215 4292536294
0.067297615 0.14687404 0.44845209 4292667880
0.068076812 0.14699684 0.44882706 4292602347
0.068876371 0.14716059 0.44932699 4292668140
0.06965819 0.14728339 0.44970196 4292603117
0.070382528 0.14728339 0.44970196 4292603117
0.071166158 0.14740619 0.45007691 4292537324
0.071950994 0.14752901 0.45045188 4292274152
0.072737031 0.14765179 0.45082682 4292405992
0.073463179 0.14765179 0.45082682 4292405992
0.074251041 0.14777461 0.4512018 4292867054
0.075060874 0.14793834 0.45170173 4292801261
0.075851344 0.14806116 0.4520767 4292668643
0.076579504 0.14806116 0.4520767 4292668643
0.077393159 0.14822489 0.45257664 4293194220
0.078186862 0.14834769 0.45295161 4292733669
0.078981765 0.14847051 0.45332658 4292733160
0.079777867 0.14859331 0.45370153 4292404195
0.080508649 0.14859331 0.45370153 4291877081
0.081306569 0.14871611 0.4540765 4291416530
0.082105696 0.14883891 0.45445144 4290890956
0.082928821 0.14900266 0.45495141 4292206816
0.083661608 0.14900266 0.45495141 4293457394
0.084556706 0.14928919 0.45582631 4293588980
0.085337676 0.14937106 0.45607626 4294180859
0.086426102 0.14998509 0.45795107 4293786357
0.087401628 0.15039444 0.45920095 4291942359
0.088141255 0.15039444 0.45920095 4287402642
-0.15428577 0.12040539 0.36583591 4292469214
-0.15369652 0.12040539 0.36583591 4292929765
-0.15321189 0.12048766 0.36608589 4293060838
-0.15262222 0.12048766 0.36608589 4292797666
-0.15198067 0.12044653 0.3659609 4292995047
-0.15139121 0.12044653 0.3659609 4292731875
-0.15075025 0.12040539 0.36583591 4292532697
-0.15010971 0.12036426 0.36571094 4290756286
-0.14952064 0.12036426 0.36571094 4286279796
-0.14893159 0.12036426 0.36571094 4284306006
-0.14834255 0.12036426 0.36571094 4283383622
-0.14780396 0.12040539 0.36583591 4283186243
-0.14726502 0.12044653 0.3659609 4282464317
-0.14667556 0.12044653 0.3659609 4282201145
-0.1460861 0.12044653 0.3659609 4282004534
-0.14549665 0.12044653 0.3659609 4281872948
-0.14490719 0.12044653 0.3659609 4281741613
-0.14441632 0.1205288 0.36621088 4281807406
-0.14392462 0.12061108 0.36646086 4281807919
-0.14348102 0.12073448 0.3668358 4281742126
-0.14289016 0.12073448 0.3668358 4281347887
-0.14244474 0.12085789 0.36721078 4281347887
-0.14194985 0.12094016 0.36746076 4281348916
-0.14135797 0.12094016 0.36746076 4281480502
-0.14086185 0.12102243 0.36771071 4281086514
-0.14036494 0.12110471 0.36796069 4281218100
-0.13991469 0.12122812 0.36833566 4281283893
-0.13932142 0.12122812 0.36833566 4281283893
-0.13886935 0.12135153 0.36871061 4281677109
-0.13846296 0.12151606 0.36921054 4281545523
-0.13786827 0.12151606 0.36921054 4281677109
-0.13736652 0.12159834 0.36946052 4281545523
-0.13695651 0.12176289 0.36996049 4281611316
-0.13649881 0.12188629 0.37033543 4281545523
-0.1359023 0.12188629 0.37033543 4281742902
-0.13544281 0.1220097 0.3707104 4281940281
-0.13493662 0.12209197 0.37096035 4282005817
-0.13433911 0.12209197 0.37096035 4282268989
-0.13383172 0.12217424 0.37121034 4282598481
-0.13327867 0.12221538 0.37133533 4287467163
-0.13276988 0.12229766 0.37158531 4291810523
-0.13217136 0.12229766 0.37158531 4291547351
-0.13152859 0.12225652 0.37146032 4291941337
-0.13093029 0.12225652 0.37146032 4292072923
-0.13033196 0.12225652 0.37146032 4292138716
-0.1298646 0.12237992 0.37183526 4292138716
-0.12939604 0.12250333 0.37221023 4291942361
-0.12896951 0.12266787 0.37271017 4291613396
-0.12836918 0.12266787 0.37271017 4291613392
-0.1278974 0.12279128 0.37308514 4288126363
-0.1274244 0.1229147 0.37346011 4283651150
-0.12699264 0.12307924 0.37396005 4283519564
-0.12639031 0.12307924 0.37396005 4282532418
-0.12587206 0.12316152 0.37421003 4282269246
-0.12539482 0.12328491 0.37458497 4281876291
-0.12479147 0.12328491 0.37458497 4281744705
-0.124271 0.12336719 0.37483495 4281678912
-0.12374973 0.12344947 0.37508494 4281613119
-0.12322765 0.12353173 0.37533489 4281481274
-0.12262309 0.12353173 0.37533489 4281415481
-0.1220998 0.12361401 0.37558487 4281415479
-0.12153527 0.12365515 0.37570986 4281415479
-0.12101057 0.12373742 0.37595984 4281415477
-0.12040502 0.12373742 0.37595984 4281415477
-0.1198791 0.12381969 0.3762098 4281546293
-0.11931276 0.12386082 0.37633479 4281348914
-0.11870661 0.12386082 0.37633479 4281546295
-0.11817888 0.1239431 0.37658477 4282072639
-0.11761134 0.12398423 0.37670976 4281874758
-0.11708221 0.12406651 0.37695974 4284967029
-0.11647504 0.12406651 0.37695974 4289836731
-0.11590628 0.12410764 0.3770847 4291086798
-0.11537533 0.12418991 0.37733468 4291218634
-0.11488161 0.12431332 0.37770966 4291284427
-0.11427323 0.12431332 0.37770966 4291612873
-0.11377768 0.12443673 0.3780846 4291415494
-0.1131687 0.12443673 0.3780846 4291678920
-0.11255971 0.12443673 0.3780846 4286481273
-0.11217278 0.12468354 0.37883452 4283126610
-0.11189386 0.12505378 0.3799594 4282731852
-0.11201397 0.12587649 0.38245913 4281746756
-0.11187121 0.12641126 0.38408396 4281549377
0.044724956 0.14467569 0.43957803 4282203453
0.045432989 0.14467569 0.43957803 4285362291
0.046167262 0.14475797 0.43982801 4290362559
0.046875693 0.14475797 0.43982801 4292139738
0.047611177 0.14484024 0.44007799 4291481808
0.048361178 0.14496365 0.44045293 4291613394
0.049112398 0.14508706 0.44082791 4291613394
0.049822439 0.14508706 0.44082791 4291613907
0.050589796 0.1452516 0.44132784 4291613907
0.051358763 0.14541616 0.4418278 4291613907
0.052129336 0.14558069 0.44232774 4291548114
0.052901525 0.14574523 0.4428277 4291613907
0.053614788 0.14574523 0.4428277 4291613907
0.054374054 0.14586864 0.44320264 4291877079
0.055150066 0.1460332 0.44370261 4291745493
0.055896215 0.14611545 0.44395256 4291548884
0.056611292 0.14611545 0.44395256 4291614677
0.057358652 0.14619774 0.44420254 4291548884
0.058123153 0.14632115 0.44457752 4291812056
0.058872316 0.14640342 0.44482747 4291812056
0.059639037 0.14652683 0.44520244 4291943642
0.060356129 0.14652683 0.44520244 4291944157
0.061107516 0.1466091 0.44545242 4292009950
0.061877042 0.14673249 0.44582736 4291943903
0.06264779 0.14685592 0.44620234 4292207075
0.063366495 0.14685592 0.44620234 4292142050
0.064121097 0.14693817 0.44645229 4292142050
0.064894654 0.14706159 0.44682726 4292733160
0.065669425 0.147185 0.44720224 4292535781
0.06638974 0.147185 0.44720224 4292930539
0.067185074 0.14734954 0.44770217 4292930539
0.067982025 0.14751409 0.4482021 4292602601
0.068761416 0.1476375 0.44857708 4292405222
0.069542028 0.14776091 0.44895205 4292603371
0.070265159 0.14776091 0.44895205 4292734957
0.071047582 0.14788431 0.44932699 4292997359
0.071831211 0.14800772 0.44970196 4292602601
0.072636202 0.14817226 0.4502019 4292537324
0.073361352 0.14817226 0.4502019 4292537324
0.0741482 0.14829567 0.45057687 4292668912
0.074936256 0.14841908 0.45095181 4292734705
0.075746492 0.14858364 0.45145178 4292142566
0.076473646 0.14858364 0.45145178 4292603117
0.077286296 0.14874817 0.45195171 4292799726
0.078078985 0.14887159 0.45232669 4292733933
0.078872882 0.14899498 0.45270163 4292733419
0.079667978 0.14911839 0.4530766 4292930798
0.080397755 0.14911839 0.4530766 4293654008
0.081194669 0.14924181 0.45345154 4293917180
0.081970207 0.14932407 0.45370153 4292864746
0.082792126 0.14948863 0.45420149 4292798953
0.083523706 0.14948863 0.45420149 4292930539
0.084371217 0.14969431 0.45482641 4293785848
0.085337676 0.15010566 0.45607626 4293785848
0.086284578 0.15047589 0.45720115 4293391090
0.087401628 0.15113407 0.45920095 4292797670
0.088141255 0.15113407 0.45920095 4288126367
-0.15434591 0.12058128 0.36458606 4292599789
-0.15375867 0.12058128 0.36458606 4292601574
-0.15332896 0.12070529 0.364961 4292864746
-0.15279342 0.12074663 0.36508599 4292864746
-0.15220536 0.12074663 0.36508599 4292601574
-0.15172113 0.12082931 0.36533597 4292863974
-0.15113269 0.12082931 0.36533597 4292535009
-0.15054424 0.12082931 0.36533597 4293059294
-0.14990449 0.12078796 0.36521098 4289374886
-0.14931624 0.12078796 0.36521098 4285359207
-0.14872798 0.12078796 0.36521098 4283648589
-0.14813974 0.12078796 0.36521098 4283252804
-0.14760199 0.12082931 0.36533597 4283055425
-0.14706384 0.12087064 0.36546096 4282530108
-0.14647518 0.12087064 0.36546096 4282201143
-0.14598632 0.12095332 0.36571094 4282135350
-0.14549665 0.12103599 0.3659609 4282003764
-0.14490719 0.12103599 0.3659609 4281610281
-0.14441632 0.12111866 0.36621088 4281873453
-0.14392462 0.12120134 0.36646086 4281873966
-0.14348102 0.12132535 0.3668358 4281742380
-0.14289016 0.12132535 0.3668358 4281282353
-0.14229929 0.12132535 0.3668358 4281348146
-0.14170843 0.12132535 0.3668358 4281348916
-0.14111756 0.12132535 0.3668358 4281414709
-0.14062245 0.12140803 0.36708578 4281348916
-0.14012656 0.12149071 0.36733577 4281480502
-0.13953488 0.12149071 0.36733577 4281611318
-0.13908502 0.12161471 0.36771071 4281479732
-0.13858691 0.12169739 0.36796069 4281676854
-0.13818172 0.12186274 0.36846063 4281413682
-0.13758823 0.12186274 0.36846063 4281938994
-0.13713416 0.12198675 0.3688356 4281873201
-0.13667889 0.12211076 0.36921054 4281873714
-0.13626848 0.12227611 0.36971051 4281807921
-0.13567297 0.12227611 0.36971051 4282005047
-0.13516882 0.12235879 0.36996049 4282202426
-0.1347093 0.1224828 0.37033543 4282071612
-0.13411281 0.1224828 0.37033543 4282071612
-0.13356136 0.12252413 0.37046042 4283585378
-0.13305438 0.12260681 0.3707104 4288717232
-0.13254659 0.12268949 0.37096035 4291942622
-0.13194907 0.12268949 0.37096035 4291679450
-0.13144007 0.12277216 0.37121034 4291877081
-0.13093029 0.12285484 0.37146032 4291942874
-0.13033196 0.12285484 0.37146032 4292008667
-0.1298646 0.12297884 0.37183526 4291942874
-0.12939604 0.12310286 0.37221023 4291942359
-0.12896951 0.12326821 0.37271017 4291679187
-0.12836918 0.12326821 0.37271017 4292073426
-0.1278974 0.12339222 0.37308514 4287599502
-0.1274244 0.12351624 0.37346011 4283388748
-0.12699264 0.12368159 0.37396005 4282928197
-0.12630582 0.12359891 0.37371007 4281809467
-0.12570389 0.12359891 0.37371007 4281612088
-0.12518562 0.12368159 0.37396005 4282139204
-0.12458328 0.12368159 0.37396005 4282204997
-0.12406381 0.12376426 0.37421003 4281941823
-0.12354355 0.12384693 0.37445998 4281876030
-0.12302247 0.12392961 0.37470996 4281810237
-0.12241892 0.12392961 0.37470996 4281481272
-0.12189664 0.12401228 0.37495995 4281415479
-0.12133311 0.12405363 0.37508494 4281349686
-0.1207692 0.12409496 0.37520993 4281349686
-0.12016485 0.12409496 0.37520993 4281481272
-0.11964013 0.12417763 0.37545988 4281415730
-0.11907502 0.12421897 0.37558487 4281218351
-0.11847006 0.12421897 0.37558487 4281480502
-0.11794354 0.12430165 0.37583485 4282072639
-0.11741623 0.12438433 0.37608483 4282335309
-0.11684927 0.12442566 0.3762098 4286348682
-0.11624332 0.12442566 0.3762098 4290889673
-0.11571419 0.12450834 0.37645978 4291087052
-0.11522248 0.12463235 0.37683475 4291350473
-0.11472955 0.12475636 0.37720969 4291482059
-0.11412197 0.12475636 0.37720969 4291482311
-0.11362724 0.12488037 0.37758467 4291087553
-0.1131687 0.12504572 0.3780846 4291414978
-0.11255971 0.12504572 0.3780846 4286217331
-0.11217278 0.12529375 0.37883452 4283323478
-0.11189386 0.12566578 0.3799594 4282731341
-0.11201397 0.12649253 0.38245913 4281811268
-0.11187121 0.12702991 0.38408396 4281745475
0.044699524 0.14530106 0.43932807 4281809465
0.045407154 0.14530106 0.43932807 4284901740
0.046127904 0.14534241 0.43945307 4289836215
0.046835735 0.14534241 0.43945307 4292139738
0.047570609 0.14542507 0.43970302 4291481808
0.04832001 0.14554909 0.44007799 4291219149
0.049070623 0.1456731 0.44045293 4291548114
0.04978006 0.1456731 0.44045293 4291613909
0.050532486 0.14579712 0.44082791 4291613909
0.05128612 0.14592113 0.44120288 4291548114
0.052055687 0.14608647 0.44170281 4291416528
0.052826867 0.14625181 0.44220275 4291416528
0.053539123 0.14625181 0.44220275 4291613907
0.054297388 0.14637583 0.44257772 4291679700
0.055056855 0.14649986 0.44295269 4291679700
0.055817533 0.14662386 0.44332764 4291679700
0.056531604 0.14662386 0.44332764 4291613907
0.057294097 0.14674787 0.44370261 4291746263
0.058041446 0.14683054 0.44395256 4291746263
0.058789611 0.14691322 0.44420254 4291877849
0.05950509 0.14691322 0.44420254 4291812056
0.060271408 0.14703724 0.44457752 4291944155
0.061021782 0.14711991 0.44482747 4291944155
0.06179031 0.14724392 0.44520244 4291944157
0.062560044 0.14736792 0.44557738 4292141536
0.063277744 0.14736792 0.44557738 4292141536
0.064049289 0.14749195 0.44595236 4291944157
0.064803891 0.14757462 0.44620234 4292536294
0.065577656 0.14769863 0.44657728 4292404708
0.066296957 0.14769863 0.44657728 4292798953
0.067072541 0.14782265 0.44695225 4292798953
0.067868277 0.14798799 0.44745219 4292667880
0.068646468 0.14811201 0.44782716 4292799466
0.069367789 0.14811201 0.44782716 4292865257
0.07014779 0.14823602 0.4482021 4292931050
0.070948765 0.14840136 0.44870207 4292996843
0.071731389 0.14852537 0.44907701 4292865257
0.072515212 0.14864939 0.44945198 4292865005
0.073239148 0.14864939 0.44945198 4292865005
0.074024796 0.14877342 0.44982696 4292668912
0.074936256 0.14914544 0.45095181 4292734705
0.075746492 0.1493108 0.45145178 4292734705
0.076473646 0.1493108 0.45145178 4292997877
0.077286296 0.14947614 0.45195171 4293721082
0.078078985 0.14960016 0.45232669 4293786875
0.078872882 0.14972417 0.45270163 4293852154
0.079667978 0.14984818 0.4530766 4293654775
0.080397755 0.14984818 0.4530766 4293391090
0.081194669 0.14997219 0.45345154 4293456883
0.081970207 0.15005487 0.45370153 4293654262
0.082792126 0.15022022 0.45420149 4293456883
0.083523706 0.15022022 0.45420149 4293983227
0.084371217 0.15042691 0.45482641 4293851641
0.085337676 0.15084027 0.45607626 4293916664
0.086284578 0.15121232 0.45720115 4293127148
0.087401628 0.15187372 0.45920095 4292995562
0.088141255 0.15187372 0.45920095 4288390052
-0.15493315 0.12116852 0.36458606 4290693075
-0.15434591 0.12116852 0.36458606 4292930037
-0.15375867 0.12116852 0.36458606 4292535790
-0.15332896 0.12129313 0.364961 4292667376
-0.15279342 0.12133467 0.36508599 4292602351
-0.15189272 0.12108544 0.36433607 4292536558
-0.15130588 0.12108544 0.36433607 4292470499
-0.15082246 0.12116852 0.36458606 4292141534
-0.15023522 0.12116852 0.36458606 4292532954
-0.14969929 0.12121006 0.36471105 4287861651
-0.14916293 0.1212516 0.36483604 4284175705
-0.14857529 0.1212516 0.36483604 4283188810
-0.14798765 0.1212516 0.36483604 4282794050
-0.14745049 0.12129313 0.364961 4282662464
-0.14691295 0.12133467 0.36508599 4282530108
-0.14632489 0.12133467 0.36508599 4282201143
-0.14578675 0.12137621 0.36521098 4282135350
-0.14529788 0.12145929 0.36546096 4282003764
-0.14470923 0.12145929 0.36546096 4281610281
-0.14421916 0.12154237 0.36571094 4281807660
-0.14372827 0.12162544 0.3659609 4281808173
-0.14328548 0.12175006 0.36633587 4281742380
-0.14269543 0.12175006 0.36633587 4281282351
-0.14220233 0.12183314 0.36658585 4281348144
-0.14170843 0.12191621 0.3668358 4281348916
-0.14111756 0.12191621 0.3668358 4281414709
-0.14062245 0.12199929 0.36708578 4281545525
-0.14012656 0.12208237 0.36733577 4281611318
-0.13953488 0.12208237 0.36733577 4281611061
-0.13908502 0.12220699 0.36771071 4281413682
-0.13858691 0.12229007 0.36796069 4281741875
-0.13818172 0.12245622 0.36846063 4281544496
-0.13749491 0.12237314 0.36821067 4281872948
-0.13690181 0.12237314 0.36821067 4281938741
-0.13644755 0.12249775 0.36858562 4282070580
-0.13599207 0.12262238 0.36896059 4282004787
-0.13539778 0.12262238 0.36896059 4281873461
-0.13494048 0.12274699 0.36933553 4282136633
-0.13448198 0.12287161 0.36971051 4282268223
-0.13388649 0.12287161 0.36971051 4282662981
-0.13333607 0.12291314 0.3698355 4284769652
-0.13283007 0.12299622 0.37008545 4290230471
-0.13227864 0.12303776 0.37021044 4291285460
-0.13168232 0.12303776 0.37021044 4291746011
-0.13117455 0.12312084 0.37046042 4292009437
-0.13071001 0.12324546 0.37083539 4291943644
-0.13011269 0.12324546 0.37083539 4292074460
-0.12964635 0.12337007 0.37121034 4292074460
-0.12922223 0.12353623 0.3717103 4292008403
-0.12875326 0.12366084 0.37208524 4291547852
-0.12815395 0.12366084 0.37208524 4291284162
-0.12772602 0.123827 0.37258521 4288060305
-0.12725383 0.12395161 0.37296015 4285692527
-0.12678042 0.12407623 0.37333512 4284508253
-0.1261791 0.12407623 0.37333512 4284112990
-0.12570389 0.12420084 0.37371007 4283586646
-0.12518562 0.12428392 0.37396005 4283321930
-0.12458328 0.12428392 0.37396005 4282598207
-0.12406381 0.12436701 0.37421003 4282467395
-0.12354355 0.12445007 0.37445998 4281612086
-0.12302247 0.12453315 0.37470996 4282138430
-0.12241892 0.12453315 0.37470996 4281875258
-0.12173411 0.12445007 0.37445998 4281612088
-0.12113096 0.12445007 0.37445998 4281546295
-0.12060828 0.12453315 0.37470996 4281546295
-0.12000473 0.12453315 0.37470996 4281612088
-0.119441 0.12457469 0.37483495 4281349684
-0.11887689 0.12461624 0.37495995 4281086512
-0.11827294 0.12461624 0.37495995 4281415481
-0.11774743 0.12469932 0.37520993 4282139204
-0.11722112 0.12478238 0.37545988 4282270799
-0.116694 0.12486546 0.37570986 4287073688
-0.11608884 0.12486546 0.37570986 4291153104
-0.11556052 0.12494855 0.37595984 4291087311
-0.11503138 0.12503162 0.3762098 4291350473
-0.11457749 0.12519778 0.37670976 4291547852
-0.11397071 0.12519778 0.37670976 4291482311
-0.11347678 0.12532239 0.3770847 4291087553
-0.11301906 0.12548855 0.37758467 4290690996
-0.11241088 0.12548855 0.37758467 4285756521
-0.11198775 0.12569624 0.37820959 4283520085
-0.11156259 0.12590393 0.37883452 4282796362
-0.11135507 0.12636086 0.38020939 4282073924
-0.11187121 0.12764856 0.38408396 4282073924
0.044648655 0.14584252 0.43882811 4281415477
0.04535548 0.14584252 0.43882811 4284506212
0.046088547 0.14592561 0.43907809 4289572273
0.046795771 0.14592561 0.43907809 4291613907
0.047516521 0.14596716 0.43920308 4291219149
0.048265114 0.14609176 0.43957803 4291416528
0.049014926 0.14621638 0.439953 4291548114
0.049723558 0.14621638 0.439953 4291548114
0.050460853 0.14629947 0.44020298 4291153356
0.051228005 0.14646561 0.44070292 4291416528
0.052055687 0.14679793 0.44170281 4291219149
0.052826867 0.14696407 0.44220275 4291416528
0.053539123 0.14696407 0.44220275 4291548114
0.054297388 0.14708869 0.44257772 4291548114
0.055056855 0.14721331 0.44295269 4291482321
0.055817533 0.14733793 0.44332764 4291548114
0.056531604 0.14733793 0.44332764 4291548114
0.057294097 0.14746255 0.44370261 4291548884
0.058041446 0.14754562 0.44395256 4291548884
0.058789611 0.14762869 0.44420254 4291614677
0.05950509 0.14762869 0.44420254 4291812056
0.060271408 0.14775331 0.44457752 4291812056
0.061021782 0.14783639 0.44482747 4291943642
0.06179031 0.14796101 0.44520244 4291943642
0.062560044 0.14808562 0.44557738 4292009435
0.063277744 0.14808562 0.44557738 4292075228
0.064049289 0.14821024 0.44595236 4292075228
0.064803891 0.14829332 0.44620234 4292404708
0.065577656 0.14841793 0.44657728 4292404708
0.066296957 0.14841793 0.44657728 4292469988
0.067072541 0.14854255 0.44695225 4292535781
0.067868277 0.1487087 0.44745219 4292733158
0.068646468 0.14883332 0.44782716 4292535779
0.069367789 0.14883332 0.44782716 4293127146
0.07014779 0.14895794 0.4482021 4293192939
0.070948765 0.14912409 0.44870207 4293192937
0.071731389 0.1492487 0.44907701 4293653488
0.072515212 0.14937332 0.44945198 4293193711
0.073239148 0.14937332 0.44945198 4292996332
0.074024796 0.14949794 0.44982696 4292930798
0.07483241 0.14966409 0.45032689 4293128177
0.075620666 0.14978872 0.45070186 4293259763
0.076346613 0.14978872 0.45070186 4293259763
0.077158056 0.14995487 0.4512018 4293194738
0.077971108 0.15012102 0.45170173 4293655289
0.078763999 0.15024564 0.4520767 4293457910
0.079492159 0.15024564 0.4520767 4293523703
0.08028686 0.15037026 0.45245168 4293260277
0.081082769 0.15049487 0.45282662 4293260277
0.081879891 0.15061949 0.45320159 4293391349
0.082678206 0.1507441 0.45357653 4293720314
0.08340878 0.1507441 0.45357653 4294049533
0.084255293 0.1509518 0.45420149 4293917947
0.08508043 0.15111795 0.45470142 4293785848
0.086190224 0.15178257 0.45670122 4293259504
0.086925842 0.15178257 0.45670122 4293391088
0.088093273 0.15253027 0.45895097 4288785578
-0.15349908 0.12062877 0.36121142 4291811554
-0.15291728 0.12062877 0.36121142 4292272105
-0.15286258 0.12104617 0.36246127 4292141032
-0.15254131 0.12125488 0.36308622 4292469997
-0.15227033 0.12150532 0.36383614 4292405488
-0.1516843 0.12150532 0.36383614 4292405488
-0.15130588 0.12167227 0.36433607 4292273636
-0.15082246 0.12175576 0.36458606 4291813085
-0.15023522 0.12175576 0.36458606 4291940560
-0.14969929 0.12179749 0.36471105 4286742913
-0.14916293 0.12183924 0.36483604 4283780949
-0.14857529 0.12183924 0.36483604 4282991433
-0.14798765 0.12183924 0.36483604 4282465600
-0.14734951 0.12179749 0.36471105 4282399807
-0.14676207 0.12179749 0.36471105 4282333499
-0.14617462 0.12179749 0.36471105 4281938741
-0.14563708 0.12183924 0.36483604 4281938741
-0.14509912 0.12188097 0.364961 4281872948
-0.14451127 0.12188097 0.364961 4281545001
-0.144022 0.12196445 0.36521098 4281676587
-0.14353193 0.12204794 0.36546096 4281676587
-0.14308994 0.12217315 0.36583591 4281676587
-0.14250068 0.12217315 0.36583591 4281348138
-0.14200839 0.12225664 0.36608589 4281545517
-0.1415153 0.12234012 0.36633587 4281545523
-0.14092524 0.12234012 0.36633587 4281611316
-0.14038306 0.12238186 0.36646086 4281545523
-0.13988815 0.12246533 0.36671081 4281611316
-0.13929749 0.12246533 0.36671081 4281545523
-0.13880138 0.12254881 0.36696079 4281348144
-0.13835153 0.12267404 0.36733577 4281413680
-0.13790049 0.12279925 0.36771071 4281347887
-0.13730821 0.12279925 0.36771071 4281676335
-0.13690181 0.12296622 0.36821067 4281807921
-0.13644755 0.12309144 0.36858562 4282004787
-0.13599207 0.12321666 0.36896059 4281938994
-0.13539778 0.12321666 0.36896059 4281807670
-0.13494048 0.12334187 0.36933553 4282136635
-0.13448198 0.1234671 0.36971051 4282267969
-0.13388649 0.1234671 0.36971051 4282794313
-0.13320087 0.12338361 0.36946052 4285888133
-0.13260578 0.12338361 0.36946052 4291151573
-0.13205534 0.12342536 0.36958551 4291417300
-0.13146004 0.12342536 0.36958551 4291877851
-0.13099752 0.12355058 0.36996049 4292075228
-0.13048974 0.12363406 0.37021044 4292075228
-0.12989342 0.12363406 0.37021044 4291943642
-0.12947175 0.12380102 0.3707104 4292009435
-0.12900497 0.12392624 0.37108535 4292140502
-0.12853703 0.12405146 0.37146032 4291745744
-0.12793872 0.12405146 0.37146032 4291810506
-0.12751177 0.12421841 0.37196025 4291613127
-0.12704059 0.12434364 0.37233523 4290496445
-0.1265682 0.12446886 0.37271017 4289706929
-0.12596788 0.12446886 0.37271017 4289114024
-0.12549368 0.12459408 0.37308514 4288456094
-0.12497643 0.12467756 0.37333512 4287993488
-0.1243751 0.12467756 0.37333512 4287335558
-0.12385662 0.12476104 0.37358508 4285955445
-0.12333737 0.12484451 0.37383506 4284639585
-0.1228173 0.124928 0.37408504 4282994762
-0.12221476 0.124928 0.37408504 4281876281
-0.12165285 0.12496974 0.37421003 4281809467
-0.12113096 0.12505321 0.37445998 4281612088
-0.12060828 0.1251367 0.37470996 4281742902
-0.12000473 0.1251367 0.37470996 4281677109
-0.119441 0.12517844 0.37483495 4281677109
-0.11887689 0.12522018 0.37495995 4281479730
-0.11827294 0.12522018 0.37495995 4281547067
-0.11774743 0.12530367 0.37520993 4282336583
-0.11722112 0.12538713 0.37545988 4283126108
-0.116694 0.12547062 0.37570986 4287928997
-0.1160116 0.12538713 0.37545988 4291022288
-0.11540685 0.12538713 0.37545988 4291153874
-0.11487852 0.12547062 0.37570986 4291416526
-0.11427337 0.12547062 0.37570986 4291416526
-0.11381946 0.12563758 0.3762098 4291218885
-0.11332633 0.12576281 0.37658477 4291350471
-0.11286941 0.12592976 0.3770847 4289835689
-0.11226203 0.12592976 0.3770847 4285427558
-0.11176569 0.12605499 0.37745968 4283585106
-0.11141536 0.12634715 0.37833458 4282927176
-0.1109524 0.12651412 0.37883452 4282270786
-0.11034221 0.12651412 0.37883452 4282270786
0.044648655 0.14654934 0.43882811 4281283891
0.04535548 0.14654934 0.43882811 4284111200
0.046088547 0.14663284 0.43907809 4288979882
0.046795771 0.14663284 0.43907809 4291745495
0.047516521 0.14667457 0.43920308 4291284944
0.048265114 0.14679979 0.43957803 4291416530
0.049014926 0.14692502 0.439953 4291416530
0.049723558 0.14692502 0.439953 4291284942
0.050460853 0.14700849 0.44020298 4290955977
0.051228005 0.14717545 0.44070292 4291021772
0.051996768 0.14734241 0.44120288 4291679702
0.052752212 0.14746763 0.44157782 4291548114
0.053463463 0.14746763 0.44157782 4292008665
0.054220717 0.14759286 0.44195279 4291877079
0.054979179 0.14771807 0.44232774 4291679700
0.055738851 0.14784329 0.44270271 4291416528
0.056451917 0.14784329 0.44270271 4291219149
0.057197262 0.14792678 0.44295269 4291746263
0.057943404 0.14801025 0.44320264 4291812056
0.058706902 0.14813547 0.44357762 4291549397
0.059421375 0.14813547 0.44357762 4291286225
0.060186684 0.14826068 0.44395256 4291483604
0.060936056 0.14834417 0.44420254 4291812569
0.061703574 0.1484694 0.44457752 4291746263
0.06241966 0.1484694 0.44457752 4291943642
0.063188992 0.14859462 0.44495246 4292009948
0.063959539 0.14871983 0.44532743 4292207327
0.064731278 0.14884505 0.44570237 4292273120
0.065485887 0.14892854 0.44595236 4292404706
0.06620419 0.14892854 0.44595236 4292404708
0.06697876 0.14905375 0.44632733 4292404708
0.067754529 0.14917897 0.44670227 4292601572
0.068550676 0.14934593 0.44720224 4292733158
0.069270983 0.14934593 0.44720224 4293062121
0.070030421 0.14942941 0.44745219 4292798949
0.070830189 0.14959638 0.44795215 4292535777
0.071611598 0.14972159 0.44832709 4292798949
0.072333723 0.14972159 0.44832709 4292996328
0.073116951 0.14984682 0.44870207 4293062121
0.073921949 0.15001377 0.449202 4292930539
0.074707791 0.15013899 0.44957697 4292930539
0.075494833 0.1502642 0.44995192 4293194224
0.076219581 0.1502642 0.44995192 4293325810
0.077029817 0.15043117 0.45045188 4293194738
0.077841662 0.15059814 0.45095181 4293457910
0.078655124 0.15076511 0.45145178 4293195254
0.079382271 0.15076511 0.45145178 4293392633
0.080175966 0.15089032 0.45182672 4293326842
0.080970868 0.15101553 0.45220169 4293129463
0.081766978 0.15114075 0.45257664 4293195256
0.08249595 0.15114075 0.45257664 4293129463
0.083316848 0.15130772 0.4530766 4293656059
0.084162548 0.15151642 0.45370153 4293656059
0.085010268 0.15172511 0.45432645 4293655287
0.086025111 0.152226 0.45582631 4293523701
0.086759314 0.152226 0.45582631 4293457645
0.087901354 0.15293558 0.45795107 4289575858
-0.15333447 0.12062341 0.35946161 4288651439
-0.15275548 0.12062341 0.35946161 4292402921
-0.1521765 0.12062341 0.35946161 4292534507
-0.1520192 0.12095894 0.3604615 4292469484
-0.15212123 0.12150418 0.36208633 4292535277
-0.15195648 0.12183971 0.36308622 4292733423
-0.15137166 0.12183971 0.36308622 4292733423
-0.15115018 0.1221333 0.36396113 4292600800
-0.15071905 0.12225912 0.36433607 4292403421
-0.15018371 0.12230106 0.36446106 4290624181
-0.14959668 0.12230106 0.36446106 4285952878
-0.14900963 0.12230106 0.36446106 4283451982
-0.1484226 0.12230106 0.36446106 4282859845
-0.14783555 0.12230106 0.36446106 4282399807
-0.14729901 0.122343 0.36458606 4282334014
-0.14676207 0.12238495 0.36471105 4282201915
-0.14617462 0.12238495 0.36471105 4281872950
-0.14563708 0.12242689 0.36483604 4281873461
-0.14509912 0.12246882 0.364961 4281807668
-0.14451127 0.12246882 0.364961 4281413931
-0.144022 0.12255271 0.36521098 4281545517
-0.14348283 0.12259465 0.36533597 4281611564
-0.14289439 0.12259465 0.36533597 4281611564
-0.14230594 0.12259465 0.36533597 4281348392
-0.14181446 0.12267854 0.36558595 4281545771
-0.1412739 0.12272048 0.36571094 4281545774
-0.14068484 0.12272048 0.36571094 4281611567
-0.14019154 0.12280436 0.3659609 4281479983
-0.13969745 0.12288824 0.36621088 4281545776
-0.13920254 0.12297212 0.36646086 4281348397
-0.13861229 0.12297212 0.36646086 4281348397
-0.13811615 0.123056 0.36671081 4281348140
-0.137713 0.12322377 0.36721078 4281545519
-0.13712153 0.12322377 0.36721078 4281544749
-0.13666946 0.12334959 0.36758572 4281742128
-0.13621619 0.12347542 0.36796069 4281741875
-0.13576174 0.12360125 0.36833566 4281741875
-0.13516845 0.12360125 0.36833566 4281676854
-0.13471216 0.12372707 0.36871061 4281874233
-0.1342092 0.12381095 0.36896059 4282267971
-0.13361491 0.12381095 0.36896059 4282728522
-0.13311075 0.12389483 0.36921054 4286810518
-0.13260578 0.12397871 0.36946052 4291547614
-0.13205534 0.12402066 0.36958551 4291483606
-0.13146004 0.12402066 0.36958551 4291878364
-0.13099752 0.12414648 0.36996049 4292075228
-0.13048974 0.12423036 0.37021044 4292075228
-0.12989342 0.12423036 0.37021044 4292009435
-0.12947175 0.12439813 0.3707104 4292075228
-0.12900497 0.12452395 0.37108535 4292337628
-0.12853703 0.12464978 0.37146032 4292337628
-0.12793872 0.12464978 0.37146032 4292139989
-0.12734039 0.12464978 0.37146032 4291679438
-0.12687001 0.1247756 0.37183526 4291351503
-0.12639843 0.12490143 0.37221023 4292009433
-0.12579891 0.12490143 0.37221023 4290825925
-0.12528348 0.12498531 0.37246022 4291220683
-0.12476721 0.12506919 0.37271017 4291680203
-0.12416689 0.12506919 0.37271017 4291680203
-0.12364943 0.12515308 0.37296015 4290759101
-0.12313119 0.12523696 0.37321013 4290101171
-0.12261213 0.12532085 0.37346011 4286810756
-0.12201059 0.12532085 0.37346011 4281876281
-0.12149031 0.12540472 0.37371007 4281941055
-0.12096924 0.12548861 0.37396005 4281809469
-0.12040713 0.12553056 0.37408504 4281808695
-0.11980459 0.12553056 0.37408504 4281742902
-0.11924187 0.12557249 0.37421003 4281677109
-0.11871838 0.12565637 0.37445998 4281611316
-0.11811524 0.12565637 0.37445998 4281875008
-0.11755131 0.12569831 0.37458497 4282401352
-0.11702601 0.12578219 0.37483495 4283848802
-0.1164999 0.12586609 0.37508494 4289375414
-0.11589575 0.12586609 0.37508494 4291088335
-0.11540685 0.1259919 0.37545988 4291285714
-0.11487852 0.12607579 0.37570986 4291483093
-0.11427337 0.12607579 0.37570986 4291154128
-0.11381946 0.12624355 0.3762098 4291087561
-0.11332633 0.12636937 0.37658477 4291284940
-0.11286941 0.12653713 0.3770847 4288453782
-0.11226203 0.12653713 0.3770847 4284571995
-0.11176569 0.12666297 0.37745968 4283716686
-0.11141536 0.12695655 0.37833458 4282927170
-0.1109524 0.12712431 0.37883452 4282336060
-0.11034221 0.12712431 0.37883452 4282270267
0.044572353 0.14700453 0.43807819 4281480500
0.045277972 0.14700453 0.43807819 4283848030
0.046022948 0.14713036 0.43845317 4288190368
0.046729166 0.14713036 0.43845317 4291942361
0.04746243 0.14721423 0.43870312 4291350224
0.048210222 0.14734006 0.43907809 4291416530
0.0489453 0.14742395 0.43932807 4291416530
0.04965293 0.14742395 0.43932807 4291745495
0.050403539 0.14754976 0.43970302 4289113775
0.051155362 0.1476756 0.44007799 4287400593
0.051908385 0.14780141 0.44045293 4287400593
0.052617826 0.14780141 0.44045293 4287729558
0.053387798 0.14796919 0.4409529 4288387488
0.054144047 0.14809501 0.44132784 4288915113
0.054885965 0.14817889 0.44157782 4289573043
0.05564443 0.14830472 0.44195279 4290296766
0.056356288 0.14830472 0.44195279 4290757317
0.057100423 0.14838859 0.44220275 4290824393
0.057861701 0.14851442 0.44257772 4291153358
0.058624193 0.14864025 0.44295269 4291483093
0.059337664 0.14864025 0.44295269 4291746265
0.060085017 0.14872412 0.44320264 4291878364
0.06085033 0.14884995 0.44357762 4291812571
0.061616834 0.14897577 0.44395256 4291549397
0.062331915 0.14897577 0.44395256 4291812569
0.063100249 0.1491016 0.44432753 4291944153
0.063869782 0.14922743 0.44470248 4292141532
0.064622365 0.1493113 0.44495246 4292404704
0.065394118 0.14943713 0.44532743 4292667876
0.066111416 0.14943713 0.44532743 4292338911
0.066884972 0.14956295 0.44570237 4292273118
0.067659743 0.14968878 0.44607735 4292404957
0.068435714 0.14981461 0.44645229 4292799715
0.069154821 0.14981461 0.44645229 4292799202
0.06993261 0.14994043 0.44682726 4292733409
0.070711613 0.15006626 0.44720224 4292733409
0.071511783 0.15023401 0.44770217 4292799202
0.072232895 0.15023401 0.44770217 4292930788
0.072994746 0.15031791 0.44795215 4293062374
0.073798537 0.15048566 0.44845209 4292996328
0.07458318 0.15061149 0.44882706 4293062121
0.075306103 0.15061149 0.44882706 4293062123
0.076113716 0.15077926 0.44932699 4293193709
0.076901577 0.15090509 0.44970196 4293128429
0.077712215 0.15107284 0.4502019 4293260015
0.07852447 0.15124062 0.45070186 4293195254
0.07925041 0.15124062 0.45070186 4293392633
0.080042891 0.15136644 0.45107681 4293326842
0.080858968 0.1515342 0.45157677 4293129463
0.081654072 0.15166003 0.45195171 4293326840
0.082382038 0.15166003 0.45195171 4293392633
0.08320193 0.1518278 0.45245168 4293327607
0.084046625 0.1520375 0.4530766 4293459193
0.084893331 0.15224721 0.45370153 4293590264
0.086025111 0.15296021 0.45582631 4293129713
0.086759314 0.15296021 0.45582631 4293917683
0.087901354 0.15367322 0.45795107 4290693826
-0.15333447 0.12120239 0.35946161 4290097856
-0.15275548 0.12120239 0.35946161 4292401638
-0.1521765 0.12120239 0.35946161 4292796396
-0.15186107 0.1214131 0.36008653 4292797166
-0.15128107 0.1214131 0.36008653 4292731373
-0.15070108 0.1214131 0.36008653 4292732140
-0.15085058 0.1220031 0.36183634 4292929519
-0.15083873 0.12246667 0.36321118 4292666846
-0.15051223 0.12267739 0.36383614 4293061604
-0.1500807 0.12280381 0.36421108 4289045921
-0.14949407 0.12280381 0.36421108 4284506204
-0.14890742 0.12280381 0.36421108 4283189323
-0.14832079 0.12280381 0.36421108 4282597186
-0.14773415 0.12280381 0.36421108 4282203198
-0.14714751 0.12280381 0.36421108 4282137405
-0.14656088 0.12280381 0.36421108 4282070329
-0.14597423 0.12280381 0.36421108 4281872950
-0.1454874 0.1228881 0.36446106 4281873461
-0.14495005 0.12293024 0.36458606 4281807668
-0.14436279 0.12293024 0.36458606 4281413933
-0.14387414 0.12301453 0.36483604 4281413933
-0.14338467 0.12309881 0.36508599 4281677103
-0.14289439 0.12318309 0.36533597 4281611310
-0.14230594 0.12318309 0.36533597 4281348392
-0.14181446 0.12326738 0.36558595 4281414185
-0.1412739 0.12330953 0.36571094 4281545776
-0.14068484 0.12330953 0.36571094 4281479983
-0.14019154 0.1233938 0.3659609 4281348914
-0.13969745 0.12347809 0.36621088 4281414707
-0.13920254 0.12356238 0.36646086 4281217581
-0.13851772 0.12347809 0.36621088 4281349167
-0.13792786 0.12347809 0.36621088 4281348397
-0.13747863 0.12360453 0.36658585 4281545776
-0.13688818 0.12360453 0.36658585 4281348397
-0.1364371 0.12373095 0.36696079 4281479983
-0.13598485 0.12385739 0.36733577 4281479730
-0.13553138 0.12398381 0.36771071 4281545523
-0.1349391 0.12398381 0.36771071 4281479732
-0.13448384 0.12411024 0.36808568 4281677111
-0.13398188 0.12419453 0.36833566 4281808190
-0.13338861 0.12419453 0.36833566 4283518808
-0.13288544 0.12427881 0.36858562 4287994790
-0.13238147 0.12436309 0.3688356 4292402921
-0.13183205 0.12440524 0.36896059 4291943644
-0.13123776 0.12440524 0.36896059 4292009437
-0.13077624 0.12453166 0.36933553 4292009948
-0.13031352 0.12465809 0.36971051 4292009948
-0.12971802 0.12465809 0.36971051 4292141534
-0.12925348 0.12478451 0.37008545 4292338913
-0.12878773 0.12491094 0.37046042 4292404193
-0.12836401 0.12507951 0.37096035 4292206814
-0.12776652 0.12507951 0.37096035 4292009435
-0.12734039 0.12524809 0.37146032 4292009435
-0.12687001 0.12537451 0.37183526 4291943642
-0.12639843 0.12550095 0.37221023 4291877849
-0.12579891 0.12550095 0.37221023 4291746774
-0.12528348 0.12558523 0.37246022 4291746774
-0.12476721 0.12566951 0.37271017 4291549648
-0.12416689 0.12566951 0.37271017 4291418062
-0.12356656 0.12566951 0.37271017 4291351754
-0.12296624 0.12566951 0.37271017 4291483340
-0.12244798 0.12575381 0.37296015 4287139468
-0.12184725 0.12575381 0.37296015 4282139200
-0.12132779 0.12583809 0.37321013 4282138434
-0.12080751 0.12592238 0.37346011 4281809469
-0.12024621 0.12596451 0.37358508 4281677879
-0.11964448 0.12596451 0.37358508 4281677879
-0.11908256 0.12600665 0.37371007 4281742902
-0.11852025 0.1260488 0.37383506 4281742902
-0.11791812 0.1260488 0.37383506 4282137412
-0.11739442 0.12613308 0.37408504 4282203205
-0.11686993 0.12621738 0.37433502 4285558648
-0.11634462 0.12630165 0.37458497 4290953674
-0.11574127 0.12630165 0.37458497 4291087563
-0.11525319 0.12642808 0.37495995 4291219149
-0.11472566 0.12651238 0.37520993 4291351507
-0.11412131 0.12651238 0.37520993 4291154128
-0.11363039 0.1266388 0.37558487 4291021768
-0.11313827 0.12676522 0.37595984 4291548112
-0.11271977 0.12697594 0.37658477 4287400324
-0.1121132 0.12697594 0.37658477 4284702811
-0.11161766 0.12710238 0.37695974 4283585100
-0.1111209 0.1272288 0.37733468 4282927170
0.043754101 0.14733085 0.43695331 4281546293
0.044457901 0.14733085 0.43695331 4281677879
0.045200463 0.14745729 0.43732828 4283387477
0.045904875 0.14745729 0.43732828 4287729815
0.046662562 0.14762585 0.43782821 4291744980
0.047394823 0.14771014 0.43807819 4291284429
0.048127882 0.14779443 0.43832818 4291284940
0.048875675 0.14792085 0.43870312 4291284940
0.049582295 0.14792085 0.43870312 4291810775
0.050331905 0.14804728 0.43907809 4288389539
0.051082719 0.14817372 0.43945307 4284701799
0.051834736 0.14830014 0.43982801 4283846490
0.052543171 0.14830014 0.43982801 4283122767
0.053297006 0.14842658 0.44020298 4283188560
0.054052044 0.148553 0.44057792 4283979107
0.054808293 0.14867944 0.4409529 4284702830
0.055518538 0.14867944 0.4409529 4285097840
0.056260664 0.14876372 0.44120288 4285624184
0.057019729 0.14889014 0.44157782 4286150783
0.057780001 0.14901657 0.44195279 4287137678
0.05852494 0.14910085 0.44220275 4287731357
0.059237201 0.14910085 0.44220275 4288323494
0.060000297 0.14922728 0.44257772 4289244344
0.0607646 0.14935371 0.44295269 4289968067
0.061530102 0.14948013 0.44332764 4290758348
0.062244173 0.14948013 0.44332764 4290758348
0.063011497 0.14960657 0.44370261 4291154126
0.063780025 0.14973299 0.44407755 4292075228
0.064531602 0.14981727 0.44432753 4292075479
0.06524729 0.14981727 0.44432753 4291943893
0.066018634 0.14994371 0.44470248 4292141785
0.066791192 0.15007013 0.44507745 4292141785
0.067659743 0.15040728 0.44607735 4291747027
0.068435714 0.15053371 0.44645229 4292536543
0.069154821 0.15053371 0.44645229 4293062374
0.06993261 0.15066013 0.44682726 4292601823
0.070711613 0.15078656 0.44720224 4292535777
0.071511783 0.15095513 0.44770217 4292601570
0.072232895 0.15095513 0.44770217 4292798949
0.072994746 0.15103942 0.44795215 4292930535
0.073798537 0.15120798 0.44845209 4292864744
0.07458318 0.15133442 0.44882706 4292930537
0.075306103 0.15133442 0.44882706 4292535781
0.076113716 0.15150298 0.44932699 4292798953
0.076901577 0.15162942 0.44970196 4292931050
0.077712215 0.15179798 0.4502019 4292733671
0.07852447 0.15196656 0.45070186 4292933367
0.07925041 0.15196656 0.45070186 4292933367
0.080042891 0.15209298 0.45107681 4292867574
0.080858968 0.15226156 0.45157677 4292867574
0.081654072 0.15238798 0.45195171 4292999158
0.082382038 0.15238798 0.45195171 4293130744
0.08320193 0.15255655 0.45245168 4293459193
0.084046625 0.15276727 0.4530766 4293524986
0.084893331 0.15297797 0.45370153 4293590264
0.085789233 0.15327299 0.45457643 4293327092
0.086521424 0.15327299 0.45457643 4293720051
0.087469526 0.15365227 0.45570132 4291417296
-0.15333447 0.12178139 0.35946161 4291413716
-0.15195878 0.12114622 0.3575868 4293058798
-0.1513828 0.12114622 0.3575868 4292861419
-0.15159751 0.12178139 0.35946161 4292731373
-0.15128107 0.1219931 0.36008653 4292665580
-0.15070108 0.1219931 0.36008653 4292732140
-0.15085058 0.12258592 0.36183634 4292863726
-0.15083873 0.1230517 0.36321118 4292929505
-0.15051223 0.12326343 0.36383614 4291679438
-0.1500807 0.12339045 0.36421108 4287730318
-0.14949407 0.12339045 0.36421108 4283124808
-0.14870302 0.12322108 0.36371115 4282861385
-0.1481172 0.12322108 0.36371115 4282269248
-0.14748067 0.12317874 0.36358616 4282137405
-0.14689504 0.12317874 0.36358616 4282071612
-0.1463597 0.12322108 0.36371115 4282070327
-0.14577386 0.12322108 0.36371115 4281938741
-0.14523792 0.12326343 0.36383614 4281873461
-0.14475128 0.12334811 0.36408609 4281807668
-0.14416483 0.12334811 0.36408609 4281611059
-0.14367698 0.1234328 0.36433607 4281611059
-0.14318831 0.12351749 0.36458606 4281742126
-0.14269885 0.12360218 0.36483604 4281742126
-0.14211121 0.12360218 0.36483604 4281282599
-0.14162052 0.12368686 0.36508599 4281545771
-0.14112905 0.12377156 0.36533597 4281545776
-0.14054058 0.12377156 0.36533597 4281479983
-0.14000003 0.1238139 0.36546096 4281217328
-0.13950674 0.12389859 0.36571094 4281414707
-0.13901262 0.12398327 0.3659609 4281348914
-0.13842317 0.12398327 0.3659609 4281348914
-0.13792786 0.12406796 0.36621088 4281217581
-0.13747863 0.12419499 0.36658585 4281414960
-0.13688818 0.12419499 0.36658585 4281479730
-0.1364371 0.12432203 0.36696079 4281479730
-0.13598485 0.12444906 0.36733577 4281348916
-0.13553138 0.12457608 0.36771071 4281414709
-0.1349391 0.12457608 0.36771071 4281348916
-0.13434684 0.12457608 0.36771071 4281546295
-0.13375455 0.12457608 0.36771071 4281808447
-0.13316229 0.12457608 0.36771071 4284637546
-0.13266014 0.12466078 0.36796069 4289639354
-0.13215718 0.12474547 0.36821067 4292007902
-0.13165341 0.12483015 0.36846063 4291943642
-0.13105993 0.12483015 0.36846063 4292075228
-0.13059922 0.12495719 0.3688356 4292141536
-0.13013729 0.12508421 0.36921054 4292141536
-0.1295426 0.12508421 0.36921054 4292076257
-0.12903522 0.1251689 0.36946052 4292076257
-0.12861393 0.12533829 0.36996049 4292076257
-0.12814778 0.1254653 0.37033543 4292010464
-0.12755127 0.1254653 0.37033543 4291878878
-0.12712616 0.1256347 0.37083539 4291878878
-0.12665679 0.12576172 0.37121034 4292009948
-0.12618621 0.12588875 0.37158531 4292141534
-0.1255877 0.12588875 0.37158531 4291878876
-0.12511531 0.12601578 0.37196025 4291878876
-0.12459986 0.12610047 0.37221023 4291878360
-0.12400034 0.12610047 0.37221023 4291680981
-0.12348369 0.12618516 0.37246022 4291679949
-0.12296624 0.12626985 0.37271017 4291745742
-0.12244798 0.12635453 0.37296015 4286874758
-0.12184725 0.12635453 0.37296015 4282269248
-0.12132779 0.12643923 0.37321013 4282466372
-0.12080751 0.12652391 0.37346011 4282005821
-0.12024621 0.12656625 0.37358508 4281742902
-0.11964448 0.12656625 0.37358508 4281808695
-0.11908256 0.1266086 0.37371007 4281742902
-0.11852025 0.12665094 0.37383506 4281808695
-0.11783927 0.12656625 0.37358508 4282334536
-0.11723752 0.12656625 0.37358508 4282137157
-0.11671384 0.12665094 0.37383506 4286808967
-0.11618934 0.12673563 0.37408504 4291809235
-0.11558679 0.12673563 0.37408504 4291350220
-0.1150611 0.12682033 0.37433502 4291481806
-0.11453457 0.12690501 0.37458497 4291483606
-0.11393123 0.12690501 0.37458497 4291088848
-0.11344133 0.12703204 0.37495995 4291087561
-0.11298782 0.12720141 0.37545988 4291482319
-0.11249531 0.12732846 0.37583485 4286742135
-0.11188994 0.12732846 0.37583485 4284110415
-0.11146963 0.12754017 0.37645978 4282992963
-0.11093687 0.12762485 0.37670976 4282795584
0.043754101 0.14803466 0.43695331 4281414707
0.044457901 0.14803466 0.43695331 4281612086
0.045200463 0.14816171 0.43732828 4282861385
0.045904875 0.14816171 0.43732828 4287401102
0.046662562 0.14833108 0.43782821 4291218634
0.047394823 0.14841577 0.43807819 4291284427
0.048127882 0.14850046 0.43832818 4291285193
0.048875675 0.14862749 0.43870312 4291285193
0.049582295 0.14862749 0.43870312 4291612624
0.050331905 0.14875452 0.43907809 4289309869
0.051082719 0.14888155 0.43945307 4284108892
