# .PCD v0.7 - Point Cloud Data file format
VERSION 0.7
FIELDS x y z rgba
SIZE 4 4 4 4
TYPE F F F U
COUNT 1 1 1 1
WIDTH 999
HEIGHT 1
VIEWPOINT 0 0 0 1 0 0 0
POINTS 999
DATA ascii
0.0050384579 -0.069777325 0.28009507 4290625208
0.0054969592 -0.06987074 0.28047004 4290625208
0.0059540155 -0.069933005 0.28072 4290625208
0.0064118784 -0.069995284 0.28096998 4290625208
0.0068644392 -0.069995284 0.28096998 4290625208
0.0073495489 -0.070306651 0.28221986 4290493622
0.0078386841 -0.070618011 0.28346971 4290493622
0.0083464766 -0.07105393 0.28521952 4290427829
0.0088058822 -0.07105393 0.28521952 4290362036
-0.062628217 -0.072450653 0.29271874 4290691003
-0.062156737 -0.072450653 0.29271874 4290953918
-0.052953478 -0.066789478 0.26984617 4291085502
-0.052518833 -0.066789478 0.26984617 4291085502
-0.052470177 -0.067284442 0.27184597 4291019709
-0.052438997 -0.067810342 0.27397072 4291019709
-0.052448429 -0.068398118 0.27634549 4291019966
-0.052262038 -0.068738408 0.27772033 4290954173
-0.051721435 -0.068614669 0.2772204 4291019966
-0.050997499 -0.068243437 0.27572054 4291085759
-0.05037006 -0.067995951 0.27472064 4291019966
-0.049700424 -0.067686602 0.27347079 4291019966
-0.049012285 -0.067346312 0.27209592 4291085759
-0.048574019 -0.067346312 0.27209592 4291151552
-0.048091531 -0.067284442 0.27184597 4291151552
-0.047631755 -0.067253508 0.27172098 4291151552
-0.047194097 -0.067253508 0.27172098 4291151295
-0.04684246 -0.067377247 0.27222091 4291348674
-0.046403989 -0.067377247 0.27222091 4291217088
-0.045944415 -0.067346312 0.27209592 4291217088
-0.045485247 -0.067315385 0.27197096 4291151295
-0.045047186 -0.067315385 0.27197096 4291217088
-0.044322111 -0.06688229 0.27022114 4291085502
-0.04372447 -0.066634804 0.26922125 4290953916
-0.04300946 -0.066201709 0.26747143 4291019709
-0.042578645 -0.066201709 0.26747143 4291217088
-0.041872092 -0.065768614 0.26572162 4291151297
-0.041307636 -0.065552063 0.26484671 4291217090
-0.040881041 -0.065552063 0.26484671 4291151295
-0.040454451 -0.065552063 0.26484671 4291217088
-0.040027864 -0.065552063 0.26484671 4291217088
-0.039732091 -0.065768614 0.26572162 4291217088
-0.039507452 -0.066108897 0.26709646 4291151295
-0.039150383 -0.066232644 0.26759642 4291217088
-0.038719364 -0.066232644 0.26759642 4291217088
-0.037912793 -0.065582998 0.2649717 4291217088
-0.03741527 -0.065459251 0.26447174 4291151295
-0.036779515 -0.065088034 0.26297191 4291085502
-0.036355942 -0.065088034 0.26297191 4291085502
-0.03593237 -0.065088034 0.26297191 4291085502
-0.03552568 -0.065118968 0.2630969 4291085502
-0.035101909 -0.065118968 0.2630969 4291085502
-0.034711085 -0.065180838 0.26334688 4291085502
-0.034400813 -0.065397382 0.26422176 4291151295
-0.034119878 -0.065675803 0.26534665 4291151295
-0.033787701 -0.065861411 0.26609656 4291085502
-0.033186741 -0.065521128 0.26472172 4291085502
-0.03259021 -0.065180838 0.26334688 4291085502
-0.031906508 -0.064654939 0.26122209 4291019709
-0.031380299 -0.064438388 0.26034719 4290953916
-0.030589366 -0.06366501 0.25722253 4291019709
-0.030145731 -0.063603133 0.25697255 4291019709
-0.029731823 -0.063603133 0.25697255 4291019709
-0.029317915 -0.063603133 0.25697255 4291019709
-0.029114882 -0.06406717 0.25884736 4291085502
-0.028822668 -0.064345583 0.25997221 4291085502
-0.028567798 -0.064716808 0.26147208 4291085502
-0.028294642 -0.065057099 0.26284692 4291085502
-0.027977297 -0.065304577 0.26384681 4291085502
-0.027708936 -0.065675803 0.26534665 4291019709
-0.027667057 -0.066603869 0.26909626 4290954173
-0.027246268 -0.066634804 0.26922125 4290954173
-0.026750391 -0.066480123 0.26859629 4290888380
-0.026146309 -0.066047028 0.26684648 4291085759
-0.025584003 -0.065706737 0.26547164 4291085759
-0.02499059 -0.065273643 0.26372182 4291019966
-0.024437744 -0.06493336 0.26234698 4291019966
-0.024015181 -0.06493336 0.26234698 4290954173
-0.023592616 -0.06493336 0.26234698 4291019709
-0.023192128 -0.064995222 0.26259694 4291019709
-0.022769161 -0.064995222 0.26259694 4291019711
-0.022399375 -0.065149903 0.26322189 4291019711
-0.022048444 -0.065366454 0.2640968 4291085504
-0.021776559 -0.065830477 0.26597157 4291085504
-0.021428414 -0.066077963 0.26697147 4290953918
-0.020939415 -0.065892354 0.26622155 4290953918
-0.020510612 -0.065892354 0.26622155 4291085504
-0.020006381 -0.065644868 0.26522166 4291085504
-0.019505372 -0.065397382 0.26422176 4291151297
-0.019079788 -0.065397382 0.26422176 4291151297
-0.018592436 -0.065180838 0.26334688 4291085504
-0.018133769 -0.065057099 0.26284692 4291085504
-0.017710399 -0.065057099 0.26284692 4291085504
-0.017287031 -0.065057099 0.26284692 4291019711
-0.016863661 -0.065057099 0.26284692 4290954173
-0.016448107 -0.065088034 0.26297191 4290954173
-0.016024537 -0.065088034 0.26297191 4290888380
-0.015600966 -0.065088034 0.26297191 4290954173
-0.015090832 -0.064716808 0.26147208 4291019966
-0.014669677 -0.064716808 0.26147208 4291019966
-0.014228089 -0.064624004 0.2610971 4290954173
-0.013794318 -0.064562127 0.26084712 4290954173
-0.013374169 -0.064562127 0.26084712 4290822587
-0.013040919 -0.064995222 0.26259694 4290822587
-0.012702032 -0.065428317 0.26434675 4290822587
-0.012299464 -0.065552063 0.26484671 4290822587
-0.011884078 -0.065613933 0.26509666 4290954173
-0.011467889 -0.065675803 0.26534665 4291085759
-0.011040494 -0.065675803 0.26534665 4290888380
-0.010623096 -0.065737672 0.26559663 4290954173
-0.010200095 -0.065768614 0.26572162 4290954173
-0.0098410416 -0.066232644 0.26759642 4291019966
-0.0095023206 -0.06688229 0.27022114 4290954173
-0.0090796547 -0.066975087 0.27059609 4290954173
-0.0086438032 -0.066975087 0.27059609 4290954173
-0.0082079517 -0.066975087 0.27059609 4290954173
-0.0077397912 -0.066696666 0.2694712 4291019709
-0.0072718668 -0.066387318 0.26822135 4290953916
-0.0068398407 -0.066387318 0.26822135 4291019709
-0.0063898992 -0.066201709 0.26747143 4291019709
-0.0059590801 -0.066201709 0.26747143 4290954173
-0.0055282619 -0.066201709 0.26747143 4290954173
-0.0050974437 -0.066201709 0.26747143 4290954173
-0.0046666251 -0.066201709 0.26747143 4290888380
-0.0042595589 -0.066572927 0.26897126 4290888380
-0.0038369927 -0.066758543 0.26972118 4290888380
-0.0034277784 -0.067253508 0.27172098 4290888380
-0.0030024936 -0.067531928 0.27284586 4290822587
-0.0025630188 -0.067531928 0.27284586 4290691771
-0.0021245163 -0.067562856 0.27297083 4290691771
-0.00168484 -0.067562856 0.27297083 4290757564
-0.0012451636 -0.067562856 0.27297083 4290691771
-0.00080622494 -0.067624733 0.27322081 4290691771
-0.00036614604 -0.067624733 0.27322081 4290691771
7.3966767e-05 -0.067655668 0.2733458 4290691771
0.00051424705 -0.067655668 0.2733458 4290691771
0.00095496379 -0.067686602 0.27347079 4290691771
0.0013973586 -0.067779407 0.27384573 4290691771
0.001845996 -0.068057828 0.27497062 4290757564
0.0022972166 -0.068305314 0.27597052 4290560185
0.0027516584 -0.068552792 0.27697042 4290560185
0.0032093213 -0.068800278 0.27797031 4290691771
0.0036685609 -0.069016829 0.27884522 4290625208
0.0041269273 -0.069171503 0.27947015 4290691001
0.0045770719 -0.069171503 0.27947015 4290625208
0.0050384579 -0.069326177 0.28009507 4290427829
0.0054969592 -0.069418989 0.28047004 4290625208
0.0059540155 -0.069480851 0.28072 4290493622
0.0064118784 -0.069542721 0.28096998 4290559415
0.0068644392 -0.069542721 0.28096998 4290559415
0.0073495489 -0.069852084 0.28221986 4290625208
0.0078386841 -0.070161432 0.28346971 4290493622
0.0083464766 -0.070594527 0.28521952 4290493622
0.0088058822 -0.070594527 0.28521952 4290427829
-0.061159831 -0.069766313 0.28371969 4290888382
-0.060702842 -0.069766313 0.28371969 4290888382
-0.060564332 -0.070135117 0.28521952 4290822589
-0.060104925 -0.070135117 0.28521952 4290822589
-0.059645519 -0.070135117 0.28521952 4290888382
-0.059186112 -0.070135117 0.28521952 4290888382
-0.053448819 -0.065893821 0.26797137 4290953916
-0.052918285 -0.065770887 0.26747143 4291085502
-0.052487466 -0.065770887 0.26747143 4291019709
-0.052056648 -0.065770887 0.26747143 4291085502
-0.051867068 -0.066078223 0.26872128 4291085759
-0.052415073 -0.067338318 0.27384573 4291085759
-0.052377261 -0.067860804 0.27597052 4291019966
-0.052050352 -0.068014473 0.27659544 4291085759
-0.051674798 -0.068106674 0.27697042 4291151552
-0.05067385 -0.067369059 0.27397072 4291283138
-0.050232563 -0.067369059 0.27397072 4291283138
-0.049427845 -0.066877313 0.27197096 4291151552
-0.048989777 -0.066877313 0.27197096 4291151552
-0.048261646 -0.066477768 0.27034611 4291283138
-0.047826197 -0.066477768 0.27034611 4291217088
-0.047434568 -0.066539235 0.27059609 4291348674
-0.047107261 -0.066692904 0.27122101 4291085502
-0.046756431 -0.066815846 0.27172098 4291217088
-0.046318769 -0.066815846 0.27172098 4291085502
-0.045881104 -0.066815846 0.27172098 4291151295
-0.045276213 -0.066569969 0.27072108 4291348674
-0.044840164 -0.066569969 0.27072108 4291217088
-0.043912098 -0.065832354 0.26772138 4291085502
-0.043480877 -0.065832354 0.26772138 4291151295
-0.042667795 -0.065248407 0.26534665 4291085502
-0.042240404 -0.065248407 0.26534665 4291151295
-0.041596361 -0.064910337 0.26397181 4291151297
-0.041151684 -0.064879596 0.26384681 4291217090
-0.040726703 -0.064879596 0.26384681 4291151297
-0.040301722 -0.064879596 0.26384681 4291151297
-0.040008973 -0.065094739 0.26472172 4291217088
-0.039638646 -0.065186933 0.26509666 4291348674
-0.039304093 -0.065340608 0.26572162 4291217088
-0.039132096 -0.065770887 0.26747143 4291151295
-0.03837575 -0.065217674 0.26522166 4291348674
-0.037626658 -0.064664461 0.26297191 4291151295
-0.037203085 -0.064664461 0.26297191 4291151295
-0.036639668 -0.064418584 0.26197201 4291085502
-0.036217708 -0.064418584 0.26197201 4291085502
-0.035812825 -0.064449325 0.262097 4291151295
-0.035390664 -0.064449325 0.262097 4291151295
-0.034985177 -0.064480059 0.26222199 4291151295
-0.034595765 -0.064541526 0.26247197 4291019709
-0.034254361 -0.064695194 0.2630969 4291085502
-0.033943094 -0.064910337 0.26397181 4291151295
-0.03366074 -0.065186933 0.26509666 4291019709
-0.032951705 -0.064633727 0.26284692 4291019709
-0.032528337 -0.064633727 0.26284692 4291019709
-0.031753842 -0.063926838 0.25997221 4291085502
-0.031335101 -0.063926838 0.25997221 4290953916
-0.030515047 -0.063097022 0.25659758 4291085502
-0.030101743 -0.063097022 0.25659758 4291151295
-0.029731823 -0.063189223 0.25697255 4291019709
-0.029317915 -0.063189223 0.25697255 4291085502
-0.029016474 -0.0634351 0.25797245 4291085502
-0.028697956 -0.063650236 0.25884736 4291085502
-0.028431239 -0.063988313 0.2602222 4291019709
-0.02810628 -0.064203449 0.2610971 4291019709
-0.027858017 -0.064602993 0.26272193 4290954170
-0.027669782 -0.065156206 0.2649717 4291085756
-0.027628504 -0.066078223 0.26872128 4291085756
-0.027195672 -0.066078223 0.26872128 4291151549
-0.026613466 -0.06570942 0.26722145 4291020220
-0.02618305 -0.06570942 0.26722145 4291020220
-0.02541537 -0.064848863 0.26372182 4291019966
-0.02499059 -0.064848863 0.26372182 4291085759
-0.024437744 -0.064510792 0.26234698 4291151295
-0.024015181 -0.064510792 0.26234698 4290953916
-0.023592616 -0.064510792 0.26234698 4291085502
-0.023192128 -0.064572252 0.26259694 4291085502
-0.022769161 -0.064572252 0.26259694 4291019711
-0.022399375 -0.064725928 0.26322189 4291085504
-0.022048444 -0.064941071 0.2640968 4291019711
-0.021776559 -0.065402076 0.26597157 4291085504
-0.021448478 -0.06570942 0.26722145 4291085504
-0.020939415 -0.065463543 0.26622155 4291019711
-0.020510612 -0.065463543 0.26622155 4291151297
-0.020006381 -0.065217674 0.26522166 4291151297
-0.019505372 -0.064971797 0.26422176 4291151297
-0.019079788 -0.064971797 0.26422176 4291085504
-0.018592436 -0.064756669 0.26334688 4291019711
-0.018133769 -0.064633727 0.26284692 4291085504
-0.017710399 -0.064633727 0.26284692 4291151297
-0.017287031 -0.064633727 0.26284692 4291085504
-0.016863661 -0.064633727 0.26284692 4290954175
-0.016448107 -0.064664461 0.26297191 4290888382
-0.016024537 -0.064664461 0.26297191 4290888380
-0.015600966 -0.064664461 0.26297191 4290888380
-0.015090832 -0.064295657 0.26147208 4290954173
-0.014669677 -0.064295657 0.26147208 4290954173
-0.014228089 -0.064203449 0.2610971 4290954173
-0.013794318 -0.064141981 0.26084712 4290888380
-0.013374169 -0.064141981 0.26084712 4290954173
-0.013040919 -0.064572252 0.26259694 4290954173
-0.012702032 -0.065002531 0.26434675 4290888380
-0.012299464 -0.065125473 0.26484671 4290888380
-0.011884078 -0.065186933 0.26509666 4290822587
-0.011467889 -0.065248407 0.26534665 4290954173
-0.011040494 -0.065248407 0.26534665 4291019709
-0.010623096 -0.065309875 0.26559663 4290953916
-0.010200095 -0.065340608 0.26572162 4291085502
-0.0098410416 -0.06580162 0.26759642 4291085502
-0.0095023206 -0.066447042 0.27022114 4291085759
-0.0090796547 -0.066539235 0.27059609 4291019966
-0.0086438032 -0.066539235 0.27059609 4291019966
-0.0082079517 -0.066539235 0.27059609 4290954173
-0.0077397912 -0.066262625 0.2694712 4290888123
-0.0072718668 -0.065955289 0.26822135 4291019709
-0.0068398407 -0.065955289 0.26822135 4291019709
-0.0063898992 -0.065770887 0.26747143 4290953916
-0.0059590801 -0.065770887 0.26747143 4291019709
-0.0055282619 -0.065770887 0.26747143 4291019709
-0.0050974437 -0.065770887 0.26747143 4290888380
-0.0046666251 -0.065770887 0.26747143 4291019966
-0.0042595589 -0.066139698 0.26897126 4290954173
-0.0038369927 -0.0663241 0.26972118 4290888380
-0.0034277784 -0.066815846 0.27172098 4290822587
-0.0030024936 -0.067092456 0.27284586 4290888380
-0.0025630188 -0.067092456 0.27284586 4290888380
-0.0021245163 -0.067123182 0.27297083 4290822587
-0.00168484 -0.067123182 0.27297083 4290822587
-0.0012434532 -0.067030981 0.27259588 4290822587
-0.00080438092 -0.067030981 0.27259588 4290888380
-0.00036530854 -0.067030981 0.27259588 4290888380
7.3797666e-05 -0.067061722 0.27272087 4290625208
0.00051307137 -0.067061722 0.27272087 4290691001
0.00095278153 -0.067092456 0.27284586 4290888380
0.0013941699 -0.067184649 0.27322081 4290888380
0.0018376053 -0.067307591 0.27372077 4290691001
0.0022868125 -0.067553461 0.27472064 4290559415
0.002740483 -0.067830071 0.27584553 4290691001
0.0031963338 -0.06807594 0.27684543 4290888380
0.003642251 -0.06807594 0.27684543 4290625208
0.0041010878 -0.068291083 0.27772033 4290691001
0.0045647901 -0.068536952 0.27872023 4290691001
0.00502272 -0.068659887 0.27922016 4290691001
0.0054773618 -0.068721354 0.27947015 4290625208
0.0059328089 -0.068782829 0.27972013 4290625208
0.0063890601 -0.068844289 0.27997008 4290625208
0.0068400106 -0.068844289 0.27997008 4290559415
0.0072974702 -0.068905763 0.28022006 4290625208
0.0077557354 -0.068967231 0.28047004 4290625208
0.0082148053 -0.06902869 0.28072 4290559415
0.0086785406 -0.069120899 0.28109497 4290362036
0.0091313021 -0.069120899 0.28109497 4290493622
0.0095968489 -0.0692131 0.28146994 4290493622
0.010081454 -0.069428243 0.28234485 4289968050
0.010573542 -0.069674112 0.28334472 4290033843
0.011054256 -0.06982778 0.28396967 4290099636
-0.062999092 -0.069828384 0.28584448 4290691003
-0.062538683 -0.069828384 0.28584448 4290691003
-0.061535388 -0.069217719 0.28334472 4290822589
-0.060944289 -0.069065057 0.28271979 4290822589
-0.060488909 -0.069065057 0.28271979 4290954175
-0.060086615 -0.069126129 0.28296977 4290954175
-0.059630834 -0.069126129 0.28296977 4290888382
-0.059227325 -0.069187194 0.28321975 4290954175
-0.058070861 -0.068362802 0.27984509 4290888382
-0.057620112 -0.068362802 0.27984509 4290954945
-0.056224633 -0.067233101 0.2752206 4290889152
-0.055781331 -0.067233101 0.2752206 4290757566
-0.053398956 -0.065401129 0.26772138 4290823357
-0.052918285 -0.065340072 0.26747143 4290954943
-0.052487466 -0.065340072 0.26747143 4291151552
-0.052056648 -0.065340072 0.26747143 4291019966
-0.0516982 -0.065431662 0.26784638 4291019966
-0.051840927 -0.066164449 0.27084607 4290954173
-0.052329816 -0.067355223 0.27572054 4291085759
-0.052050352 -0.067568958 0.27659544 4291085759
-0.051231738 -0.067080438 0.27459568 4291283138
-0.05067385 -0.066927768 0.27397072 4291151552
-0.049820073 -0.066378184 0.27172098 4291348674
-0.049382411 -0.066378184 0.27172098 4291414467
-0.048269335 -0.065462194 0.26797137 4291151295
-0.047837712 -0.065462194 0.26797137 4291085502
-0.047450311 -0.065523267 0.26822135 4291085502
-0.047171652 -0.065736994 0.26909626 4291217088
-0.046738219 -0.065736994 0.26909626 4291085502
-0.046498347 -0.066011794 0.27022114 4291151295
-0.046233542 -0.066256046 0.27122101 4291151295
-0.045775585 -0.066225521 0.27109605 4291019709
-0.045276213 -0.066133916 0.27072108 4291151295
-0.044488233 -0.065614857 0.26859629 4290953916
-0.043912098 -0.065401129 0.26772138 4291217088
-0.043034296 -0.064729415 0.2649717 4291151295
-0.042607505 -0.064729415 0.2649717 4291151295
-0.041822575 -0.064179823 0.26272193 4291217088
-0.041399404 -0.064179823 0.26272193 4291151297
-0.040976238 -0.064179823 0.26272193 4291151297
-0.040553067 -0.064179823 0.26272193 4291151297
-0.040129896 -0.064179823 0.26272193 4291217090
-0.039895635 -0.064485155 0.26397181 4291217088
-0.039545204 -0.064607278 0.26447174 4291151295
-0.039193168 -0.064729415 0.2649717 4291217088
-0.038857806 -0.064882077 0.26559663 4291151295
-0.038032141 -0.064210355 0.26284692 4291085502
-0.037608773 -0.064210355 0.26284692 4291019709
-0.037185404 -0.064210355 0.26284692 4291151295
-0.036639668 -0.063996628 0.26197201 4291151295
-0.036217708 -0.063996628 0.26197201 4291151295
-0.035812825 -0.06402716 0.262097 4291151295
-0.035390664 -0.06402716 0.262097 4291151295
-0.034985177 -0.064057693 0.26222199 4291151295
-0.034595765 -0.064118758 0.26247197 4291348674
-0.034254361 -0.06427142 0.2630969 4291085502
-0.033943094 -0.064485155 0.26397181 4291151295
-0.03366074 -0.06475994 0.26509666 4291019709
-0.032951705 -0.064210355 0.26284692 4291151295
-0.032528337 -0.064210355 0.26284692 4291085502
-0.031753842 -0.063508101 0.25997221 4291085502
-0.031335101 -0.063508101 0.25997221 4291085502
-0.030515047 -0.062683716 0.25659758 4291085502
-0.030101743 -0.062683716 0.25659758 4291151295
-0.029775204 -0.062866911 0.25734749 4291151295
-0.029360693 -0.062866911 0.25734749 4291019709
-0.029016474 -0.063019581 0.25797245 4291019709
-0.028697956 -0.063233308 0.25884736 4291019709
-0.028431239 -0.063569166 0.2602222 4291151549
-0.02810628 -0.063782893 0.2610971 4291085756
-0.027858017 -0.064179823 0.26272193 4291085756
-0.027669782 -0.064729415 0.2649717 4291085756
-0.027628504 -0.065645389 0.26872128 4291085756
-0.027195672 -0.065645389 0.26872128 4291151549
-0.026613466 -0.065279 0.26722145 4291085756
-0.02618305 -0.065279 0.26722145 4291085756
-0.02541537 -0.064424083 0.26372182 4291085756
-0.02499059 -0.064424083 0.26372182 4291348928
-0.024402816 -0.063996628 0.26197201 4291085502
-0.023946533 -0.06390503 0.26159707 4291085502
-0.023525177 -0.06390503 0.26159707 4291282111
-0.02310382 -0.06390503 0.26159707 4291150525
-0.022704136 -0.063966095 0.26184702 4291151295
-0.022324923 -0.064088225 0.26234698 4291217088
-0.021975402 -0.064301953 0.26322189 4291217088
-0.021612827 -0.064485155 0.26397181 4291151295
-0.021328093 -0.06491261 0.26572162 4291019711
-0.020900093 -0.06491261 0.26572162 4291019711
-0.020404689 -0.064698882 0.26484671 4291085504
-0.019912101 -0.064485155 0.26397181 4291085504
-0.019486921 -0.064485155 0.26397181 4291151297
-0.019025635 -0.064363018 0.26347184 4291151297
-0.018539488 -0.06414929 0.26259694 4291085504
-0.01809928 -0.064088225 0.26234698 4291085504
-0.017676715 -0.064088225 0.26234698 4290953918
-0.017254151 -0.064088225 0.26234698 4290953918
-0.016839605 -0.064118758 0.26247197 4291019711
-0.016440289 -0.064210355 0.26284692 4290953918
-0.016024537 -0.064240888 0.26297191 4290888382
-0.015526817 -0.063935556 0.26172203 4290888382
-0.015090832 -0.063874498 0.26147208 4290954173
-0.014550468 -0.063355438 0.25934729 4290954173
-0.014119113 -0.063294373 0.25909731 4291019966
-0.013701783 -0.063294373 0.25909731 4291019966
-0.013342128 -0.063569166 0.2602222 4290954173
-0.012960228 -0.063752361 0.26097211 4291019966
-0.012539878 -0.063752361 0.26097211 4290954173
-0.012177573 -0.064057693 0.26222199 4290954173
-0.011800034 -0.064301953 0.26322189 4290954173
-0.011408471 -0.064485155 0.26397181 4290954173
-0.01100409 -0.064607278 0.26447174 4291085502
-0.010608098 -0.064790472 0.26522166 4291085502
-0.0101905 -0.064851545 0.26547164 4291085502
-0.0098318486 -0.065309532 0.26734644 4291085502
-0.0094935298 -0.065950722 0.26997116 4291085502
-0.0090712663 -0.066042319 0.27034611 4291085502
-0.0086438032 -0.066103384 0.27059609 4291085502
-0.0081624575 -0.065736994 0.26909626 4291085502
-0.0076787635 -0.065309532 0.26734644 4291019709
-0.0072481469 -0.065309532 0.26734644 4291019709
-0.0067888442 -0.06503474 0.26622155 4290953916
-0.0063510821 -0.064943142 0.26584661 4291019709
-0.0059228805 -0.064943142 0.26584661 4291019709
-0.0054946793 -0.064943142 0.26584661 4291019709
-0.0050664782 -0.064943142 0.26584661 4291019709
-0.0046404568 -0.064973667 0.26597157 4291151295
-0.0042417445 -0.065431662 0.26784638 4291085502
-0.0038227683 -0.065645389 0.26872128 4291019709
-0.0034262016 -0.066347644 0.27159598 4290888123
-0.0030024936 -0.066652976 0.27284586 4290953916
-0.0025618447 -0.066622443 0.27272087 4290888380
-0.002122571 -0.066622443 0.27272087 4290888380
-0.0016825257 -0.066591911 0.27259588 4290691001
-0.0012411727 -0.066469774 0.27209592 4290691001
-0.00080290559 -0.066469774 0.27209592 4290822587
-0.00036463854 -0.066469774 0.27209592 4290888380
7.3628551e-05 -0.066469774 0.27209592 4290822587
0.00051189563 -0.066469774 0.27209592 4290822587
0.00095059915 -0.066500306 0.27222091 4290362036
0.0013903432 -0.066561379 0.27247089 4290691001
0.0018325705 -0.066683501 0.27297083 4290822587
0.0022722469 -0.066683501 0.27297083 4290691001
0.0027193739 -0.066866711 0.27372077 4290822587
0.003171802 -0.067110963 0.27472064 4290691001
0.0036274516 -0.067355223 0.27572054 4290691001
0.0040863226 -0.06759949 0.27672043 4290691001
0.004542273 -0.067752153 0.27734536 4290691001
0.0049957405 -0.06784375 0.27772033 4290691001
0.0054479665 -0.067904823 0.27797031 4290625208
0.0058956956 -0.067904823 0.27797031 4290625208
0.0063491282 -0.06796588 0.27822027 4290691001
0.0068064216 -0.068057485 0.27859524 4290625208
0.0072616669 -0.06811855 0.27884522 4290690744
0.0077246292 -0.06824068 0.27934515 4290624951
0.0081892032 -0.068362802 0.27984509 4290559415
0.0086399512 -0.068362802 0.27984509 4290559415
0.0091191214 -0.068576537 0.28072 4290493622
0.0095883254 -0.068698667 0.28121996 4290493622
0.010063603 -0.068851329 0.28184488 4290427829
0.010545557 -0.069034524 0.2825948 4290230450
0.011025063 -0.069187194 0.28321975 4290427829
0.01149138 -0.069248259 0.28346971 4290230450
0.011947967 -0.069248259 0.28346971 4290362290
-0.063237518 -0.069125317 0.28484458 4290822589
-0.062778719 -0.069125317 0.28484458 4290822589
-0.062347267 -0.069155648 0.28496957 4290822589
-0.061481103 -0.068700679 0.28309476 4290822589
-0.060674865 -0.068306372 0.28146994 4290888380
-0.060221497 -0.068306372 0.28146994 4290691001
-0.059290413 -0.0677604 0.27922016 4290888382
-0.05884067 -0.0677604 0.27922016 4290822589
-0.058207963 -0.067548081 0.27834526 4290822589
-0.057266846 -0.066971786 0.27597052 4290954175
-0.056822337 -0.066971786 0.27597052 4291151554
-0.056224633 -0.066789798 0.2752206 4291019968
-0.055097364 -0.065970853 0.27184597 4290889150
-0.054659501 -0.065970853 0.27184597 4290757564
-0.053374033 -0.064939581 0.26759642 4290823357
-0.052943014 -0.064939581 0.26759642 4290889150
-0.052536517 -0.064969905 0.26772138 4291019966
-0.052080974 -0.064939581 0.26759642 4290954173
-0.051649954 -0.064939581 0.26759642 4291085759
-0.051769156 -0.065637201 0.2704711 4291085759
-0.051997714 -0.066486478 0.27397072 4291151295
-0.051556427 -0.066486478 0.27397072 4291217088
-0.050835315 -0.066122502 0.27247089 4291085502
-0.050396442 -0.066122502 0.27247089 4291217088
-0.049201332 -0.065121569 0.26834634 4291479490
-0.048769109 -0.065121569 0.26834634 4291545283
-0.048269335 -0.065030575 0.26797137 4291347904
-0.047837712 -0.065030575 0.26797137 4291347904
-0.047450311 -0.065091237 0.26822135 4290953916
-0.047171652 -0.065303557 0.26909626 4291151295
-0.046738219 -0.065303557 0.26909626 4291151295
-0.046498347 -0.065576538 0.27022114 4291151295
-0.046233542 -0.065819189 0.27122101 4291217088
-0.045775585 -0.065788865 0.27109605 4291085502
-0.045338925 -0.065788865 0.27109605 4291217088
-0.044488233 -0.065182224 0.26859629 4291217088
-0.0440556 -0.065182224 0.26859629 4291348674
-0.043034296 -0.064302623 0.2649717 4291085502
-0.042607505 -0.064302623 0.2649717 4291217088
-0.041822575 -0.063756652 0.26272193 4291151295
-0.041399404 -0.063756652 0.26272193 4291151295
-0.040976238 -0.063756652 0.26272193 4291217088
-0.040553067 -0.063756652 0.26272193 4291151297
-0.040129896 -0.063756652 0.26272193 4291217090
-0.039895635 -0.064059973 0.26397181 4291217090
-0.039545204 -0.064181291 0.26447174 4291217090
-0.039193168 -0.064302623 0.2649717 4291217088
-0.038857806 -0.06445428 0.26559663 4291348674
-0.038032141 -0.063786983 0.26284692 4291348674
-0.037608773 -0.063786983 0.26284692 4291348674
-0.037061628 -0.063574664 0.26197201 4291217088
-0.036517303 -0.063362345 0.2610971 4291151295
-0.036096752 -0.063362345 0.2610971 4291217088
-0.0356762 -0.063362345 0.2610971 4291151295
-0.035272527 -0.063392676 0.26122209 4291217088
-0.034918476 -0.063514002 0.26172203 4291217088
-0.034529865 -0.063574664 0.26197201 4291348674
-0.034140453 -0.063635327 0.26222199 4291151295
-0.033718091 -0.063635327 0.26222199 4291019709
-0.033295728 -0.063635327 0.26222199 4291085502
-0.032904703 -0.063695997 0.26247197 4291217088
-0.032203518 -0.063150026 0.2602222 4291151295
-0.031753842 -0.063089356 0.25997221 4291151295
-0.030898221 -0.062209755 0.25634763 4291085502
-0.030470457 -0.06217942 0.25622264 4291019709
-0.030057756 -0.06217942 0.25622264 4291019709
-0.029630596 -0.062149089 0.25609764 4291151297
-0.029218096 -0.062149089 0.25609764 4291151297
-0.028960239 -0.062482733 0.25747249 4290953916
-0.028628668 -0.062664717 0.2582224 4291019709
-0.028349305 -0.062968038 0.25947228 4291085502
-0.028012099 -0.063150026 0.2602222 4291085502
-0.027778499 -0.063574664 0.26197201 4291085756
-0.027643677 -0.064241953 0.26472172 4291085756
-0.027448596 -0.064787917 0.26697147 4291085756
-0.027132425 -0.065060906 0.26809636 4291151549
-0.026613466 -0.064848587 0.26722145 4291085756
-0.025987105 -0.064363278 0.26522166 4291019963
-0.02541537 -0.063999303 0.26372182 4291085756
-0.024824776 -0.063574664 0.26197201 4291019963
-0.024286391 -0.063271351 0.26072216 4291019709
-0.023866445 -0.063271351 0.26072216 4291085502
-0.023446497 -0.063271351 0.26072216 4291150525
-0.023081742 -0.063423008 0.26134709 4291216318
-0.022671625 -0.063453339 0.26147208 4291150525
-0.02230365 -0.063604996 0.262097 4291084732
-0.021912793 -0.063695997 0.26247197 4291019709
-0.021571891 -0.06393864 0.26347184 4290953916
-0.021167582 -0.063999303 0.26372182 4290888123
-0.020742802 -0.063999303 0.26372182 4290953916
-0.020318024 -0.063999303 0.26372182 4291019709
-0.019846104 -0.063847646 0.2630969 4291019709
-0.019422334 -0.063847646 0.2630969 4291085502
-0.018935382 -0.063635327 0.26222199 4291151295
-0.018513018 -0.063635327 0.26222199 4291085502
-0.017995805 -0.063301682 0.26084712 4291019709
-0.017575655 -0.063301682 0.26084712 4290953916
-0.017163727 -0.063332014 0.26097211 4291019709
-0.016775453 -0.063453339 0.26147208 4291085502
-0.016409021 -0.063665658 0.26234698 4291085502
-0.015933143 -0.063453339 0.26147208 4291217088
-0.015511989 -0.063453339 0.26147208 4291151295
-0.015098047 -0.063483678 0.26159707 4290888380
-0.014550468 -0.062937707 0.25934729 4290954173
-0.014119113 -0.062877037 0.25909731 4290888380
-0.013701783 -0.062877037 0.25909731 4290888380
-0.013290862 -0.062907375 0.2592223 4290954173
-0.01287333 -0.062907375 0.2592223 4290888380
-0.012527868 -0.063271351 0.26072216 4291019709
-0.012119528 -0.063332014 0.26097211 4291019709
-0.011760812 -0.063665658 0.26234698 4291217088
-0.011365256 -0.063817315 0.26297191 4291151295
-0.010972888 -0.063999303 0.26372182 4291085502
-0.010583103 -0.064211622 0.26459673 4291085502
-0.010176105 -0.064332947 0.26509666 4291085502
-0.0098226555 -0.064818256 0.26709646 4291019709
-0.009484739 -0.065455213 0.26972118 4290953916
-0.0090335226 -0.065333888 0.26922125 4291151295
-0.0085998857 -0.065333888 0.26922125 4291085502
-0.00810559 -0.064848587 0.26722145 4291217088
-0.0076751737 -0.064848587 0.26722145 4291151295
-0.0071973181 -0.064423941 0.26547164 4291085502
-0.0067537851 -0.064272292 0.26484671 4291151295
-0.0063271942 -0.064272292 0.26484671 4290953916
-0.0058978186 -0.064241953 0.26472172 4291085502
-0.0054714293 -0.064241953 0.26472172 4291085502
-0.0050474219 -0.064272292 0.26484671 4291085502
-0.004631734 -0.064423941 0.26547164 4291019709
-0.0042120544 -0.064545266 0.26597157 4291019709
-0.0038192126 -0.0651519 0.26847133 4291019709
-0.0034246247 -0.065879852 0.27147099 4291019709
-0.0030038687 -0.066243827 0.27297083 4291085502
-0.0025594966 -0.066122502 0.27247089 4290888380
-0.0021206252 -0.066122502 0.27247089 4290954173
-0.0016794399 -0.066031508 0.27209592 4290822587
-0.0012383221 -0.065879852 0.27147099 4290822587
-0.00080106157 -0.065879852 0.27147099 4290888380
-0.00036380108 -0.065879852 0.27147099 4290888380
7.3459451e-05 -0.065879852 0.27147099 4290888380
0.00051071995 -0.065879852 0.27147099 4290691001
0.00094798044 -0.065879852 0.27147099 4290888380
0.0013865166 -0.065940514 0.27172098 4290822587
0.001827536 -0.066061839 0.27222091 4290822587
0.0022660044 -0.066061839 0.27222091 4290888380
0.00270944 -0.066183172 0.27272087 4290822587
0.0031588147 -0.066395491 0.27359578 4290822587
0.0036126527 -0.066638142 0.27459568 4290954173
0.0040660203 -0.06682013 0.27534559 4290888380
0.0045197564 -0.066971786 0.27597052 4290691001
0.0049710092 -0.06706278 0.27634549 4290691001
0.0054161213 -0.06706278 0.27634549 4290625208
0.0058691856 -0.067153774 0.27672043 4290625208
0.006320606 -0.067214437 0.27697042 4290625462
0.0067728325 -0.067275099 0.2772204 4290625462
0.0072291177 -0.067366093 0.27759534 4290625462
0.0076762424 -0.067366093 0.27759534 4290559669
0.0081343409 -0.067457087 0.27797031 4290625462
0.0086052222 -0.067639075 0.27872023 4290559669
0.0090825809 -0.067851394 0.27959514 4290559669
0.0095627569 -0.068063721 0.28047004 4290493876
0.010050215 -0.068306372 0.28146994 4290428083
0.010531566 -0.068488359 0.28221986 4290428083
0.011010466 -0.068640016 0.28284478 4290559669
0.011466047 -0.068640016 0.28284478 4290428083
0.011926895 -0.068670347 0.28296977 4290428083
0.012393616 -0.06873101 0.28321975 4290099118
-0.062550403 -0.067431182 0.27972013 4290822589
-0.062099859 -0.067431182 0.27972013 4290888382
-0.061649308 -0.067431182 0.27972013 4290691003
-0.061554253 -0.067822874 0.28134495 4290888382
-0.061073944 -0.067792743 0.28121996 4291019968
-0.060620978 -0.067792743 0.28121996 4291085759
-0.060221497 -0.067853004 0.28146994 4290888380
-0.059290413 -0.067310654 0.27922016 4290888380
-0.05884067 -0.067310654 0.27922016 4290888380
-0.058207963 -0.067099743 0.27834526 4290954175
-0.057266846 -0.066527277 0.27597052 4290954175
-0.056822337 -0.066527277 0.27597052 4290888382
-0.056377832 -0.066527277 0.27597052 4290888382
-0.055097364 -0.065532982 0.27184597 4290954175
-0.054659501 -0.065532982 0.27184597 4291019968
-0.053374033 -0.064508565 0.26759642 4291019966
-0.052943014 -0.064508565 0.26759642 4291019966
-0.052536517 -0.064538687 0.26772138 4290954173
-0.052080974 -0.064508565 0.26759642 4291019966
-0.051649954 -0.064508565 0.26759642 4291151552
-0.051769156 -0.065201551 0.2704711 4291085759
-0.051997714 -0.066045195 0.27397072 4291151295
-0.051556427 -0.066045195 0.27397072 4291151295
-0.050835315 -0.065683633 0.27247089 4291282111
-0.050396442 -0.065683633 0.27247089 4291282111
-0.049201332 -0.064689338 0.26834634 4291347904
-0.048769109 -0.064689338 0.26834634 4291347904
-0.047999173 -0.064237386 0.26647153 4291282111
-0.047569964 -0.064237386 0.26647153 4291347904
-0.047140755 -0.064237386 0.26647153 4291479490
-0.046777274 -0.064327776 0.26684648 4291347904
-0.04647772 -0.064508565 0.26759642 4291085502
-0.046240259 -0.064779729 0.26872128 4291019709
-0.045977876 -0.06502077 0.26972118 4291217342
-0.045606747 -0.06511116 0.27009615 4291217342
-0.045213502 -0.065171421 0.27034611 4291348928
-0.044488233 -0.064749599 0.26859629 4291217342
-0.043686595 -0.064207256 0.26634654 4291348928
-0.043034296 -0.063875832 0.2649717 4291217342
-0.04222564 -0.063303351 0.26259694 4291217088
-0.041742988 -0.063212968 0.26222199 4291217088
-0.041320626 -0.063212968 0.26222199 4291085759
-0.040820282 -0.06309244 0.26172203 4291151552
-0.040398724 -0.06309244 0.26172203 4291085759
-0.040053535 -0.063212968 0.26222199 4291283138
-0.039631173 -0.063212968 0.26222199 4291283138
-0.039489143 -0.063664921 0.2640968 4291283138
-0.039193168 -0.063875832 0.2649717 4291348674
-0.038766377 -0.063875832 0.2649717 4291348674
-0.037887461 -0.063122571 0.26184702 4291414467
-0.037465706 -0.063122571 0.26184702 4291217088
-0.036884811 -0.062851407 0.26072216 4291217088
-0.03644738 -0.062821276 0.26059717 4291348674
-0.036027636 -0.062821276 0.26059717 4291348674
-0.035607889 -0.062821276 0.26059717 4291348674
-0.035205022 -0.062851407 0.26072216 4291348674
-0.034851775 -0.06297192 0.26122209 4291348674
-0.034463972 -0.063032188 0.26147208 4291217088
-0.034042813 -0.063032188 0.26147208 4291151295
-0.033621661 -0.063032188 0.26147208 4291019709
-0.033073545 -0.062791146 0.26047218 4291151295
-0.032653999 -0.062791146 0.26047218 4291217088
-0.031863231 -0.062068019 0.25747249 4291217088
-0.031448517 -0.062068019 0.25747249 4291085759
-0.030672247 -0.061344899 0.25447282 4291019966
-0.030262366 -0.061344899 0.25447282 4291085761
-0.029837821 -0.061314769 0.25434783 4291085761
-0.029428143 -0.061314769 0.25434783 4291019968
-0.029189577 -0.061676327 0.25584766 4291085761
-0.028918065 -0.061977632 0.25709754 4291085504
-0.028573241 -0.062128279 0.25772247 4291217090
-0.028240059 -0.06230906 0.25847238 4291085502
-0.027958281 -0.062610365 0.25972226 4291151295
-0.027751992 -0.06309244 0.26172203 4290953916
-0.027617574 -0.063755304 0.26447174 4290953916
-0.027435746 -0.064327776 0.26684648 4290954170
-0.026904743 -0.064086743 0.26584661 4291019963
-0.026476542 -0.064086743 0.26584661 4291019963
-0.025766669 -0.063393742 0.26297191 4291019963
-0.0253431 -0.063393742 0.26297191 4291019963
-0.024706339 -0.062851407 0.26072216 4291085756
-0.024263104 -0.062791146 0.26047218 4291019709
-0.023843562 -0.062791146 0.26047218 4291085502
-0.023424016 -0.062791146 0.26047218 4291151295
-0.02302655 -0.062851407 0.26072216 4291085502
-0.022649951 -0.06297192 0.26122209 4291019709
-0.022261107 -0.063062318 0.26159707 4291019709
-0.021912793 -0.063273229 0.26247197 4291085502
-0.02156166 -0.06348414 0.26334688 4291085502
-0.021137487 -0.06348414 0.26334688 4291151295
-0.020713311 -0.06348414 0.26334688 4291019709
-0.020289136 -0.06348414 0.26334688 4291216318
-0.019846104 -0.063423879 0.2630969 4291150525
-0.019357746 -0.063212968 0.26222199 4290953916
-0.018845126 -0.062911659 0.26097211 4291085502
-0.018424775 -0.062911659 0.26097211 4291085502
-0.017944068 -0.062700748 0.26009721 4291085502
-0.017499862 -0.062610365 0.25972226 4291085502
-0.017081527 -0.062610365 0.25972226 4291019709
-0.016687244 -0.062700748 0.26009721 4291151295
-0.016268304 -0.062700748 0.26009721 4291019709
-0.015902678 -0.062911659 0.26097211 4291019709
-0.015393349 -0.062550105 0.25947228 4291151295
-0.014975415 -0.062550105 0.25947228 4291019709
-0.014515407 -0.062369321 0.25872236 4291151295
-0.014098681 -0.062369321 0.25872236 4291085756
-0.013708393 -0.062489841 0.2592223 4291019963
-0.013290862 -0.062489841 0.2592223 4291085756
-0.01287333 -0.062489841 0.2592223 4291019963
-0.012509851 -0.062761016 0.26034719 4291151549
-0.012113723 -0.062881529 0.26084712 4291019963
-0.011727194 -0.063062318 0.26159707 4291019963
-0.011338248 -0.063243099 0.26234698 4291151549
-0.010941686 -0.063393742 0.26297191 4291085756
-0.010538111 -0.063514262 0.26347184 4291019963
-0.010166511 -0.063845694 0.26484671 4290954170
-0.0098180585 -0.064357907 0.26697147 4291085756
-0.0094056269 -0.064478427 0.26747143 4291151549
-0.0090167467 -0.064779729 0.26872128 4291151549
-0.0085360054 -0.064418167 0.26722145 4291151549
-0.00810559 -0.064418167 0.26722145 4291151549
-0.0076249153 -0.063996345 0.26547164 4291019963
-0.0071600443 -0.063664921 0.2640968 4291019963
-0.0067314743 -0.06363479 0.26397181 4291217088
-0.006306293 -0.06363479 0.26397181 4291019709
-0.0058811111 -0.06363479 0.26397181 4290953916
-0.0054559298 -0.06363479 0.26397181 4291085502
-0.005037894 -0.063725173 0.26434675 4291151295
-0.0046230117 -0.063875832 0.2649717 4291151295
-0.0042041373 -0.063996345 0.26547164 4291019709
-0.0037765396 -0.063996345 0.26547164 4291151295
-0.0034246247 -0.065442592 0.27147099 4290954173
-0.002990115 -0.065502852 0.27172098 4290954173
-0.002552452 -0.065502852 0.27172098 4290954173
-0.0021147889 -0.065502852 0.27172098 4290822587
-0.0016717255 -0.065291941 0.27084607 4290822587
-0.0012326208 -0.06514129 0.27022114 4290888380
-0.00079737348 -0.06514129 0.27022114 4290954173
-0.00036212616 -0.06514129 0.27022114 4290822587
7.3121242e-05 -0.06514129 0.27022114 4290822587
0.0005083686 -0.06514129 0.27022114 4290822587
0.00094492524 -0.065231681 0.27059609 4290888380
0.0013833278 -0.065352201 0.27109605 4290822587
0.0018199843 -0.065352201 0.27109605 4290625208
0.002259762 -0.065442592 0.27147099 4290691001
0.0027019896 -0.065563112 0.27197096 4290822587
0.0031487136 -0.065743893 0.27272087 4290822587
0.0035978535 -0.065924674 0.27347079 4290954173
0.0040457174 -0.066045195 0.27397072 4290822587
0.0044972398 -0.066195846 0.27459568 4290888380
0.0049395328 -0.066195846 0.27459568 4290691001
0.0053916252 -0.066316366 0.27509561 4290822587
0.0058426769 -0.066406757 0.27547058 4290691001
0.0062949355 -0.066497147 0.27584553 4290691255
0.0067484034 -0.066587538 0.2762205 4290822841
0.0071998234 -0.06664779 0.27647045 4290625462
0.0076451362 -0.06664779 0.27647045 4290691255
0.0081014233 -0.066738188 0.27684543 4290625462
0.0085666338 -0.066888839 0.27747035 4290625462
0.009041978 -0.067099743 0.27834526 4290625462
0.0095244031 -0.067340791 0.27934515 4290493876
0.010014512 -0.067611963 0.28047004 4290625462
0.010498917 -0.067822874 0.28134495 4290493876
0.010952082 -0.067822874 0.28134495 4290691255
0.011430579 -0.067973517 0.28196988 4290099118
0.011916359 -0.068154298 0.28271979 4290230704
0.012382677 -0.068214566 0.28296977 4290230704
0.012844129 -0.068244696 0.28309476 4290230704
0.013329471 -0.068395339 0.28371969 4290230704
0.013786462 -0.068395339 0.28371969 4289770923
-0.062550403 -0.066980638 0.27972013 4290888382
-0.062099859 -0.066980638 0.27972013 4290888382
-0.061649308 -0.066980638 0.27972013 4290822589
-0.061554253 -0.067369714 0.28134495 4290888382
-0.061073944 -0.067339778 0.28121996 4290954175
-0.060620978 -0.067339778 0.28121996 4291019966
-0.059766892 -0.066890851 0.27934515 4291019966
-0.059157714 -0.066711277 0.27859524 4290954173
-0.058708977 -0.066711277 0.27859524 4290954173
-0.057920456 -0.0663222 0.27697042 4290954173
-0.057266846 -0.066082768 0.27597052 4290954173
-0.056462049 -0.06566377 0.27422071 4290954175
-0.056020364 -0.06566377 0.27422071 4290954175
-0.054565392 -0.064466618 0.26922125 4290954173
-0.054131754 -0.064466618 0.26922125 4290954173
-0.053349104 -0.064047612 0.26747143 4291085759
-0.052893553 -0.064017683 0.26734644 4291019966
-0.052462939 -0.064017683 0.26734644 4290954173
-0.052032322 -0.064017683 0.26734644 4290954173
-0.051601704 -0.064017683 0.26734644 4291283138
-0.051745232 -0.064735971 0.27034611 4291151552
-0.051926553 -0.065514125 0.27359578 4291217088
-0.05148587 -0.065514125 0.27359578 4291414467
-0.050695401 -0.06506519 0.27172098 4291347904
-0.050257735 -0.06506519 0.27172098 4291216318
-0.049201332 -0.064257115 0.26834634 4291545283
-0.048564672 -0.063987754 0.26722145 4291282111
-0.047999173 -0.06380818 0.26647153 4291282111
-0.047569964 -0.06380818 0.26647153 4291479490
-0.047096532 -0.063748322 0.26622155 4291019709
-0.046667725 -0.063748322 0.26622155 4291348674
-0.046304051 -0.063838117 0.26659653 4291085502
-0.045960668 -0.063957825 0.26709646 4291085502
-0.045722205 -0.064227186 0.26822135 4291151295
-0.04529018 -0.064227186 0.26822135 4291151295
-0.044565506 -0.06380818 0.26647153 4291217342
-0.044136304 -0.06380818 0.26647153 4291151549
-0.043420088 -0.063389182 0.26472172 4291217342
-0.042993698 -0.063389182 0.26472172 4291348928
-0.042105053 -0.062700815 0.26184702 4291283392
-0.041623611 -0.062611036 0.26147208 4291151806
-0.041202456 -0.062611036 0.26147208 4291085759
-0.040742312 -0.062551171 0.26122209 4291151552
-0.040321555 -0.062551171 0.26122209 4291283138
-0.039938986 -0.062611036 0.26147208 4291151552
-0.039593391 -0.062730744 0.26197201 4291085759
-0.039190121 -0.062760673 0.262097 4291283138
-0.03876796 -0.062760673 0.262097 4291283138
-0.038309224 -0.062700815 0.26184702 4291019966
-0.037887461 -0.062700815 0.26184702 4291348674
-0.037286874 -0.062401533 0.26059717 4291085502
-0.036619578 -0.061982527 0.25884736 4291348676
-0.036202651 -0.061982527 0.25884736 4291019711
-0.035785723 -0.061982527 0.25884736 4291283140
-0.035454184 -0.062132172 0.25947228 4291151554
-0.035137512 -0.062311742 0.2602222 4291151552
-0.034801748 -0.062461384 0.26084712 4291283138
-0.034431022 -0.062551171 0.26122209 4291151552
-0.034010269 -0.062551171 0.26122209 4291348931
-0.033557374 -0.062491313 0.26097211 4291348674
-0.033073545 -0.0623716 0.26047218 4291217088
-0.03234062 -0.061773028 0.25797245 4291151295
-0.031863231 -0.061653309 0.25747249 4291151295
-0.031219523 -0.061204374 0.25559768 4291217088
-0.030672247 -0.06093502 0.25447282 4291151295
-0.030054275 -0.060516018 0.25272301 4291348674
-0.029647212 -0.060516018 0.25272301 4291414467
-0.029384758 -0.060815301 0.25397286 4291414467
-0.029161057 -0.061204374 0.25559768 4291151295
-0.028875889 -0.061473735 0.25672257 4291151295
-0.028517814 -0.061593454 0.25722253 4291085502
-0.028185438 -0.061773028 0.25797245 4290953916
-0.027904462 -0.062072311 0.2592223 4291217088
-0.027725488 -0.062611036 0.26147208 4291151295
-0.02760452 -0.063299388 0.26434675 4291217088
-0.027191587 -0.063329324 0.26447174 4291019963
-0.026879443 -0.063598685 0.26559663 4291085756
-0.026302272 -0.063239537 0.2640968 4290954170
-0.025766669 -0.062970176 0.26297191 4291019963
-0.025150375 -0.062491313 0.26097211 4291085756
-0.024552366 -0.062042382 0.25909731 4291085756
-0.024135035 -0.062042382 0.25909731 4291085756
-0.023717707 -0.062042382 0.25909731 4291085756
-0.023334095 -0.062132172 0.25947228 4291151549
-0.022960316 -0.062251884 0.25997221 4291019963
-0.022606602 -0.062431462 0.26072216 4291085756
-0.022229198 -0.062551171 0.26122209 4291019963
-0.021923225 -0.062880389 0.26259694 4291085502
-0.021551427 -0.063030034 0.26322189 4291085502
-0.021137487 -0.063059963 0.26334688 4291019709
-0.020713311 -0.063059963 0.26334688 4291085502
-0.020289136 -0.063059963 0.26334688 4291151295
-0.019864962 -0.063059963 0.26334688 4291019709
-0.019357746 -0.062790602 0.26222199 4290953916
-0.018845126 -0.062491313 0.26097211 4291217088
-0.018424775 -0.062491313 0.26097211 4291085502
-0.017944068 -0.062281813 0.26009721 4291019709
-0.017499862 -0.06219203 0.25972226 4291019709
-0.017081527 -0.06219203 0.25972226 4291019709
-0.016687244 -0.062281813 0.26009721 4291019709
-0.016268304 -0.062281813 0.26009721 4291019709
-0.015902678 -0.062491313 0.26097211 4291019709
-0.015393349 -0.062132172 0.25947228 4291217088
-0.014975415 -0.062132172 0.25947228 4291151549
-0.014515407 -0.061952598 0.25872236 4290954170
-0.014098681 -0.061952598 0.25872236 4291217342
-0.013748051 -0.062251884 0.25997221 4291019963
-0.01333572 -0.062281813 0.26009721 4291151549
-0.012929194 -0.062341671 0.26034719 4291019963
-0.012509851 -0.062341671 0.26034719 4291151549
-0.012113723 -0.062461384 0.26084712 4290954170
-0.011727194 -0.062640965 0.26159707 4291019963
-0.011338248 -0.062820539 0.26234698 4290888377
-0.010941686 -0.062970176 0.26297191 4290888377
-0.010538111 -0.063089892 0.26347184 4291085756
-0.010166511 -0.063419111 0.26484671 4291019963
-0.0098180585 -0.063927896 0.26697147 4291085756
-0.0094056269 -0.064047612 0.26747143 4291019963
-0.0090167467 -0.064346902 0.26872128 4291151549
-0.0085360054 -0.063987754 0.26722145 4291217342
-0.00810559 -0.063987754 0.26722145 4291151549
-0.0076249153 -0.063568749 0.26547164 4291085756
-0.0071600443 -0.063239537 0.2640968 4291151549
-0.0067314743 -0.063209608 0.26397181 4291151549
-0.006306293 -0.063209608 0.26397181 4291085756
-0.0058811111 -0.063209608 0.26397181 4291151295
-0.0054559298 -0.063209608 0.26397181 4291085502
-0.005037894 -0.063299388 0.26434675 4291085502
-0.0046230117 -0.06344904 0.2649717 4291085502
-0.0042041373 -0.063568749 0.26547164 4291019709
-0.0037765396 -0.063568749 0.26547164 4291019709
-0.0034246247 -0.065005332 0.27147099 4290888380
-0.002990115 -0.06506519 0.27172098 4290888380
-0.002552452 -0.06506519 0.27172098 4290691001
-0.0021147889 -0.06506519 0.27172098 4290822587
-0.0016717255 -0.064855695 0.27084607 4290822587
-0.0012326208 -0.06470605 0.27022114 4290954173
-0.00079737348 -0.06470605 0.27022114 4290954173
-0.00036212616 -0.06470605 0.27022114 4291019966
7.3121242e-05 -0.06470605 0.27022114 4290822587
0.0005083686 -0.06470605 0.27022114 4290691001
0.00094492524 -0.064795829 0.27059609 4290822587
0.0013833278 -0.064915553 0.27109605 4290691001
0.0018199843 -0.064915553 0.27109605 4290888380
0.002259762 -0.065005332 0.27147099 4290888380
0.0027019896 -0.065125056 0.27197096 4290822587
0.0031487136 -0.065304622 0.27272087 4290888380
0.0035978535 -0.065484196 0.27347079 4290822587
0.0040457174 -0.065603912 0.27397072 4290888380
0.0044972398 -0.065753557 0.27459568 4290954173
0.0049395328 -0.065753557 0.27459568 4290822587
0.0053916252 -0.065873273 0.27509561 4290822587
0.0058426769 -0.06596306 0.27547058 4290691001
0.0062949355 -0.066052839 0.27584553 4290625208
0.0067484034 -0.066142634 0.2762205 4290559415
0.0071998234 -0.066202484 0.27647045 4290625462
0.0076451362 -0.066202484 0.27647045 4290625462
0.0081014233 -0.066292271 0.27684543 4290625462
0.0085666338 -0.066441916 0.27747035 4290625462
0.009041978 -0.066651419 0.27834526 4290493876
0.0095244031 -0.066890851 0.27934515 4290362290
0.010014512 -0.067160212 0.28047004 4290625462
0.010498917 -0.067369714 0.28134495 4290625462
0.010952082 -0.067369714 0.28134495 4290625460
0.011430579 -0.067519352 0.28196988 4290559667
0.011916359 -0.067698926 0.28271979 4290493874
0.012382677 -0.067758784 0.28296977 4290428081
0.012844129 -0.067788713 0.28309476 4290362288
0.013329471 -0.067938358 0.28371969 4290164909
0.013786462 -0.067938358 0.28371969 4290099116
-0.06009087 -0.063914068 0.26872128 4290888382
-0.059658036 -0.063914068 0.26872128 4290888382
-0.061208561 -0.066054448 0.27772033 4290888382
-0.061062034 -0.066381447 0.27909517 4290954175
-0.060585346 -0.066351719 0.27897018 4290954175
-0.060136005 -0.066351719 0.27897018 4291085759
-0.059659932 -0.066321999 0.27884522 4291019966
-0.059157714 -0.066262543 0.27859524 4290954173
-0.058419254 -0.065935537 0.2772204 4290888380
-0.057763632 -0.065697722 0.2762205 4290954173
-0.057318721 -0.065697722 0.2762205 4290954173
-0.056230437 -0.064954527 0.27309582 4290954173
-0.055790562 -0.064954527 0.27309582 4290954173
-0.054388065 -0.063824885 0.26834634 4290954173
-0.053955838 -0.063824885 0.26834634 4290954173
-0.053299241 -0.063557342 0.26722145 4291019966
-0.052794639 -0.063468151 0.26684648 4290954173
-0.05236483 -0.063468151 0.26684648 4290954173
-0.051935017 -0.063468151 0.26684648 4290954173
-0.051553454 -0.063527614 0.26709646 4291019966
-0.051434238 -0.063914068 0.26872128 4291019966
-0.051689334 -0.064776167 0.2723459 4291151295
