# .PCD v0.7 - Point Cloud Data file format
VERSION 0.7
FIELDS x y z rgba
SIZE 4 4 4 4
TYPE F F F U
COUNT 1 1 1 1
WIDTH 1023
HEIGHT 1
VIEWPOINT 0 0 0 1 0 0 0
POINTS 1023
DATA ascii
-0.10836402 0.057584018 0.5389424 4289504671
-0.10717186 0.057410412 0.53731757 4289570464
-0.1063064 0.057410412 0.53731757 4289570464
-0.10514662 0.057250161 0.53581774 4289504671
-0.10396734 0.057076555 0.53419292 4289570464
-0.10310691 0.057076555 0.53419292 4289636257
-0.10212687 0.057009786 0.53356802 4289833636
-0.10119629 0.056969721 0.53319305 4289702050
-0.10029043 0.056943014 0.53294307 4289702050
-0.099432006 0.056943014 0.53294307 4289571234
-0.098504238 0.056902949 0.5325681 4289702820
-0.097554751 0.056849528 0.53206813 4289702820
-0.096584186 0.05678276 0.53144324 4289702820
-0.095728181 0.05678276 0.53144324 4289702566
-0.094738305 0.056702632 0.53069329 4289702566
-0.093750849 0.056622509 0.52994341 4289702568
-0.092853442 0.056595799 0.52969342 4289702568
-0.091913432 0.056542382 0.52919346 4289570982
-0.090932004 0.056462251 0.52844352 4289570982
-0.089953005 0.056382131 0.52769363 4289505189
-0.089103043 0.056382131 0.52769363 4289505189
-0.08816947 0.05632871 0.52719367 4289505702
-0.087216817 0.056261942 0.52656877 4289505702
-0.086286664 0.056208521 0.52606881 4289439909
-0.085439317 0.056208521 0.52606881 4289505702
-0.084531672 0.056168459 0.52569383 4289702566
-0.08362525 0.056128394 0.52531886 4289570980
-0.082720034 0.056088336 0.52494395 4289570980
-0.081874505 0.056088336 0.52494395 4289505187
-0.080990382 0.056061625 0.52469397 4289439648
-0.080145255 0.056061625 0.52469397 4289439648
-0.079224564 0.056008205 0.524194 4289570464
-0.078380242 0.056008205 0.524194 4289636257
-0.07748045 0.055968143 0.52381903 4289702050
-0.076581873 0.055928078 0.52344406 4289702050
-0.07568451 0.05588802 0.52306914 4289702050
-0.074841999 0.05588802 0.52306914 4289702050
-0.073946439 0.055847954 0.52269417 4289571234
-0.073069565 0.055821244 0.52244419 4289505441
-0.072176218 0.055781182 0.52206922 4289571234
-0.071335316 0.055781182 0.52206922 4289505441
-0.07046067 0.055754472 0.52181923 4289570980
-0.069586813 0.055727761 0.52156925 4289702566
-0.068713777 0.055701058 0.52131933 4289768359
-0.067874081 0.055701058 0.52131933 4289834152
-0.067002252 0.055674348 0.52106935 4289768359
-0.066147089 0.055660993 0.52094436 4289768359
-0.065292329 0.055647638 0.52081937 4289834152
-0.064453438 0.055647638 0.52081937 4289768359
-0.063599288 0.055634283 0.52069438 4289834154
-0.062760599 0.055634283 0.52069438 4289965740
-0.061921913 0.055634283 0.52069438 4289965740
-0.061083224 0.055634283 0.52069438 4289899947
-0.060244542 0.055634283 0.52069438 4289965740
-0.059405852 0.055634283 0.52069438 4289965740
-0.058567163 0.055634283 0.52069438 4289965487
-0.057742339 0.055647638 0.52081937 4290031280
-0.056917105 0.055660993 0.52094436 4290031280
-0.056078017 0.055660993 0.52094436 4290031280
-0.055265434 0.055687703 0.52119434 4289965487
-0.05443899 0.055701058 0.52131933 4289965487
-0.05361215 0.055714414 0.52144432 4290163119
-0.052772254 0.055714414 0.52144432 4290163119
-0.051944803 0.055727761 0.52156925 4290163119
-0.051116955 0.055741116 0.52169424 4290228912
-0.050300751 0.055767827 0.52194422 4290228912
-0.04946005 0.055767827 0.52194422 4290228912
-0.048642635 0.055794537 0.52219421 4290228912
-0.047812976 0.055807892 0.5223192 4290360498
-0.04698291 0.055821244 0.52244419 4290294705
-0.046163484 0.055847954 0.52269417 4290360498
-0.045321576 0.055847954 0.52269417 4290426291
-0.044490308 0.055861309 0.52281916 4290360498
-0.043669067 0.05588802 0.52306914 4290360498
-0.042836785 0.055901375 0.52319413 4290360498
-0.041994076 0.055901375 0.52319413 4290426804
-0.041180849 0.055941433 0.52356905 4290426804
-0.040356796 0.055968143 0.52381903 4290426551
-0.03954136 0.056008205 0.524194 4290360758
-0.038715493 0.056034915 0.52444398 4290229942
-0.037870765 0.056034915 0.52444398 4290295735
-0.037061334 0.056088336 0.52494395 4290427323
-0.036250293 0.056141749 0.52544385 4290427323
-0.03543764 0.05619517 0.52594382 4290427580
-0.034590501 0.05619517 0.52594382 4290361787
-0.033783454 0.056261942 0.52656877 4290558909
-0.032966573 0.056315355 0.52706867 4290493116
-0.032140471 0.056355421 0.52744365 4290493114
-0.031320572 0.056408837 0.52794361 4290493114
-0.030470207 0.056408837 0.52794361 4290493114
-0.029640883 0.056448903 0.52831858 4290493114
-0.028810346 0.056488961 0.5286935 4290361785
-0.027978605 0.056529026 0.52906847 4290427578
-0.027126431 0.056529026 0.52906847 4290493371
-0.026299085 0.056582443 0.52956843 4290559164
-0.025470128 0.056635864 0.5300684 4290559164
-0.024639558 0.056689277 0.5305683 4290624957
-0.023812983 0.056756053 0.53119326 4290624957
-0.022957386 0.056756053 0.53119326 4290559164
-0.022132991 0.056836173 0.53194314 4290690493
-0.021306181 0.056916304 0.53269309 4290690493
-0.02048655 0.057023134 0.53369296 4290756286
-0.019672891 0.057156682 0.53494287 4290756286
-0.018811254 0.057156682 0.53494287 4290756286
-0.017970586 0.05722345 0.53556776 4290690493
-0.017135892 0.057316937 0.5364427 4290690493
-0.016294586 0.057397056 0.53719258 4290624700
-0.015447274 0.057463832 0.53781754 4290756286
-0.014581007 0.057463832 0.53781754 4290953665
-0.013730678 0.057530604 0.53844249 4290887872
-0.012881319 0.057610728 0.53919238 4290953665
-0.012029545 0.057690859 0.53994232 4291019458
-0.011177938 0.057784334 0.5408172 4290953665
-0.01030684 0.057784334 0.5408172 4290953667
-0.0094510056 0.05787782 0.54169214 4291019460
-0.0085943323 0.05798465 0.54269201 4291019460
-0.0077326605 0.058078133 0.54356694 4290953667
-0.0068681701 0.058171611 0.54444182 4290953667
-0.005991233 0.058171611 0.54444182 4291019460
-0.0051236893 0.058278449 0.54544175 4291019460
-0.0042529237 0.058385283 0.54644161 4290953667
-0.0033797089 0.058505468 0.54756647 4291019460
-0.0025034402 0.058639016 0.54881638 4290953667
-0.0016194574 0.058639016 0.54881638 4291019458
-0.00073731696 0.058785915 0.55019122 4291019458
0.00014925255 0.058932811 0.55156606 4290953665
0.001040251 0.059079707 0.55294091 4291019458
0.0019356784 0.05922661 0.55431581 4290887872
0.0028285193 0.05922661 0.55431581 4290887872
0.0037314293 0.059386861 0.55581564 4290756288
0.00463709 0.059520405 0.55706549 4290756288
0.0055430518 0.059613883 0.55794036 4290887104
0.0064547183 0.059734076 0.55906528 4290887104
0.0073552094 0.059734076 0.55906528 4290821309
-0.11499792 0.058736768 0.54156715 4286873982
-0.11412562 0.058736768 0.54156715 4289242530
-0.11322717 0.058723211 0.54144216 4288847770
-0.11230319 0.058696099 0.54119217 4289045149
-0.11138001 0.058668986 0.54094219 4289110683
-0.11050872 0.058668986 0.54094219 4289308062
-0.10958675 0.058641873 0.54069221 4289308062
-0.10861534 0.058587655 0.54019231 4289373855
-0.10749594 0.058452096 0.5389424 4289439648
-0.10662786 0.058452096 0.5389424 4289439648
-0.10536737 0.058235209 0.53694266 4289373855
-0.10406464 0.057991207 0.53469288 4289439648
-0.10320341 0.057991207 0.53469288 4289504671
-0.10224648 0.057936981 0.53419292 4289702050
-0.10131489 0.057896312 0.53381795 4289570464
-0.10040803 0.057869207 0.53356802 4289636257
-0.099548608 0.057869207 0.53356802 4289505441
-0.098619826 0.057828538 0.53319305 4289571234
-0.097692259 0.057787869 0.53281808 4289505954
-0.096720472 0.057720087 0.53219312 4289440161
-0.09586326 0.057720087 0.53219312 4289570980
-0.094872184 0.057638757 0.53144324 4289702566
-0.093861401 0.057543866 0.5305683 4289570980
-0.092853442 0.057448979 0.52969342 4289570980
-0.092000268 0.057448979 0.52969342 4289570980
-0.091018036 0.057367641 0.52894348 4289570980
-0.090038233 0.057286311 0.52819359 4289505187
-0.089187466 0.057286311 0.52819359 4289505187
-0.088211276 0.057204977 0.52744365 4289505700
-0.087278917 0.057150751 0.52694368 4289374114
-0.086348161 0.057096533 0.52644378 4289308323
-0.085500218 0.057096533 0.52644378 4289439909
-0.084571876 0.057042308 0.52594382 4289702568
-0.083684944 0.057015195 0.52569383 4289570982
-0.082779117 0.056974526 0.52531886 4289505187
-0.081932977 0.056974526 0.52531886 4289439394
-0.08104825 0.056947414 0.52506888 4289439394
-0.080145255 0.056906752 0.52469397 4289373601
-0.079224564 0.056852527 0.524194 4289504671
-0.078380242 0.056852527 0.524194 4289504671
-0.07748045 0.056811858 0.52381903 4289570464
-0.076581873 0.056771193 0.52344406 4289570464
-0.07568451 0.056730527 0.52306914 4289636257
-0.074841999 0.056730527 0.52306914 4289702050
-0.073946439 0.056689862 0.52269417 4289702050
-0.073069565 0.056662749 0.52244419 4289636257
-0.072176218 0.056622081 0.52206922 4289505441
-0.071335316 0.056622081 0.52206922 4289505441
-0.07046067 0.056594968 0.52181923 4289571234
-0.069586813 0.056567855 0.52156925 4289571234
-0.068713777 0.05654075 0.52131933 4289702820
-0.067874081 0.05654075 0.52131933 4289768613
-0.067002252 0.056513637 0.52106935 4289768613
-0.066147089 0.056500081 0.52094436 4289834406
-0.065292329 0.056486525 0.52081937 4289834152
-0.064453438 0.056486525 0.52081937 4289768359
-0.063599288 0.056472968 0.52069438 4289768361
-0.062760599 0.056472968 0.52069438 4289899947
-0.061921913 0.056472968 0.52069438 4289965487
-0.061083224 0.056472968 0.52069438 4289965487
-0.060244542 0.056472968 0.52069438 4289965487
-0.059405852 0.056472968 0.52069438 4289899694
-0.058567163 0.056472968 0.52069438 4289899694
-0.057742339 0.056486525 0.52081937 4289965487
-0.056917105 0.056500081 0.52094436 4290031280
-0.056078017 0.056500081 0.52094436 4289965487
-0.055265434 0.056527194 0.52119434 4289768361
-0.05443899 0.05654075 0.52131933 4289965740
-0.05361215 0.056554306 0.52144432 4290031533
-0.052772254 0.056554306 0.52144432 4290031533
-0.051944803 0.056567855 0.52156925 4290031533
-0.051116955 0.056581412 0.52169424 4290031533
-0.050300751 0.056608524 0.52194422 4290163119
-0.04946005 0.056608524 0.52194422 4290228912
-0.048642635 0.056635637 0.52219421 4290228912
-0.047812976 0.056649193 0.5223192 4290360498
-0.04698291 0.056662749 0.52244419 4290294705
-0.046163484 0.056689862 0.52269417 4290294705
-0.045321576 0.056689862 0.52269417 4290360498
-0.044490308 0.056703418 0.52281916 4290360498
-0.043669067 0.056730527 0.52306914 4290294705
-0.042836785 0.056744084 0.52319413 4290294705
-0.041994076 0.056744084 0.52319413 4290294965
-0.041180849 0.056784749 0.52356905 4290229172
-0.040356796 0.056811858 0.52381903 4290229172
-0.03954136 0.056852527 0.524194 4290360758
-0.038715493 0.05687964 0.52444398 4290229942
-0.037870765 0.05687964 0.52444398 4290295735
-0.037061334 0.056933865 0.52494395 4290295737
-0.036284786 0.057042308 0.52594382 4290295737
-0.035471328 0.057096533 0.52644378 4290427323
-0.034623384 0.057096533 0.52644378 4290427323
-0.033807509 0.057150751 0.52694368 4290493116
-0.032990023 0.057204977 0.52744365 4290427323
-0.032170936 0.057259198 0.52794361 4290493116
-0.031342819 0.057299867 0.52831858 4290427323
-0.030491849 0.057299867 0.52831858 4290427321
-0.029661916 0.057340529 0.5286935 4290427321
-0.02883078 0.057381198 0.52906847 4290361785
-0.027998434 0.057421867 0.52944344 4290427578
-0.027145656 0.057421867 0.52944344 4290493371
-0.026305292 0.057448979 0.52969342 4290493371
-0.025476132 0.057503197 0.53019333 4290427578
-0.024645362 0.057557423 0.53069329 4290559164
-0.023818586 0.057625201 0.53131825 4290624957
-0.022962788 0.057625201 0.53131825 4290559164
-0.022132991 0.057692979 0.53194314 4290690493
-0.02131618 0.057801425 0.53294307 4290690493
-0.020496145 0.057909869 0.53394294 4290690493
-0.019682083 0.058045428 0.53519285 4290690493
-0.018820046 0.058045428 0.53519285 4290690493
-0.017999943 0.058180984 0.5364427 4290690493
-0.017151862 0.058235209 0.53694266 4290690493
-0.016309751 0.05831654 0.53769255 4290624700
-0.015465224 0.058397878 0.53844249 4290756286
-0.014597951 0.058397878 0.53844249 4290887872
-0.013746613 0.058465652 0.53906739 4290756286
-0.012896249 0.058546986 0.53981733 4290887872
-0.012046251 0.058641873 0.54069221 4291019458
-0.011190855 0.058723211 0.54144216 4290953665
-0.010318751 0.058723211 0.54144216 4290953665
-0.0094619086 0.058818098 0.54231703 4290953665
-0.0086022504 0.058912992 0.54319197 4291019458
-0.0077415504 0.059021436 0.54419184 4291019458
-0.006874477 0.05910277 0.54494178 4291019458
-0.0059967348 0.05910277 0.54494178 4291019458
-0.0051283855 0.059211213 0.54594165 4290953665
-0.0042568147 0.059319664 0.54694158 4290953665
-0.0033820232 0.059428107 0.54794145 4290953665
-0.0025051509 0.059563667 0.54919136 4290887872
-0.0016205639 0.059563667 0.54919136 4290887872
-0.00073765195 0.059699222 0.55044121 4290887872
0.00014928638 0.059834778 0.55169106 4290887872
0.0010407212 0.059997443 0.55319089 4290953665
0.0019369876 0.060160112 0.55469072 4290887872
0.0028304325 0.060160112 0.55469072 4290887872
0.0037339467 0.060322784 0.55619061 4290887872
0.0046422919 0.060485452 0.55769044 4290887872
0.0055505023 0.060593896 0.55869031 4290690495
0.0064677056 0.060756564 0.56019014 4290624702
0.0073700086 0.060756564 0.56019014 4290689723
-0.11325331 0.059609074 0.54156715 4289044638
-0.112381 0.059609074 0.54156715 4288978845
-0.11168883 0.059705373 0.54244202 4289044890
-0.11084066 0.05971913 0.54256701 4289044890
-0.10989074 0.059677862 0.5421921 4289242269
-0.10896717 0.059650347 0.54194212 4289308062
-0.10784496 0.059512775 0.54069221 4289373855
-0.10697406 0.059512775 0.54069221 4289439648
-0.10575978 0.059320174 0.5389424 4289439648
-0.10433222 0.059003767 0.53606772 4289373855
-0.10346878 0.059003767 0.53606772 4289308062
-0.10224648 0.058797412 0.53419292 4289505441
-0.10138606 0.058797412 0.53419292 4289505441
-0.10052563 0.058797412 0.53419292 4289439648
-0.099665195 0.058797412 0.53419292 4289373855
-0.098758526 0.058769897 0.53394294 4289505441
-0.097806841 0.058714874 0.53344303 4289374114
-0.096856765 0.058659844 0.53294307 4289308321
-0.095998347 0.058659844 0.53294307 4289439907
-0.095006049 0.058577299 0.53219312 4289505700
-0.094016179 0.058494762 0.53144324 4289570980
-0.092984892 0.058384702 0.53044331 4289570980
-0.092130512 0.058384702 0.53044331 4289570980
-0.091104068 0.058274645 0.52944344 4289570980
-0.090102144 0.058178347 0.52856851 4289505187
-0.089208573 0.058150835 0.52831858 4289439394
-0.088273987 0.058095805 0.52781862 4289439907
-0.087341018 0.058040775 0.52731866 4289308321
-0.086409658 0.057985745 0.52681869 4289308321
-0.085561104 0.057985745 0.52681869 4289374114
-0.084652267 0.05794448 0.52644378 4289570980
-0.083744638 0.057903208 0.52606881 4289505187
-0.0828382 0.057861935 0.52569383 4289505187
-0.081991464 0.057861935 0.52569383 4289439394
-0.081086837 0.057820663 0.52531886 4289373855
-0.080183439 0.057779398 0.52494395 4289308062
-0.079281241 0.057738125 0.52456897 4289439648
-0.078436308 0.057738125 0.52456897 4289373855
-0.07753592 0.057696853 0.524194 4289308062
-0.076636732 0.05765558 0.52381903 4289308062
-0.075738758 0.057614308 0.52344406 4289702050
-0.074895643 0.057614308 0.52344406 4289570464
-0.073981807 0.057559285 0.52294415 4289570464
-0.073087052 0.057518013 0.52256918 4289570464
-0.072193503 0.05747674 0.52219421 4289505441
-0.0713524 0.05747674 0.52219421 4289571234
-0.070477545 0.057449225 0.52194422 4289505441
-0.069603495 0.05742171 0.52169424 4289505441
-0.06873025 0.057394203 0.52144432 4289571234
-0.067890354 0.057394203 0.52144432 4289768613
-0.067034394 0.057380445 0.52131933 4289768613
-0.066178828 0.057366688 0.52119434 4289834406
-0.065307997 0.057339173 0.52094436 4289768359
-0.064468905 0.057339173 0.52094436 4289702566
-0.063629821 0.057339173 0.52094436 4289768361
-0.062790729 0.057339173 0.52094436 4289834154
-0.061951641 0.057339173 0.52094436 4289899694
-0.061112549 0.057339173 0.52094436 4289965487
-0.060273465 0.057339173 0.52094436 4289899694
-0.059434373 0.057339173 0.52094436 4289899694
-0.058595281 0.057339173 0.52094436 4289899694
-0.057770051 0.05735293 0.52106935 4289965487
-0.056944415 0.057366688 0.52119434 4289965487
-0.056104925 0.057366688 0.52119434 4289965487
-0.05529194 0.057394203 0.52144432 4289834154
-0.054465089 0.057407953 0.52156925 4289899947
-0.053637847 0.05742171 0.52169424 4289965740
-0.052797548 0.05742171 0.52169424 4289965740
-0.051982149 0.057449225 0.52194422 4290031533
-0.051153697 0.057462983 0.52206922 4290031533
-0.050324842 0.05747674 0.52219421 4290163119
-0.049483739 0.05747674 0.52219421 4290163119
-0.048665918 0.057504255 0.52244419 4290228912
-0.047824416 0.057504255 0.52244419 4290294705
-0.047005393 0.05753177 0.52269417 4290228912
-0.046185564 0.057559285 0.52294415 4290228912
-0.04534325 0.057559285 0.52294415 4290294705
-0.044522215 0.0575868 0.52319413 4290228912
-0.043689933 0.05760055 0.52331907 4290294705
-0.042867482 0.057628065 0.52356905 4290294705
-0.042024169 0.057628065 0.52356905 4290229425
-0.041200511 0.05765558 0.52381903 4290229425
-0.040385682 0.057696853 0.524194 4290229172
-0.039569642 0.057738125 0.52456897 4290294965
-0.038752399 0.057779398 0.52494395 4290294965
-0.037906867 0.057779398 0.52494395 4290360758
-0.037096627 0.05783442 0.52544385 4290360758
-0.036284786 0.05788945 0.52594382 4290426551
-0.035471328 0.05794448 0.52644378 4290295737
-0.034623384 0.05794448 0.52644378 4290427323
-0.033807509 0.057999503 0.52694368 4290295737
-0.032990023 0.058054533 0.52744365 4290295737
-0.032170936 0.058109563 0.52794361 4290493116
-0.031342819 0.058150835 0.52831858 4290493116
-0.030491849 0.058150835 0.52831858 4290427321
-0.029661916 0.058192104 0.5286935 4290427321
-0.02883078 0.058233377 0.52906847 4290427321
-0.027998434 0.058274645 0.52944344 4290493114
-0.027145656 0.058274645 0.52944344 4290493371
-0.026305292 0.05830216 0.52969342 4290493371
-0.025476132 0.058357187 0.53019333 4290493114
-0.024645362 0.058412217 0.53069329 4290624700
-0.023818586 0.058481004 0.53131825 4290624700
-0.022962788 0.058481004 0.53131825 4290558907
-0.022132991 0.058549784 0.53194314 4290624700
-0.02131618 0.058659844 0.53294307 4290690493
-0.020496145 0.058769897 0.53394294 4290690493
-0.019682083 0.058907472 0.53519285 4290690493
-0.018820046 0.058907472 0.53519285 4290624700
-0.017999943 0.059045039 0.5364427 4290624700
-0.017151862 0.059100069 0.53694266 4290690493
-0.016309751 0.059182607 0.53769255 4290624700
-0.015465224 0.059265152 0.53844249 4290690493
-0.014597951 0.059265152 0.53844249 4290756286
-0.013746613 0.059333932 0.53906739 4290756286
-0.012896249 0.059416477 0.53981733 4290887872
-0.012046251 0.059512775 0.54069221 4290756286
-0.011190855 0.05959532 0.54144216 4290887872
-0.010318751 0.05959532 0.54144216 4290887872
-0.0094619086 0.059691615 0.54231703 4290953665
-0.0086022504 0.059787918 0.54319197 4291019458
-0.0077415504 0.05989797 0.54419184 4290887872
-0.006874477 0.059980515 0.54494178 4290953665
-0.0059967348 0.059980515 0.54494178 4290953665
-0.0051283855 0.060090568 0.54594165 4290953665
-0.0042568147 0.060200628 0.54694158 4290953665
-0.0033820232 0.06031068 0.54794145 4290953665
-0.0025051509 0.060448255 0.54919136 4290756286
-0.0016205639 0.060448255 0.54919136 4290690493
-0.00073765195 0.060585823 0.55044121 4290756286
0.00014928638 0.06072339 0.55169106 4290756286
0.0010407212 0.060888477 0.55319089 4290756286
0.0019369876 0.061053559 0.55469072 4290756286
0.0028304325 0.061053559 0.55469072 4290887872
0.0037339467 0.061218649 0.55619061 4290887872
0.0046422919 0.061383732 0.55769044 4290756286
0.0055505023 0.061493784 0.55869031 4290624700
0.0064677056 0.061658867 0.56019014 4290493114
0.0073700086 0.061658867 0.56019014 4290689725
0.0082907677 0.061796434 0.56143999 4290229174
-0.11318502 0.060914088 0.54544175 4289043866
-0.11228073 0.060900129 0.54531676 4289044120
-0.11140239 0.060900129 0.54531676 4289044120
-0.11052405 0.060900129 0.54531676 4289110683
-0.10916821 0.060634919 0.54294199 4289242269
-0.10824383 0.060607001 0.54269201 4289373855
-0.10736971 0.060607001 0.54269201 4289373855
-0.10634844 0.060523257 0.54194212 4289308062
-0.10547553 0.060523257 0.54194212 4289373855
-0.10224648 0.059657838 0.53419292 4289439648
-0.10138606 0.059657838 0.53419292 4289439648
-0.10064323 0.059727632 0.53481787 4289373855
-0.099781796 0.059727632 0.53481787 4289308575
-0.098897241 0.059713673 0.53469288 4289374368
-0.097944334 0.059657838 0.53419292 4289308321
-0.096993051 0.059602004 0.53369296 4289308321
-0.096133426 0.059602004 0.53369296 4289308321
-0.095162243 0.059532214 0.53306806 4289374114
-0.09417095 0.059448462 0.53231812 4289636003
-0.093160182 0.059350759 0.53144324 4289701796
-0.092304185 0.059350759 0.53144324 4289701796
-0.091233104 0.059211168 0.53019333 4289570210
-0.090208672 0.059099507 0.52919346 4289636003
-0.089208573 0.0590018 0.52831858 4289504417
-0.088357605 0.0590018 0.52831858 4289439394
-0.087403126 0.058932006 0.52769363 4289373601
-0.086471163 0.058876172 0.52719367 4289373601
-0.085622005 0.058876172 0.52719367 4289439394
-0.084692463 0.058820345 0.52669376 4289570980
-0.083804324 0.058792427 0.52644378 4289505187
-0.082897291 0.058750551 0.52606881 4289505187
-0.082049944 0.058750551 0.52606881 4289439394
-0.08114472 0.058708671 0.52569383 4289439648
-0.080240704 0.058666795 0.52531886 4289373855
-0.07933791 0.058624927 0.52494395 4289373855
-0.078492381 0.058624927 0.52494395 4289308062
-0.077591382 0.058583051 0.52456897 4289308062
-0.07669159 0.058541175 0.524194 4289308062
-0.075774923 0.05848534 0.52369404 4289636257
-0.074931413 0.05848534 0.52369404 4289241499
-0.074034847 0.058443464 0.52331907 4289504671
-0.073139496 0.058401592 0.52294415 4289636257
-0.072228059 0.058345757 0.52244419 4289571234
-0.071386553 0.058345757 0.52244419 4289505441
-0.070511304 0.05831784 0.52219421 4289373855
-0.069636844 0.058289923 0.52194422 4289439648
-0.068763196 0.058262005 0.52169424 4289571232
-0.067922898 0.058262005 0.52169424 4289768611
-0.067050464 0.058234096 0.52144432 4289834404
-0.066194698 0.058220137 0.52131933 4289702818
-0.065339334 0.058206178 0.52119434 4289702820
-0.06449984 0.058206178 0.52119434 4289702820
-0.063660353 0.058206178 0.52119434 4289570982
-0.062820859 0.058206178 0.52119434 4289768361
-0.061981369 0.058206178 0.52119434 4289833901
-0.061141875 0.058206178 0.52119434 4289899694
-0.060302388 0.058206178 0.52119434 4289899694
-0.059462894 0.058206178 0.52119434 4289833901
-0.0586234 0.058206178 0.52119434 4289899694
-0.057811625 0.058234096 0.52144432 4289965487
-0.056985378 0.058248047 0.52156925 4289899694
-0.056145284 0.058248047 0.52156925 4289899694
-0.055318441 0.058262005 0.52169424 4289899947
-0.054504246 0.058289923 0.52194422 4289899947
-0.0536764 0.058303881 0.52206922 4289899947
-0.052835498 0.058303881 0.52206922 4289965740
-0.052007046 0.05831784 0.52219421 4290031533
-0.051190436 0.058345757 0.52244419 4290031533
-0.050360978 0.058359716 0.52256918 4290163119
-0.049531117 0.058373675 0.52269417 4290228912
-0.048689205 0.058373675 0.52269417 4290228910
-0.047870185 0.058401592 0.52294415 4290294703
-0.04703911 0.058415551 0.52306914 4290163117
-0.04620764 0.058429509 0.52319413 4290163117
-0.045364928 0.058429509 0.52319413 4290294703
-0.044543482 0.058457423 0.52344406 4290163117
-0.043721236 0.05848534 0.52369404 4290228910
-0.042898186 0.058513258 0.52394402 4290294703
-0.042054266 0.058513258 0.52394402 4290229425
-0.041230004 0.058541175 0.524194 4290361011
-0.040414572 0.058583051 0.52456897 4290295218
-0.039597929 0.058624927 0.52494395 4290295218
-0.038789302 0.058680754 0.52544385 4290295218
-0.037942965 0.058680754 0.52544385 4290295218
-0.037131924 0.058736593 0.52594382 4290558137
-0.036319278 0.058792427 0.52644378 4290426551
-0.035505012 0.058848254 0.52694368 4290426551
-0.03465626 0.058848254 0.52694368 4290558137
-0.033839583 0.058904089 0.52744365 4290360758
-0.033021297 0.058959924 0.52794361 4290426551
-0.032193784 0.0590018 0.52831858 4290558137
-0.031365059 0.059043672 0.5286935 4290623930
-0.030513488 0.059043672 0.5286935 4290493114
-0.029675942 0.059071589 0.52894348 4290493114
-0.028844403 0.059113465 0.52931845 4290493367
-0.028011655 0.059155341 0.52969342 4290493367
-0.027177699 0.059197217 0.5300684 4290493367
-0.026323915 0.059197217 0.5300684 4290493367
-0.025488144 0.059239086 0.53044331 4290427321
-0.02465697 0.059294924 0.53094327 4290558907
-0.023824189 0.059350759 0.53144324 4290493114
-0.02296819 0.059350759 0.53144324 4290493114
-0.022143392 0.059434503 0.53219312 4290624700
-0.021321179 0.059532214 0.53306806 4290624700
-0.020505741 0.059657838 0.53419292 4290624700
-0.019695872 0.05981138 0.53556776 4290624700
-0.018833229 0.05981138 0.53556776 4290559164
-0.018008331 0.059937008 0.53669268 4290559164
-0.017175816 0.06004867 0.53769255 4290559164
-0.016324915 0.060104504 0.53819251 4290559164
-0.015479582 0.060188252 0.5389424 4290624957
-0.014611504 0.060188252 0.5389424 4290690750
-0.013762549 0.060272004 0.53969234 4290690493
-0.012911179 0.060355756 0.54044229 4290887872
-0.012057391 0.060439505 0.54119217 4290690493
-0.011206356 0.060551174 0.5421921 4290756286
-0.010333043 0.060551174 0.5421921 4290887872
-0.0094728125 0.060634919 0.54294199 4290756286
-0.0086121475 0.060732633 0.54381692 4290953665
-0.0077486625 0.060830336 0.5446918 4290887872
-0.0068823611 0.060928047 0.54556674 4290887874
-0.0060036122 0.060928047 0.54556674 4290953667
-0.0051319078 0.061011795 0.54631662 4290887872
-0.0042587607 0.061109506 0.54719156 4290953665
-0.0033835662 0.061221171 0.54819143 4290887872
-0.0025057206 0.061346792 0.54931629 4290756286
-0.0016209325 0.061346792 0.54931629 4290887872
-0.00073781941 0.061486378 0.5505662 4290690493
0.0001493202 0.061625961 0.55181605 4290558907
0.0010409564 0.061793461 0.55331588 4290690493
0.0019378606 0.061974917 0.5549407 4290690493
0.0028317082 0.061974917 0.5549407 4290690493
0.0037373027 0.062170334 0.55669051 4290690493
0.0046474938 0.062351793 0.55831534 4290624700
0.0055629197 0.062533252 0.55994016 4290493114
0.006474921 0.062630959 0.5608151 4290427321
0.0073782303 0.062630959 0.5608151 4290755520
0.0082907677 0.062700748 0.56143999 4288452765
-0.11318502 0.061792638 0.54544175 4289175193
-0.11228073 0.061778478 0.54531676 4288978327
-0.11140239 0.061778478 0.54531676 4288978327
-0.11052405 0.061778478 0.54531676 4288979097
-0.10916821 0.061509442 0.54294199 4289110683
-0.10824383 0.061481122 0.54269201 4289308062
-0.10736971 0.061481122 0.54269201 4289308062
-0.10598054 0.061183773 0.54006732 4289307808
-0.10447818 0.060815625 0.53681767 4289373601
-0.10361353 0.060815625 0.53681767 4289439648
-0.10224648 0.060518268 0.53419292 4289439648
-0.10138606 0.060518268 0.53419292 4289373855
-0.10064323 0.060589068 0.53481787 4289373855
-0.099781796 0.060589068 0.53481787 4289373855
-0.098897241 0.060574908 0.53469288 4289373855
-0.097944334 0.060518268 0.53419292 4289308575
-0.096993051 0.060461629 0.53369296 4289308575
-0.096133426 0.060461629 0.53369296 4289308575
-0.095162243 0.060390834 0.53306806 4289440161
-0.09417095 0.060305875 0.53231812 4289636257
-0.093160182 0.06020676 0.53144324 4289636257
-0.092304185 0.06020676 0.53144324 4289636003
-0.091233104 0.060065158 0.53019333 4289570210
-0.090208672 0.059951883 0.52919346 4289636003
-0.089208573 0.059852771 0.52831858 4289504417
-0.088357605 0.059852771 0.52831858 4289373601
-0.087403126 0.059781969 0.52769363 4289373601
-0.086512163 0.059753649 0.52744365 4289439394
-0.085662603 0.059753649 0.52744365 4289439394
-0.084752753 0.059711169 0.52706867 4289505187
-0.083844118 0.059668694 0.52669376 4289439394
-0.082936682 0.059626214 0.52631879 4289439394
-0.082088932 0.059626214 0.52631879 4289439394
-0.081202596 0.059597895 0.52606881 4289505187
-0.080297977 0.059555415 0.52569383 4289439394
-0.079394571 0.059512936 0.52531886 4289308062
-0.078548439 0.059512936 0.52531886 4289308062
-0.077646844 0.05947046 0.52494395 4289373855
-0.076728165 0.059413821 0.52444398 4289308062
-0.075811096 0.059357177 0.52394402 4289373085
-0.074967183 0.059357177 0.52394402 4289241499
-0.074070208 0.059314698 0.52356905 4289438878
-0.073174454 0.059272226 0.52319413 4289570464
-0.072262622 0.059215587 0.52269417 4289505441
-0.071420714 0.059215587 0.52269417 4289505441
-0.070545055 0.059187263 0.52244419 4289373855
-0.0696702 0.059158944 0.52219421 4289439648
-0.068796143 0.059130624 0.52194422 4289571234
-0.067955442 0.059130624 0.52194422 4289702820
-0.067082606 0.059102304 0.52169424 4289768613
-0.066226438 0.059088144 0.52156925 4289702820
-0.065370671 0.059073992 0.52144432 4289702820
-0.064530782 0.059073992 0.52144432 4289768613
-0.063690886 0.059073992 0.52144432 4289702566
-0.062850989 0.059073992 0.52144432 4289768359
-0.062011097 0.059073992 0.52144432 4289834154
-0.0611712 0.059073992 0.52144432 4289702568
-0.060331311 0.059073992 0.52144432 4289833901
-0.059491415 0.059073992 0.52144432 4289833901
-0.058651518 0.059073992 0.52144432 4289899694
-0.057839334 0.059102304 0.52169424 4289899694
-0.057012692 0.059116464 0.52181923 4289899694
-0.056172196 0.059116464 0.52181923 4289899694
-0.055344947 0.059130624 0.52194422 4289899947
-0.054530352 0.059158944 0.52219421 4289899947
-0.053702101 0.059173103 0.5223192 4289899947
-0.052860796 0.059173103 0.5223192 4289899947
-0.052044392 0.059201423 0.52256918 4289965740
-0.051227178 0.059229746 0.52281916 4289965740
-0.050397117 0.059243906 0.52294415 4290031531
-0.049578492 0.059272226 0.52319413 4290163117
-0.048735779 0.059272226 0.52319413 4290228910
-0.047904503 0.059286378 0.52331907 4290228910
-0.047072828 0.059300538 0.52344406 4290163117
-0.046251792 0.059328858 0.52369404 4290163117
-0.045408271 0.059328858 0.52369404 4290228910
-0.044575393 0.059343018 0.52381903 4290294703
-0.04375254 0.059371341 0.52406901 4290228910
-0.042939119 0.059413821 0.52444398 4290228910
-0.042094395 0.059413821 0.52444398 4290294703
-0.041269328 0.05944214 0.52469397 4290426289
-0.040453088 0.059484612 0.52506888 4290361009
-0.03963564 0.059527095 0.52544385 4290295216
-0.038826212 0.059583735 0.52594382 4290295218
-0.03797907 0.059583735 0.52594382 4290295218
-0.037167221 0.059640374 0.52644378 4290361011
-0.036353767 0.05969701 0.52694368 4290426804
-0.035538699 0.059753649 0.52744365 4290361011
-0.034722026 0.059810288 0.52794361 4290426804
-0.033871662 0.059810288 0.52794361 4290295218
-0.033044748 0.059852771 0.52831858 4290361011
-0.032216631 0.059895243 0.5286935 4290295218
-0.03139472 0.059951883 0.52919346 4290558390
-0.030542342 0.059951883 0.52919346 4290427574
-0.029703991 0.059980202 0.52944344 4290427574
-0.028864836 0.060008526 0.52969342 4290493367
-0.028031483 0.060051005 0.5300684 4290427574
-0.027196921 0.060093477 0.53044331 4290427574
-0.026342534 0.060093477 0.53044331 4290295988
-0.025506161 0.060135961 0.53081828 4290427574
-0.024674384 0.0601926 0.53131825 4290493367
-0.023840999 0.060249239 0.53181821 4290493367
-0.022984397 0.060249239 0.53181821 4290493367
-0.022158993 0.060334194 0.5325681 4290559160
-0.021331178 0.060419153 0.53331804 4290559160
-0.020515338 0.060546588 0.5344429 4290558907
-0.019700468 0.060688183 0.53569275 4290624700
-0.018837623 0.060688183 0.53569275 4290559164
-0.01801672 0.060829785 0.53694266 4290559164
-0.017183801 0.06094306 0.53794253 4290559164
-0.016340081 0.061028019 0.53869247 4290493371
-0.015493942 0.061112974 0.53944236 4290559164
-0.014625059 0.061112974 0.53944236 4290624957
-0.013778486 0.061212093 0.5403173 4290690493
-0.012926108 0.061297048 0.54106718 4290756286
-0.012074099 0.06139617 0.54194212 4290690493
-0.011216688 0.061481122 0.54269201 4290624700
-0.01034257 0.061481122 0.54269201 4290756286
-0.0094837155 0.061580244 0.54356694 4290756286
-0.0086220438 0.06167936 0.54444182 4290887872
-0.007755775 0.061764318 0.54519176 4290756286
-0.0068870904 0.061849274 0.54594165 4290756288
-0.0060077375 0.061849274 0.54594165 4290756288
-0.0051366044 0.061948393 0.54681659 4290887874
-0.0042616786 0.062033348 0.54756647 4290887874
-0.0033858805 0.062146626 0.5485664 4290887872
-0.0025074312 0.062274061 0.54969126 4290756286
-0.001622039 0.062274061 0.54969126 4290690493
-0.00073815446 0.062401503 0.55081618 4290690493
0.00014938784 0.062543102 0.55206603 4290690493
0.0010414267 0.062713012 0.55356586 4290690493
0.0019396065 0.062925406 0.55544066 4290624700
0.0028342593 0.062925406 0.55544066 4290624700
0.0037406592 0.063123643 0.55719048 4290493114
0.0046526962 0.063321881 0.55894029 4290427321
0.0055678864 0.063491791 0.56044012 4290295735
0.0064778072 0.063562594 0.56106508 4290493114
0.0073897406 0.06363339 0.56168997 4289833903
0.0082944594 0.06363339 0.56168997 4286281081
-0.11385936 0.06304457 0.54869139 4289241497
-0.11276969 0.062929682 0.54769146 4288650132
-0.11160666 0.062771708 0.54631662 4288847511
-0.1107267 0.062771708 0.54631662 4288979097
-0.10941952 0.062527575 0.54419184 4289110683
-0.10834355 0.06241269 0.54319197 4289110683
-0.10746862 0.06241269 0.54319197 4289110683
-0.10566169 0.061866973 0.53844249 4289242269
-0.10406464 0.061436146 0.53469288 4289308062
-0.10320341 0.061436146 0.53469288 4289439648
-0.10234217 0.061436146 0.53469288 4289308062
-0.10150467 0.061450507 0.53481787 4289308062
-0.10069028 0.061479229 0.53506786 4289373855
-0.09985175 0.06149359 0.53519285 4289308062
-0.09898971 0.06149359 0.53519285 4289308062
-0.098058917 0.061450507 0.53481787 4289308062
-0.097129345 0.061407421 0.5344429 4289308062
-0.096268512 0.061407421 0.5344429 4289373855
-0.095318422 0.061349977 0.53394294 4289439648
-0.094325736 0.061263815 0.53319305 4289636257
-0.093291633 0.061148923 0.53219312 4289636257
-0.092434429 0.061148923 0.53219312 4289636257
-0.091405168 0.061034039 0.53119326 4289570464
-0.090336516 0.060890429 0.52994341 4289570464
-0.089314088 0.060775541 0.52894348 4289504671
-0.088462114 0.060775541 0.52894348 4289504417
-0.087485939 0.060689379 0.52819359 4289504417
-0.086512163 0.060603209 0.52744365 4289373601
-0.085662603 0.060603209 0.52744365 4289307808
-0.084752753 0.060560126 0.52706867 4289439394
-0.083844118 0.060517047 0.52669376 4289373601
-0.082936682 0.060473964 0.52631879 4289373601
-0.082088932 0.060473964 0.52631879 4289439394
-0.081202596 0.060445238 0.52606881 4289636003
-0.080297977 0.060402155 0.52569383 4289504417
-0.079394571 0.060359072 0.52531886 4289438624
-0.078548439 0.060359072 0.52531886 4289438624
-0.077646844 0.060315993 0.52494395 4289504671
-0.076728165 0.060258549 0.52444398 4289373085
-0.075811096 0.060201101 0.52394402 4289241499
-0.074967183 0.060201101 0.52394402 4289241499
-0.074070208 0.060158018 0.52356905 4289438878
-0.073174454 0.060114939 0.52319413 4289504671
-0.072262622 0.060057495 0.52269417 4289504671
-0.071420714 0.060057495 0.52269417 4289504671
-0.070545055 0.060028773 0.52244419 4289504671
-0.0696702 0.060000047 0.52219421 4289504671
-0.068796143 0.059971325 0.52194422 4289439648
-0.067955442 0.059971325 0.52194422 4289505441
-0.067082606 0.059942603 0.52169424 4289505441
-0.066226438 0.059928242 0.52156925 4289505441
-0.065370671 0.059913885 0.52144432 4289571234
-0.064530782 0.059913885 0.52144432 4289768613
-0.063690886 0.059913885 0.52144432 4289702566
-0.062850989 0.059913885 0.52144432 4289768359
-0.062011097 0.059913885 0.52144432 4289834152
-0.0611712 0.059913885 0.52144432 4289505187
-0.060331311 0.059913885 0.52144432 4289768359
-0.059491415 0.059913885 0.52144432 4289834152
-0.058651518 0.059913885 0.52144432 4289834154
-0.057839334 0.059942603 0.52169424 4289834154
-0.057012692 0.059956964 0.52181923 4289965740
-0.056172196 0.059956964 0.52181923 4289965740
-0.055344947 0.059971325 0.52194422 4289768874
-0.054530352 0.060000047 0.52219421 4289768874
-0.053702101 0.060014408 0.5223192 4289768361
-0.052860796 0.060014408 0.5223192 4289899947
-0.052044392 0.060043134 0.52256918 4289965740
-0.051227178 0.060071856 0.52281916 4289965740
-0.050397117 0.060086217 0.52294415 4289965738
-0.049578492 0.060114939 0.52319413 4289965738
-0.048735779 0.060114939 0.52319413 4290031531
-0.047950272 0.06018674 0.52381903 4290163117
-0.047129028 0.060215462 0.52406901 4290031531
-0.046295948 0.060229823 0.524194 4290031531
-0.045451622 0.060229823 0.524194 4290163119
-0.044628575 0.060258549 0.52444398 4290163119
-0.043794282 0.06027291 0.52456897 4290294705
-0.042969819 0.060301632 0.52481896 4290163119
-0.042154584 0.060344711 0.52519387 4290163630
-0.041308649 0.060344711 0.52519387 4290361009
-0.040481977 0.060373433 0.52544385 4290295216
-0.039673351 0.060430877 0.52594382 4290229423
-0.038863119 0.060488325 0.52644378 4290229425
-0.038015172 0.060488325 0.52644378 4290295218
-0.037193693 0.0605314 0.52681869 4290361011
-0.036388259 0.060603209 0.52744365 4290361011
-0.035563964 0.060646292 0.52781862 4290361011
-0.034746688 0.06070374 0.52831858 4290361011
-0.03389572 0.06070374 0.52831858 4290295218
-0.033076018 0.060761176 0.52881849 4290295218
-0.032247096 0.060804263 0.52919346 4290229425
-0.031416968 0.060847346 0.52956843 4290361011
-0.030563984 0.060847346 0.52956843 4290427572
-0.029732041 0.060890429 0.52994341 4290427572
-0.028892078 0.060919147 0.53019333 4290427572
-0.02805792 0.06096223 0.5305683 4290427572
-0.027216148 0.060990952 0.53081828 4290427574
-0.026361154 0.060990952 0.53081828 4290230195
-0.025524179 0.061034039 0.53119326 4290427574
-0.024691798 0.061091483 0.53169322 4290493367
-0.023857806 0.061148923 0.53219312 4290493367
-0.0230006 0.061148923 0.53219312 4290493367
-0.022174595 0.061235093 0.53294307 4290559160
-0.021346172 0.061321255 0.53369296 4290493367
-0.020524934 0.061436146 0.53469288 4290493367
-0.019709662 0.061579753 0.53594273 4290624953
-0.018846415 0.061579753 0.53594273 4290558907
-0.018025106 0.061723359 0.53719258 4290624700
-0.01719578 0.061852612 0.5383175 4290427578
-0.016359037 0.061967496 0.53931737 4290493371
-0.015508302 0.062039305 0.53994232 4290559164
-0.014638613 0.062039305 0.53994232 4290559164
-0.013791234 0.062139828 0.5408172 4290624700
-0.012941038 0.062240358 0.54169214 4290756286
-0.012088021 0.062340882 0.54256701 4290690493
-0.011232188 0.062441412 0.54344195 4290624700
-0.010356862 0.062441412 0.54344195 4290756286
-0.0094946185 0.062527575 0.54419184 4290756286
-0.0086299609 0.062613741 0.54494178 4290887872
-0.0077628875 0.062699914 0.54569173 4290756286
-0.0068933978 0.062786072 0.54644161 4290756286
-0.0060132393 0.062786072 0.54644161 4290756286
-0.0051389523 0.062857881 0.54706657 4290690493
-0.0042636241 0.06294404 0.54781646 4290558907
-0.0033874235 0.063058935 0.54881638 4290756286
-0.0025085714 0.06318818 0.54994124 4290756286
-0.0016227766 0.06318818 0.54994124 4290624700
-0.00073848938 0.063317426 0.5510661 4290558907
0.00014942167 0.063446678 0.55219102 4290624700
0.0010416618 0.06361901 0.55369085 4290690493
0.0019400429 0.063834421 0.55556566 4290624700
0.002834897 0.063834421 0.55556566 4290624700
0.0037431766 0.064064197 0.55756545 4290493114
0.0046568578 0.064279616 0.55944026 4290295735
0.0055703702 0.064423226 0.5606901 4290295988
0.0064821355 0.064509384 0.56143999 4290493367
-0.1128469 0.063855536 0.54806644 4288847511
-0.11142793 0.063549735 0.54544175 4288781718
-0.11054938 0.063549735 0.54544175 4288979097
-0.10939439 0.06338954 0.54406685 4289044890
-0.10849313 0.063374989 0.54394192 4289110683
-0.107617 0.063374989 0.54394192 4289110683
-0.10548999 0.062632307 0.53756756 4289110683
-0.10382139 0.062151756 0.53344303 4289242269
-0.10296217 0.062151756 0.53344303 4289373855
-0.10198333 0.062078942 0.53281808 4289505441
-0.10112512 0.062078942 0.53281808 4289308062
-0.10069028 0.062341064 0.53506786 4289373855
-0.09985175 0.062355626 0.53519285 4289308062
-0.099151529 0.062457561 0.53606772 4289242269
-0.09819641 0.062399309 0.53556776 4289308062
-0.097242922 0.062341064 0.53506786 4289308062
-0.096381083 0.062341064 0.53506786 4289308062
-0.095452301 0.062297378 0.53469288 4289439648
-0.094480507 0.062224563 0.53406793 4289439648
-0.093445003 0.062108066 0.53306806 4289439648
-0.092586398 0.062108066 0.53306806 4289701537
-0.091577224 0.062006127 0.53219312 4289701537
-0.090464346 0.061831381 0.53069329 4289635744
-0.089398511 0.06168576 0.52944344 4289635744
-0.088545725 0.06168576 0.52944344 4289504417
-0.08754804 0.061583821 0.52856851 4289504417
-0.086594172 0.061511014 0.52794361 4289373601
-0.085662603 0.061452765 0.52744365 4289307808
-0.084813043 0.061452765 0.52744365 4289307808
-0.083903804 0.061409075 0.52706867 4289307808
-0.082995772 0.061365396 0.52669376 4289373601
-0.082108431 0.061336268 0.52644378 4289505187
-0.08126048 0.061336268 0.52644378 4289635490
-0.080355257 0.061292581 0.52606881 4289569697
-0.079451248 0.061248891 0.52569383 4289438624
-0.078585818 0.061234329 0.52556884 4289372831
-0.077683814 0.061190642 0.52519387 4289438624
-0.076783024 0.06114696 0.52481896 4289372831
-0.075865351 0.061088707 0.52431899 4289241499
-0.075020835 0.061088707 0.52431899 4289241499
-0.074105576 0.061030459 0.52381903 4289438365
-0.073209412 0.060986768 0.52344406 4289504158
-0.072314464 0.060943089 0.52306914 4289504671
-0.071471944 0.060943089 0.52306914 4289504671
-0.070578814 0.060899399 0.52269417 4289438878
-0.069703549 0.060870275 0.52244419 4289438878
-0.068829089 0.060841147 0.52219421 4289504671
-0.067987986 0.060841147 0.52219421 4289504671
-0.067114748 0.060812023 0.52194422 4289308062
-0.066274047 0.060812023 0.52194422 4289373855
-0.065417677 0.06079746 0.52181923 4289505441
-0.06456171 0.060782898 0.52169424 4289702820
-0.063721411 0.060782898 0.52169424 4289768613
-0.062881112 0.060782898 0.52169424 4289768613
-0.062040821 0.060782898 0.52169424 4289768613
-0.061200522 0.060782898 0.52169424 4289702820
-0.060360227 0.060782898 0.52169424 4289702820
-0.059519928 0.060782898 0.52169424 4289768613
-0.058693688 0.06079746 0.52181923 4289834152
-0.057867046 0.060812023 0.52194422 4289768359
-0.057053659 0.060841147 0.52219421 4289899947
-0.056212559 0.060841147 0.52219421 4289899947
-0.055384707 0.060855713 0.5223192 4289834154
-0.054569509 0.060884837 0.52256918 4289899947
-0.053740654 0.060899399 0.52269417 4289834154
-0.052898746 0.060899399 0.52269417 4289899947
-0.052081738 0.060928524 0.52294415 4289899947
-0.051263917 0.060957652 0.52319413 4289834154
-0.050433248 0.060972206 0.52331907 4289899945
-0.04961402 0.061001331 0.52356905 4289965738
-0.0487707 0.061001331 0.52356905 4289965738
-0.047950272 0.061030459 0.52381903 4289965738
-0.047129028 0.061059583 0.52406901 4290031531
-0.046295948 0.061074145 0.524194 4290031531
-0.045451622 0.061074145 0.524194 4290031533
-0.044628575 0.061103273 0.52444398 4289965740
-0.043794282 0.061117835 0.52456897 4290228912
-0.042969819 0.06114696 0.52481896 4290228912
-0.042154584 0.061190642 0.52519387 4290097839
-0.041308649 0.061190642 0.52519387 4290229425
-0.040481977 0.061219767 0.52544385 4290163632
-0.039673351 0.061278019 0.52594382 4290097839
-0.038863119 0.061336268 0.52644378 4290229172
-0.038015172 0.061336268 0.52644378 4290229172
-0.037193693 0.06137995 0.52681869 4290294965
-0.036388259 0.061452765 0.52744365 4290294965
-0.035563964 0.061496451 0.52781862 4290294965
-0.034746688 0.061554704 0.52831858 4290294965
-0.03389572 0.061554704 0.52831858 4290295218
-0.033076018 0.061612949 0.52881849 4290295218
-0.032247096 0.061656635 0.52919346 4290229425
-0.031416968 0.061700325 0.52956843 4290361011
-0.030563984 0.061700325 0.52956843 4290426804
-0.029732041 0.061744012 0.52994341 4290558390
-0.028892078 0.061773133 0.53019333 4290295988
-0.02805792 0.061816819 0.5305683 4290295988
-0.027216148 0.061845943 0.53081828 4290295988
-0.026361154 0.061845943 0.53081828 4290230195
-0.025524179 0.061889634 0.53119326 4290427574
-0.024691798 0.061947886 0.53169322 4290427574
-0.023857806 0.062006127 0.53219312 4290493367
-0.0230006 0.062006127 0.53219312 4290493367
-0.022174595 0.062093504 0.53294307 4290559160
-0.021346172 0.062180873 0.53369296 4290493367
-0.020524934 0.062297378 0.53469288 4290493367
-0.019709662 0.062442996 0.53594273 4290559160
-0.018846415 0.062442996 0.53594273 4290559160
-0.018025106 0.062588617 0.53719258 4290559160
-0.01719578 0.06271968 0.5383175 4290427831
-0.016359037 0.062836178 0.53931737 4290493624
-0.015508302 0.062908992 0.53994232 4290559164
-0.014638613 0.062908992 0.53994232 4290559164
-0.013791234 0.063010924 0.5408172 4290559164
-0.012941038 0.063112862 0.54169214 4290624957
-0.012088021 0.063214794 0.54256701 4290559164
-0.011232188 0.063316733 0.54344195 4290493371
-0.010356862 0.063316733 0.54344195 4290624700
-0.0094946185 0.063404106 0.54419184 4290756286
-0.0086299609 0.063491479 0.54494178 4290756286
-0.0077628875 0.063578859 0.54569173 4290690493
-0.0068933978 0.063666224 0.54644161 4290756286
-0.0060132393 0.063666224 0.54644161 4290690493
-0.0051389523 0.063739039 0.54706657 4290624700
-0.0042636241 0.063826412 0.54781646 4290558907
-0.0033874235 0.063942917 0.54881638 4290690493
-0.0025085714 0.064073972 0.54994124 4290690493
-0.0016227766 0.064073972 0.54994124 4290624700
-0.00073848938 0.064205028 0.5510661 4290624700
0.00014942167 0.064336091 0.55219102 4290624700
0.0010416618 0.064510837 0.55369085 4290558907
0.0019400429 0.064729273 0.55556566 4290624700
0.002834897 0.064729273 0.55556566 4290624700
0.0037406592 0.064918585 0.55719048 4290493114
0.0046547768 0.06515158 0.55919027 4290098356
0.0055703702 0.065326326 0.5606901 4290295988
0.0064821355 0.065413699 0.56143999 4289638058
-0.11142793 0.064428285 0.54544175 4288716436
-0.11054938 0.064428285 0.54544175 4288782231
-0.10939439 0.064265877 0.54406685 4288848024
-0.10851805 0.064265877 0.54406685 4288913302
-0.10764171 0.064265877 0.54406685 4288979095
-0.10548999 0.063498169 0.53756756 4289044888
-0.10382139 0.063010976 0.53344303 4289110681
-0.10296217 0.063010976 0.53344303 4289242269
-0.10198333 0.062937155 0.53281808 4289373855
-0.10112512 0.062937155 0.53281808 4289373855
-0.1007138 0.06321767 0.53519285 4289373855
-0.1000383 0.063335776 0.53619272 4289308062
-0.099267125 0.06339483 0.53669268 4289439648
-0.098311 0.063335776 0.53619272 4289373855
-0.097356491 0.063276716 0.53569275 4289308062
-0.096403599 0.06321767 0.53519285 4289242269
-0.095541552 0.06321767 0.53519285 4289308062
-0.094635293 0.063188143 0.53494287 4289439648
-0.093598366 0.063070029 0.53394294 4289505441
-0.092738345 0.063070029 0.53394294 4289702050
-0.091706268 0.062951922 0.53294307 4289570464
-0.090506956 0.062715702 0.53094327 4289636257
-0.089482926 0.062597595 0.52994341 4289570464
-0.088629343 0.062597595 0.52994341 4289570210
-0.087651551 0.062509015 0.52919346 4289504417
-0.086676165 0.062420428 0.52844352 4289504419
-0.085723504 0.062346615 0.52781862 4289438626
-0.084873341 0.062346615 0.52781862 4289307810
-0.083963491 0.062302325 0.52744365 4289242017
-0.083054848 0.062258031 0.52706867 4289439396
-0.082166903 0.062228505 0.52681869 4289373603
-0.081318349 0.062228505 0.52681869 4289570210
-0.080412529 0.062184218 0.52644378 4289504417
-0.079507917 0.062139925 0.52606881 4289504417
-0.078585818 0.062080868 0.52556884 4289438624
-0.077739276 0.062080868 0.52556884 4289438624
-0.076819591 0.062021814 0.52506888 4289372831
-0.075901523 0.061962765 0.52456897 4289241499
-0.075038716 0.061947998 0.52444398 4289241499
-0.074140944 0.061903708 0.52406901 4289373085
-0.073244371 0.061859414 0.52369404 4289438878
-0.072331741 0.061800364 0.52319413 4289504158
-0.071489029 0.061800364 0.52319413 4289569951
-0.070612565 0.061770838 0.52294415 4289504671
-0.069736898 0.061741307 0.52269417 4289504671
-0.068862043 0.061711781 0.52244419 4289438878
-0.068020537 0.061711781 0.52244419 4289438878
-0.06714689 0.061682254 0.52219421 4289438878
-0.066305786 0.061682254 0.52219421 4289504671
-0.065449014 0.061667487 0.52206922 4289504671
-0.064592645 0.061652724 0.52194422 4289702050
-0.063751943 0.061652724 0.52194422 4289702820
-0.062911242 0.061652724 0.52194422 4289702820
-0.062085412 0.061667487 0.52206922 4289571234
-0.06124451 0.061667487 0.52206922 4289702820
-0.060403612 0.061667487 0.52206922 4289702820
-0.059562705 0.061667487 0.52206922 4289768613
-0.058735862 0.061682254 0.52219421 4289768359
