# .PCD v0.7 - Point Cloud Data file format
VERSION 0.7
FIELDS x y z rgba
SIZE 4 4 4 4
TYPE F F F U
COUNT 1 1 1 1
WIDTH 1012
HEIGHT 1
VIEWPOINT 0 0 0 1 0 0 0
POINTS 1012
DATA ascii
-0.00084273744 -0.019626295 0.28559449 4291150014
-0.0003788757 -0.019428743 0.28271979 4291084221
7.6300421e-05 -0.019377209 0.28196988 4290952635
0.00053047156 -0.019377209 0.28196988 4291150014
0.00098420621 -0.019368619 0.28184488 4291215807
0.001438176 -0.019368619 0.28184488 4291150014
0.0018921458 -0.019368619 0.28184488 4291084734
0.0023461157 -0.019368619 0.28184488 4291216320
0.0028000856 -0.019368619 0.28184488 4291216320
0.0032526122 -0.01936003 0.28171989 4291282113
0.0036948703 -0.019299906 0.28084499 4291216320
0.0041472297 -0.019299906 0.28084499 4291282113
0.0045852601 -0.019239781 0.27997008 4291282113
0.0050317138 -0.019222604 0.27972013 4291282113
0.0054822615 -0.019222604 0.27972013 4291282113
0.0059328089 -0.019222604 0.27972013 4291216320
0.0063833562 -0.019222604 0.27972013 4291282113
0.006833904 -0.019222604 0.27972013 4291347906
0.0072909603 -0.019239781 0.27997008 4291347906
0.0077419104 -0.019239781 0.27997008 4291282113
0.0081928605 -0.019239781 0.27997008 4291282113
0.0086438106 -0.019239781 0.27997008 4291282113
0.0090947608 -0.019239781 0.27997008 4291282113
0.0095542334 -0.019256961 0.28022006 4291282113
0.01005914 -0.01936003 0.28171989 4291347653
0.010531566 -0.019394388 0.28221986 4291281860
0.011078582 -0.019557582 0.2845946 4291479492
0.011390045 -0.019308494 0.28096998 4291479492
0.011810998 -0.019256961 0.28022006 4291545285
0.01226235 -0.019256961 0.28022006 4291545285
0.012713702 -0.019256961 0.28022006 4291479490
0.013170928 -0.019265549 0.28034505 4291479490
0.013628555 -0.01927414 0.28047004 4291545283
0.014080311 -0.01927414 0.28047004 4291611076
0.014532066 -0.01927414 0.28047004 4291545283
0.014983822 -0.01927414 0.28047004 4291611076
0.015435576 -0.01927414 0.28047004 4291545283
0.015894411 -0.019282728 0.28059503 4291347904
0.016360931 -0.019299906 0.28084499 4291611076
0.016813289 -0.019299906 0.28084499 4291676869
0.017273333 -0.019308494 0.28096998 4291611078
0.01770224 -0.019282728 0.28059503 4291676871
0.018154196 -0.019282728 0.28059503 4291808457
0.018564712 -0.019239781 0.27997008 4291742664
0.019015662 -0.019239781 0.27997008 4291742151
0.019466612 -0.019239781 0.27997008 4291807944
0.019917561 -0.019239781 0.27997008 4291808457
0.020368513 -0.019239781 0.27997008 4291808457
0.020819463 -0.019239781 0.27997008 4291742664
0.021270413 -0.019239781 0.27997008 4291808457
0.021740757 -0.019256961 0.28022006 4291808457
0.022221806 -0.019282728 0.28059503 4291940043
0.022673763 -0.019282728 0.28059503 4291808457
0.02324933 -0.019385798 0.28209487 4291808457
0.023987265 -0.019617707 0.2854695 4291677641
0.024233002 -0.019445922 0.28296977 4291809227
0.024590638 -0.019368619 0.28184488 4291677641
0.025033502 -0.01936003 0.28171989 4291809227
0.025453348 -0.019334264 0.28134495 4291809227
0.025895003 -0.019325674 0.28121996 4291809227
0.026347965 -0.019325674 0.28121996 4291874767
0.026800929 -0.019325674 0.28121996 4291874767
0.027253894 -0.019325674 0.28121996 4291874767
0.027706856 -0.019325674 0.28121996 4291808974
0.02815982 -0.019325674 0.28121996 4291874767
0.028625499 -0.019334264 0.28134495 4291874767
0.029078664 -0.019334264 0.28134495 4291874767
0.029571187 -0.01936003 0.28171989 4291808974
0.030344654 -0.019566171 0.28471959 4292006353
0.031154826 -0.019789489 0.28796923 4291940560
0.031056002 -0.019437334 0.28284478 4291940560
0.031511582 -0.019437334 0.28284478 4291940560
0.0318259 -0.01935144 0.2815949 4291808204
0.032279469 -0.01935144 0.2815949 4291939790
0.032747567 -0.01936003 0.28171989 4291808974
0.033201333 -0.01936003 0.28171989 4291874767
0.033655103 -0.01936003 0.28171989 4292006353
0.034124002 -0.019368619 0.28184488 4291940560
0.034593306 -0.019377209 0.28196988 4291940560
0.035047479 -0.019377209 0.28196988 4291940560
0.035501651 -0.019377209 0.28196988 4292006353
0.036003638 -0.019402977 0.28234485 4292006353
0.036474548 -0.019411564 0.28246981 4292071629
0.036945865 -0.019420154 0.2825948 4292203215
0.037417583 -0.019428743 0.28271979 4292203215
0.037872963 -0.019428743 0.28271979 4292137422
0.038328346 -0.019428743 0.28271979 4292006606
0.038800869 -0.019437334 0.28284478 4292072399
0.039273795 -0.019445922 0.28296977 4292202962
0.039729577 -0.019445922 0.28296977 4292268755
0.040256359 -0.019480279 0.28346971 4292400341
0.040784754 -0.019514637 0.28396967 4292268755
0.041278444 -0.019531813 0.28421962 4292202964
0.041791301 -0.019557582 0.2845946 4292202964
0.042305369 -0.01958335 0.28496957 4292072148
0.042764373 -0.01958335 0.28496957 4292269527
0.043299206 -0.019617707 0.2854695 4292597209
0.043816488 -0.019643474 0.28584448 4292597209
0.044354338 -0.019677831 0.28634441 4292728023
0.044874243 -0.019703599 0.28671938 4292596437
0.045355827 -0.019712185 0.28684434 4292662230
0.045817848 -0.019712185 0.28684434 4292596437
0.0463202 -0.019729365 0.28709432 4292268242
0.046802994 -0.019737955 0.28721932 4292334035
0.04728619 -0.019746544 0.28734431 4292531416
0.04774902 -0.019746544 0.28734431 4292334037
0.048232816 -0.019755134 0.2874693 4292268757
0.048738185 -0.01977231 0.28771925 4292400343
0.049244367 -0.019789489 0.28796923 4292269529
0.049751353 -0.019806668 0.28821921 4292137943
0.050215591 -0.019806668 0.28821921 4292269527
0.050767731 -0.019841025 0.28871915 4292335320
0.051321492 -0.019875383 0.28921911 4292269527
0.051876858 -0.019909738 0.28971905 4292269527
0.052433841 -0.019944096 0.29021901 4292137941
0.05301521 -0.019987041 0.29084393 4292269527
0.053483672 -0.019987041 0.29084393 4292269527
0.05402169 -0.020012807 0.29121888 4292269527
0.054560922 -0.020038577 0.29159385 4292335320
0.055101361 -0.020064345 0.29196882 4292335320
0.055643003 -0.020090111 0.29234377 4292466906
0.056161862 -0.02010729 0.29259375 4292401113
0.056633148 -0.02010729 0.29259375 4292269527
0.057177607 -0.020133056 0.29296869 4292072148
0.057723284 -0.020158825 0.29334366 4292269784
0.058270153 -0.020184591 0.29371861 4292269784
0.058818243 -0.020210359 0.29409358 4291941589
0.059291944 -0.020210359 0.29409358 4292073175
0.05986724 -0.020244716 0.29459351 4292204509
0.060444154 -0.020279074 0.29509348 4292138716
0.06099686 -0.02030484 0.29546842 4292138718
0.061576795 -0.020339198 0.29596838 4292204511
0.062053513 -0.020339198 0.29596838 4292204509
0.062635854 -0.020373555 0.29646832 4292204509
0.063166596 -0.020390732 0.2967183 4292270302
0.063751757 -0.020425089 0.29721823 4292138716
0.064284511 -0.020442268 0.29746822 4292138970
0.064845286 -0.020468036 0.29784319 4292204763
0.065325022 -0.020468036 0.29784319 4292008154
0.0658876 -0.020493804 0.29821813 4292073947
0.066479206 -0.02052816 0.29871809 4292008154
0.067072421 -0.020562517 0.29921803 4291942361
0.067639031 -0.020588284 0.299593 4292074460
0.06812159 -0.020588284 0.299593 4291942874
0.068747245 -0.02063123 0.30021793 4292074460
0.069403738 -0.020682765 0.30096784 4292008667
0.070033625 -0.02072571 0.30159277 4292074460
0.070665538 -0.020768657 0.30221772 4292140253
-0.052554619 -0.0217162 0.32359043 4289438624
-0.052033406 -0.0217162 0.32359043 4288978073
-0.051492304 -0.021707812 0.32346544 4289109659
-0.050853122 -0.021657486 0.32271552 4289373085
-0.050333321 -0.021657486 0.32271552 4289438878
-0.049157571 -0.021372298 0.31846598 4289504671
-0.048644613 -0.021372298 0.31846598 4289504671
-0.047489405 -0.02108711 0.31421643 4289504671
-0.046983294 -0.02108711 0.31421643 4289636257
-0.046236847 -0.020978067 0.31259161 4289702050
-0.045641918 -0.020936128 0.31196666 4289636257
-0.045139428 -0.020936128 0.31196666 4289505187
-0.044529647 -0.020885801 0.31121674 4289505187
-0.043922275 -0.020835474 0.31046683 4289570980
-0.0434222 -0.020835474 0.31046683 4289768359
-0.042438306 -0.020600613 0.3069672 4289702566
-0.04194387 -0.020600613 0.3069672 4289768359
-0.041128781 -0.020441243 0.30459246 4289834665
-0.040521439 -0.020382529 0.30371755 4289834665
-0.040032241 -0.020382529 0.30371755 4289834667
-0.03954304 -0.020382529 0.30371755 4289900460
-0.039053842 -0.020382529 0.30371755 4290163119
-0.038532898 -0.020365752 0.30346757 4290031533
-0.038012765 -0.020348977 0.30321762 4290096554
-0.037524369 -0.020348977 0.30321762 4290293933
-0.037005443 -0.020332202 0.30296764 4290293933
-0.036442123 -0.020290263 0.30234271 4290162347
-0.035955139 -0.020290263 0.30234271 4290162347
-0.035042945 -0.020047015 0.29871809 4290293933
-0.034561798 -0.020047015 0.29871809 4290425519
-0.033852495 -0.019912807 0.2967183 4290359726
-0.033346448 -0.019896032 0.29646832 4290359980
-0.032868925 -0.019896032 0.29646832 4290359980
-0.032336779 -0.01986248 0.29596838 4290359980
-0.031860061 -0.01986248 0.29596838 4290294187
-0.031370088 -0.019854093 0.29584339 4290294187
-0.030893572 -0.019854093 0.29584339 4290425773
-0.030404205 -0.019845704 0.2957184 4290425773
-0.029927887 -0.019845704 0.2957184 4290425773
-0.029439125 -0.019837316 0.29559341 4290490799
-0.028963009 -0.019837316 0.29559341 4290556592
-0.028535077 -0.019870868 0.29609337 4290425519
-0.028046312 -0.01986248 0.29596838 4290491312
-0.027499737 -0.019812154 0.29521847 4290360496
-0.027024228 -0.019812154 0.29521847 4290360496
-0.026470037 -0.019753439 0.29434356 4290294703
-0.02587451 -0.019661171 0.29296869 4290360496
-0.025402622 -0.019661171 0.29296869 4290360498
-0.024866922 -0.019610845 0.29221877 4290360498
-0.024375373 -0.01959407 0.29196882 4290426291
-0.023905097 -0.01959407 0.29196882 4290360498
-0.023444852 -0.019602455 0.29209378 4290360498
-0.022964543 -0.01959407 0.29196882 4290426291
-0.022494268 -0.01959407 0.29196882 4290622900
-0.022099413 -0.019661171 0.29296869 4290557107
-0.021765929 -0.019786989 0.29484349 4290622900
-0.021309074 -0.019803766 0.29509348 4290622900
-0.020648457 -0.01962762 0.29246876 4290622900
-0.020048033 -0.019501802 0.29059395 4290557107
-0.019504176 -0.01942631 0.28946906 4290359728
-0.018955726 -0.019342434 0.28821921 4290557107
-0.018467432 -0.019317267 0.28784424 4290492082
-0.018003797 -0.019317267 0.28784424 4290492082
-0.01753255 -0.01930888 0.28771925 4290426289
-0.017069118 -0.01930888 0.28771925 4290492082
-0.016612899 -0.019317267 0.28784424 4290623668
-0.016149266 -0.019317267 0.28784424 4290492082
-0.015644768 -0.019266941 0.28709432 4290492082
-0.015109637 -0.019174676 0.28571948 4290492082
-0.014649427 -0.019174676 0.28571948 4290492082
-0.014077489 -0.019023692 0.28346971 4290689461
-0.013620903 -0.019023692 0.28346971 4290689463
-0.013164314 -0.019023692 0.28346971 4290689463
-0.012707728 -0.019023692 0.28346971 4290623670
-0.012256543 -0.019032082 0.2835947 4290492084
-0.011830958 -0.019082408 0.28434461 4290689463
-0.011392958 -0.01911596 0.28484458 4290755256
-0.01094855 -0.019141123 0.28521952 4290689463
-0.01049374 -0.019149512 0.28534451 4290689463
-0.010034134 -0.019149512 0.28534451 4290755256
-0.0095787207 -0.0191579 0.2854695 4290689463
-0.0091508534 -0.019225003 0.2864694 4290689461
-0.0087728417 -0.019409535 0.28921911 4290689461
-0.0083213532 -0.019443087 0.28971905 4290689461
-0.0077767628 -0.019250166 0.28684434 4290689461
-0.0072669326 -0.019124348 0.28496957 4290755254
-0.0068079298 -0.019124348 0.28496957 4290689461
-0.0063155107 -0.019023692 0.28346971 4290755254
-0.0058408407 -0.018964978 0.2825948 4290755254
-0.0053856634 -0.018964978 0.2825948 4290755254
-0.0049283043 -0.018956589 0.28246981 4290821047
-0.0044733281 -0.018956589 0.28246981 4291083449
-0.0040183519 -0.018956589 0.28246981 4291083449
-0.0035633754 -0.018956589 0.28246981 4291083449
-0.0031207777 -0.019032082 0.2835947 4291083449
-0.0026639896 -0.019032082 0.2835947 4291017656
-0.0022490302 -0.01939276 0.28896913 4291017656
-0.0017835853 -0.01939276 0.28896913 4291083449
-0.0013124389 -0.01930888 0.28771925 4291083449
-0.00084900722 -0.01930888 0.28771925 4291215035
-0.00037921072 -0.018990142 0.28296977 4291280828
7.6300421e-05 -0.018923039 0.28196988 4291084221
0.00053047156 -0.018923039 0.28196988 4291150014
0.00098464265 -0.018923039 0.28196988 4291215807
0.0014388139 -0.018923039 0.28196988 4291215807
0.001892985 -0.018923039 0.28196988 4291215807
0.0023471562 -0.018923039 0.28196988 4291281600
0.0028013273 -0.018923039 0.28196988 4291216320
0.0032526122 -0.018906262 0.28171989 4291216320
0.0036948703 -0.018847547 0.28084499 4291282113
0.0041472297 -0.018847547 0.28084499 4291282113
0.0045852601 -0.018788833 0.27997008 4291084734
0.0050317138 -0.018772058 0.27972013 4291282113
0.0054822615 -0.018772058 0.27972013 4291282113
0.0059328089 -0.018772058 0.27972013 4291282113
0.0063833562 -0.018772058 0.27972013 4291282113
0.0068369568 -0.018780444 0.27984509 4291282113
0.0072909603 -0.018788833 0.27997008 4291347906
0.0077419104 -0.018788833 0.27997008 4291282113
0.0081928605 -0.018788833 0.27997008 4291347906
0.0086438106 -0.018788833 0.27997008 4291282113
0.009102881 -0.018805608 0.28022006 4291347906
0.0095584951 -0.018813998 0.28034505 4291282113
0.010045752 -0.018881099 0.28134495 4291347653
0.010531566 -0.018939815 0.28221986 4291281860
0.010947216 -0.018872712 0.28121996 4291479239
0.011384978 -0.018847547 0.28084499 4291479239
0.011816266 -0.018813998 0.28034505 4291479492
0.01226782 -0.018813998 0.28034505 4291479492
0.012719373 -0.018813998 0.28034505 4291479492
0.0131768 -0.018822385 0.28047004 4291479492
0.013628555 -0.018822385 0.28047004 4291545283
0.014086585 -0.018830772 0.28059503 4291611076
0.014538542 -0.018830772 0.28059503 4291611076
0.014990499 -0.018830772 0.28059503 4291545283
0.015449333 -0.01883916 0.28072 4291479490
0.015901491 -0.01883916 0.28072 4291347904
0.01635365 -0.01883916 0.28072 4291611076
0.016805807 -0.01883916 0.28072 4291676869
0.017250283 -0.018830772 0.28059503 4291611078
0.017678583 -0.018805608 0.28022006 4291676871
0.018129935 -0.018805608 0.28022006 4291873737
0.018581288 -0.018805608 0.28022006 4291873737
0.01903264 -0.018805608 0.28022006 4291807944
0.019483995 -0.018805608 0.28022006 4291807944
0.019935345 -0.018805608 0.28022006 4291807944
0.0203867 -0.018805608 0.28022006 4291807944
0.020838052 -0.018805608 0.28022006 4291807944
0.021289404 -0.018805608 0.28022006 4292005323
0.021760153 -0.018822385 0.28047004 4292005323
0.022231702 -0.01883916 0.28072 4291873737
0.022683861 -0.01883916 0.28072 4291940043
0.02324933 -0.018931426 0.28209487 4291808457
0.023976762 -0.019149512 0.28534451 4291808457
0.024233002 -0.018990142 0.28296977 4291808457
0.024590638 -0.018914651 0.28184488 4291677641
0.025044607 -0.018914651 0.28184488 4291809227
0.025464656 -0.018889489 0.28146994 4291809227
0.025895003 -0.018872712 0.28121996 4291677641
0.026347965 -0.018872712 0.28121996 4291808974
0.026800929 -0.018872712 0.28121996 4291874767
0.027253894 -0.018872712 0.28121996 4291808974
0.027706856 -0.018872712 0.28121996 4291808974
0.028172337 -0.018881099 0.28134495 4291808974
0.028625499 -0.018881099 0.28134495 4291874767
0.029078664 -0.018881099 0.28134495 4291874767
0.029571187 -0.018906262 0.28171989 4291808974
0.030318011 -0.019090796 0.2844696 4291808974
0.031154826 -0.019325657 0.28796923 4291874767
0.031056002 -0.018981755 0.28284478 4291940560
0.031511582 -0.018981755 0.28284478 4291940560
0.031840026 -0.018906262 0.28171989 4291808974
0.032293797 -0.018906262 0.28171989 4291808974
0.032762095 -0.018914651 0.28184488 4291875024
0.033216063 -0.018914651 0.28184488 4291875024
0.033684965 -0.018923039 0.28196988 4292006353
0.034139138 -0.018923039 0.28196988 4292006353
0.034608644 -0.018931426 0.28209487 4292006353
0.035078548 -0.018939815 0.28221986 4292006353
0.035533123 -0.018939815 0.28221986 4292137169
0.036019571 -0.018956589 0.28246981 4292071376
0.03649069 -0.018964978 0.2825948 4292203215
0.036962204 -0.018973365 0.28271979 4292137422
0.037417583 -0.018973365 0.28271979 4292203215
0.037872963 -0.018973365 0.28271979 4292071629
0.038328346 -0.018973365 0.28271979 4292137422
0.038800869 -0.018981755 0.28284478 4292137422
0.039308492 -0.019006919 0.28321975 4292137169
0.039817318 -0.019032082 0.2835947 4292202962
0.04027411 -0.019032082 0.2835947 4292268755
0.040802702 -0.019065633 0.28409466 4292202962
0.041314747 -0.019090796 0.2844696 4292137171
0.04182801 -0.01911596 0.28484458 4292202964
0.042342473 -0.019141123 0.28521952 4292268757
0.042801879 -0.019141123 0.28521952 4292531929
0.043337122 -0.019174676 0.28571948 4292466134
0.043873962 -0.019208226 0.28621942 4292531927
0.044393063 -0.019233391 0.28659439 4292662230
0.044913363 -0.019258553 0.28696933 4292464851
0.045395352 -0.019266941 0.28709432 4292464851
0.04585778 -0.019266941 0.28709432 4292662230
0.046360534 -0.019283717 0.28734431 4292465621
0.04684373 -0.019292105 0.2874693 4292268242
0.047327328 -0.019300494 0.28759429 4292334037
0.047811326 -0.01930888 0.28771925 4292334037
0.048274752 -0.01930888 0.28771925 4292268759
0.048780531 -0.019325657 0.28796923 4292400345
0.049287114 -0.019342434 0.28821921 4292335068
0.049794503 -0.019359209 0.2884692 4292071896
0.050346244 -0.01939276 0.28896913 4292071896
0.050811686 -0.01939276 0.28896913 4292137689
0.051365845 -0.01942631 0.28946906 4292072150
0.051943999 -0.019468252 0.29009402 4292269529
0.052501582 -0.019501802 0.29059395 4292137941
0.053083558 -0.019543741 0.29121888 4292072148
0.053621575 -0.019568905 0.29159385 4292335320
0.054091249 -0.019568905 0.29159385 4292137941
0.054631084 -0.01959407 0.29196882 4292269529
0.055148534 -0.019610845 0.29221877 4292335322
0.055690583 -0.019636009 0.29259375 4292401115
0.056209847 -0.019652784 0.29284373 4292401115
0.056681532 -0.019652784 0.29284373 4292269529
0.057226397 -0.019677946 0.29321867 4292072150
0.057747878 -0.019694723 0.29346865 4292335579
0.058319747 -0.019728275 0.29396859 4292269786
0.05884324 -0.01974505 0.29421857 4291941591
0.059317142 -0.01974505 0.29421857 4292073177
0.05989264 -0.019778602 0.2947185 4292072923
0.060444154 -0.019803766 0.29509348 4292072923
0.061022665 -0.019837316 0.29559341 4292138718
0.061576795 -0.01986248 0.29596838 4292204511
0.062053513 -0.01986248 0.29596838 4292204509
0.062635854 -0.019896032 0.29646832 4292138716
0.063219815 -0.019929584 0.29696828 4292204509
0.063778564 -0.019954747 0.29734322 4292138716
0.064392552 -0.019996688 0.29796818 4292204763
0.064981341 -0.020030238 0.29846811 4292270556
0.065462083 -0.020030238 0.29846811 4292138970
0.066025674 -0.020055402 0.29884309 4292204763
0.066590466 -0.020080565 0.29921803 4292008152
0.067156471 -0.020105729 0.299593 4292008152
0.067695461 -0.020122504 0.29984295 4292008665
0.068178423 -0.020122504 0.29984295 4291942872
0.068775862 -0.020156056 0.30034292 4292008667
0.069403738 -0.020197995 0.30096784 4291942874
0.070033625 -0.020239934 0.30159277 4291942874
0.070665538 -0.020281876 0.30221772 4292008667
-0.052574918 -0.021203177 0.32371542 4288583317
-0.052053504 -0.021203177 0.32371542 4289043866
-0.0515122 -0.021194989 0.32359043 4289109659
-0.050912213 -0.021162244 0.32309049 4289240986
-0.050391804 -0.021162244 0.32309049 4289504158
-0.049466256 -0.020990327 0.32046577 4289504158
-0.048950076 -0.020990327 0.32046577 4289569951
-0.047564961 -0.020613743 0.31471637 4289504671
-0.047058046 -0.020613743 0.31471637 4289570464
-0.046255335 -0.02048276 0.3127166 4289636003
-0.045623634 -0.020425454 0.3118417 4289636003
-0.045121349 -0.020425454 0.3118417 4289439394
-0.044547532 -0.020392707 0.31134173 4289439394
-0.044046048 -0.020392707 0.31134173 4289570980
-0.043544568 -0.020392707 0.31134173 4289702566
-0.0426111 -0.020188043 0.30821708 4289702566
-0.042114653 -0.020188043 0.30821708 4289768359
-0.041162536 -0.019967007 0.30484244 4289834667
-0.040538117 -0.019901514 0.30384254 4289900460
-0.040048715 -0.019901514 0.30384254 4289965740
-0.039559312 -0.019901514 0.30384254 4290031533
-0.039053842 -0.019893328 0.30371755 4290163119
-0.038548771 -0.019885141 0.30359256 4290031533
-0.03802843 -0.019868767 0.30334258 4290096556
-0.037539832 -0.019868767 0.30334258 4290162349
-0.037020709 -0.019852394 0.30309263 4290162347
-0.036457185 -0.019811461 0.30246767 4290162347
-0.035970002 -0.019811461 0.30246767 4290096554
-0.035042945 -0.019565865 0.29871809 4290162347
-0.034561798 -0.019565865 0.29871809 4290359726
-0.033838235 -0.019426694 0.29659331 4290359726
-0.033290219 -0.019385761 0.29596838 4290359726
-0.032813501 -0.019385761 0.29596838 4290359726
-0.032336779 -0.019385761 0.29596838 4290359980
-0.031860061 -0.019385761 0.29596838 4290359980
-0.031370088 -0.019377574 0.29584339 4290359726
-0.030893572 -0.019377574 0.29584339 4290425519
-0.030404205 -0.019369388 0.2957184 4290490799
-0.029927887 -0.019369388 0.2957184 4290490799
-0.029451573 -0.019369388 0.2957184 4290490799
-0.02899975 -0.019385761 0.29596838 4290556592
-0.028571213 -0.019418506 0.29646832 4290556592
-0.028093686 -0.019418506 0.29646832 4290556592
-0.027592879 -0.019402135 0.29621837 4290425519
-0.027024228 -0.019336643 0.29521847 4290425519
-0.026514996 -0.019312082 0.29484349 4290425519
-0.025918666 -0.01922203 0.29346865 4290491312
-0.025391787 -0.019181099 0.29284373 4290491312
-0.024898831 -0.019164724 0.29259375 4290557105
-0.024406677 -0.019148352 0.29234377 4290557107
-0.023925561 -0.019140163 0.29221877 4290557107
-0.023454884 -0.019140163 0.29221877 4290491314
-0.022974372 -0.019131977 0.29209378 4290557107
-0.022503896 -0.019131977 0.29209378 4290622900
-0.022099413 -0.019189283 0.29296869 4290557107
-0.021664437 -0.01922203 0.29346865 4290622900
-0.021300048 -0.019320268 0.29496849 4290622900
-0.020639632 -0.019148352 0.29234377 4290557107
-0.019987674 -0.018976433 0.28971905 4290557107
-0.019504176 -0.018960059 0.28946906 4290491314
-0.018955726 -0.018878195 0.28821921 4290557107
-0.018467432 -0.018853635 0.28784424 4290557105
-0.018003797 -0.018853635 0.28784424 4290557105
-0.017540166 -0.018853635 0.28784424 4290426289
-0.017076533 -0.018853635 0.28784424 4290492082
-0.016620113 -0.018861821 0.28796923 4290492082
-0.016156279 -0.018861821 0.28796923 4290492082
-0.015665201 -0.018829076 0.2874693 4290492082
-0.015122855 -0.018730836 0.28596944 4290492082
-0.014662242 -0.018730836 0.28596944 4290492082
-0.014077489 -0.018567106 0.28346971 4290623668
-0.013620903 -0.018567106 0.28346971 4290689463
-0.013164314 -0.018567106 0.28346971 4290689463
-0.012707728 -0.018567106 0.28346971 4290623670
-0.012261945 -0.018583478 0.28371969 4290492084
-0.011825757 -0.018616224 0.28421962 4290623670
-0.011397958 -0.018665345 0.28496957 4290689463
-0.010953348 -0.018689904 0.28534451 4290689463
-0.010498337 -0.018698091 0.2854695 4290689463
-0.010038529 -0.018698091 0.2854695 4290886070
-0.0095787207 -0.018698091 0.2854695 4290820277
-0.0091508534 -0.018763583 0.2864694 4290886070
-0.0087690502 -0.018935502 0.28909412 4290754484
-0.0083213532 -0.018976433 0.28971905 4290754484
-0.0077801514 -0.018796328 0.28696933 4290820277
-0.0072669326 -0.018665345 0.28496957 4290755254
-0.0068079298 -0.018665345 0.28496957 4290755254
-0.0063155107 -0.018567106 0.28346971 4290821047
-0.0058408407 -0.0185098 0.2825948 4290755254
-0.0053856634 -0.0185098 0.2825948 4290755254
-0.0049283043 -0.018501611 0.28246981 4290821047
-0.0044733281 -0.018501611 0.28246981 4291017656
-0.0040183519 -0.018501611 0.28246981 4291083449
-0.0035633754 -0.018501611 0.28246981 4291017656
-0.0031235286 -0.018591665 0.28384468 4290951863
-0.0026663379 -0.018591665 0.28384468 4291083449
-0.0022694583 -0.019099232 0.29159385 4291083449
-0.0018028714 -0.019131977 0.29209378 4291215035
-0.0013118689 -0.018837262 0.28759429 4291215035
-0.00084863848 -0.018837262 0.28759429 4291215035
-0.00037921072 -0.018534359 0.28296977 4291280828
7.6300421e-05 -0.018468866 0.28196988 4291215035
0.00053047156 -0.018468866 0.28196988 4291280828
0.00098464265 -0.018468866 0.28196988 4291280828
0.0014388139 -0.018468866 0.28196988 4291346621
0.001892985 -0.018468866 0.28196988 4291215805
0.0023471562 -0.018468866 0.28196988 4291281598
0.0028013273 -0.018468866 0.28196988 4291216318
0.0032554984 -0.018468866 0.28196988 4291282111
0.003701448 -0.018427934 0.28134495 4291282111
0.0041546128 -0.018427934 0.28134495 4291282111
0.0045934482 -0.018370628 0.28047004 4290558388
0.0050317138 -0.01832151 0.27972013 4291216318
0.0054822615 -0.01832151 0.27972013 4291282111
0.0059381099 -0.018337881 0.27997008 4291347904
0.0063862074 -0.018329695 0.27984509 4291347904
0.0068369568 -0.018329695 0.27984509 4291282111
0.0072909603 -0.018337881 0.27997008 4291347906
0.0077453665 -0.018346068 0.28009507 4291282113
0.0082001761 -0.018354256 0.28022006 4291479492
0.0086515285 -0.018354256 0.28022006 4291282113
0.0091069415 -0.018362442 0.28034505 4291282113
0.0095627569 -0.018370628 0.28047004 4291347906
0.010018975 -0.018378815 0.28059503 4291281860
0.010470932 -0.018378815 0.28059503 4291281860
0.010927754 -0.018387001 0.28072 4291479239
0.011374845 -0.018378815 0.28059503 4291479239
0.011821534 -0.018370628 0.28047004 4291347906
0.012273289 -0.018370628 0.28047004 4291479492
0.012725044 -0.018370628 0.28047004 4291479492
0.013182672 -0.018378815 0.28059503 4291479492
0.01363463 -0.018378815 0.28059503 4291545285
0.014092859 -0.018387001 0.28072 4291611078
0.014545017 -0.018387001 0.28072 4291545283
0.014997175 -0.018387001 0.28072 4291545283
0.015449333 -0.018387001 0.28072 4291545283
0.015901491 -0.018387001 0.28072 4291479490
0.01635365 -0.018387001 0.28072 4291676869
0.016805807 -0.018387001 0.28072 4291676869
0.017250283 -0.018378815 0.28059503 4291676358
0.017678583 -0.018354256 0.28022006 4291742151
0.018129935 -0.018354256 0.28022006 4291807944
0.018581288 -0.018354256 0.28022006 4291807944
0.01904113 -0.018362442 0.28034505 4291742151
0.019492684 -0.018362442 0.28034505 4291742151
0.019944238 -0.018362442 0.28034505 4291742151
0.020395793 -0.018362442 0.28034505 4291807944
0.020847347 -0.018362442 0.28034505 4291807944
0.021308396 -0.018370628 0.28047004 4291807944
0.021779545 -0.018387001 0.28072 4292005323
0.0222416 -0.018395187 0.28084499 4291807944
0.02269396 -0.018395187 0.28084499 4291940043
0.02324933 -0.018477054 0.28209487 4291808457
0.023798224 -0.018550733 0.28321975 4291808457
0.024233002 -0.018534359 0.28296977 4291742664
0.024590638 -0.01846068 0.28184488 4291939790
0.025044607 -0.01846068 0.28184488 4292005583
0.025464656 -0.018436121 0.28146994 4291808974
0.025895003 -0.018419748 0.28121996 4291677388
0.026347965 -0.018419748 0.28121996 4291677388
0.026800929 -0.018419748 0.28121996 4291677388
0.027253894 -0.018419748 0.28121996 4291809227
0.027706856 -0.018419748 0.28121996 4291677641
0.028172337 -0.018427934 0.28134495 4291809227
0.028638216 -0.018436121 0.28146994 4291875020
0.029091584 -0.018436121 0.28146994 4291875020
0.029584307 -0.01846068 0.28184488 4291677641
0.030291369 -0.018616224 0.28421962 4291677641
0.030789731 -0.018640785 0.2845946 4291809227
0.031056002 -0.018526172 0.28284478 4291809227
0.031511582 -0.018526172 0.28284478 4291875020
0.031854153 -0.01846068 0.28184488 4291874767
0.032308124 -0.01846068 0.28184488 4291808974
0.032776624 -0.018468866 0.28196988 4291875026
0.033230793 -0.018468866 0.28196988 4291875026
0.0336999 -0.018477054 0.28209487 4291940819
0.034169402 -0.018485241 0.28221986 4291940819
0.034623977 -0.018485241 0.28221986 4291940817
0.035094086 -0.018493427 0.28234485 4291940817
0.035548862 -0.018493427 0.28234485 4292137169
0.036035512 -0.0185098 0.2825948 4292071376
0.036506828 -0.018517986 0.28271979 4292005836
0.036978547 -0.018526172 0.28284478 4292137422
0.037434127 -0.018526172 0.28284478 4292137422
0.037889708 -0.018526172 0.28284478 4292071629
0.038362235 -0.018534359 0.28296977 4292071376
0.038835164 -0.018542547 0.28309476 4292005583
0.039325833 -0.018558918 0.28334472 4292071376
0.039852418 -0.018591665 0.28384468 4292202962
0.040309608 -0.018591665 0.28384468 4292268757
0.040820651 -0.018616224 0.28421962 4292202964
0.041351054 -0.018648971 0.28471959 4292137171
0.041864716 -0.01867353 0.28509453 4292202964
0.042379584 -0.018698091 0.2854695 4292202964
0.042839393 -0.018698091 0.2854695 4292466136
0.043375034 -0.018730836 0.28596944 4292400341
0.04391228 -0.018763583 0.2864694 4292466134
0.04443178 -0.018788142 0.28684434 4292531414
0.044932928 -0.018804515 0.28709432 4292334035
0.045434881 -0.018820889 0.28734431 4292465621
0.045897707 -0.018820889 0.28734431 4292531414
0.046380699 -0.018829076 0.2874693 4292268242
0.046884459 -0.018845448 0.28771925 4292268242
0.047347892 -0.018845448 0.28771925 4292202962
0.047852866 -0.018861821 0.28796923 4292268755
0.048316695 -0.018861821 0.28796923 4292268757
0.048801705 -0.018870007 0.28809422 4292400343
0.049329862 -0.018894568 0.2884692 4292071896
0.049859226 -0.018919127 0.28884414 4292137689
0.0503898 -0.018943688 0.28921911 4292269275
0.050855644 -0.018943688 0.28921911 4292335068
0.051432382 -0.01898462 0.28984404 4292269529
0.052011136 -0.019025551 0.29046896 4292335322
0.052569326 -0.0190583 0.29096892 4292269529
0.053129122 -0.019091045 0.29146886 4292137943
0.05369053 -0.019123793 0.29196882 4292269529
0.054160807 -0.019123793 0.29196882 4291940564
0.054677855 -0.019140163 0.29221877 4292203993
0.055195712 -0.019156538 0.29246876 4292203993
0.055714373 -0.019172911 0.29271874 4292269532
0.056257822 -0.01919747 0.29309368 4292335325
0.056729913 -0.01919747 0.29309368 4292335579
0.057275183 -0.01922203 0.29346865 4292203993
0.057797063 -0.019238401 0.29371861 4292203993
0.058369339 -0.01927115 0.29421857 4292269786
0.058893237 -0.019287523 0.29446855 4292204763
0.059367541 -0.019287523 0.29446855 4292073177
0.059918042 -0.019312082 0.29484349 4292072923
0.060469754 -0.019336643 0.29521847 4292138716
0.061022665 -0.0193612 0.29559341 4292138716
0.061602801 -0.019393949 0.29609337 4292138716
0.06207972 -0.019393949 0.29609337 4292204763
0.062688671 -0.01943488 0.2967183 4292204763
0.063273028 -0.019467626 0.29721823 4292204763
0.063912615 -0.019516747 0.29796818 4292138970
0.064527608 -0.019557679 0.2985931 4292204763
0.065090187 -0.019582238 0.29896805 4292270556
0.065571733 -0.019582238 0.29896805 4292204763
0.066136129 -0.019606797 0.29934302 4292270556
0.066646099 -0.019614985 0.29946801 4292204763
0.067240521 -0.019647731 0.29996794 4292270556
0.067780122 -0.019664103 0.30021793 4292073947
0.068263687 -0.019664103 0.30021793 4292008154
0.068833113 -0.019688664 0.3005929 4292073947
0.06946139 -0.019729596 0.30121782 4292008154
0.070062652 -0.019762343 0.30171776 4292008667
0.070723981 -0.019811461 0.30246767 4291942874
-0.052574918 -0.020681765 0.32371542 4288583064
-0.052053504 -0.020681765 0.32371542 4289109659
-0.0515122 -0.020673778 0.32359043 4289043866
-0.050912213 -0.020641839 0.32309049 4289240986
-0.050391804 -0.020641839 0.32309049 4289438365
-0.049620599 -0.02053803 0.32146567 4289306779
-0.049102809 -0.02053803 0.32146567 4289504158
-0.047602743 -0.020122798 0.31496635 4289504671
-0.047095425 -0.020122798 0.31496635 4289570464
-0.046255335 -0.019979063 0.3127166 4289636003
-0.045623634 -0.019923167 0.3118417 4289636003
-0.045121349 -0.019923167 0.3118417 4289439394
-0.044547532 -0.019891225 0.31134173 4289439394
-0.044046048 -0.019891225 0.31134173 4289570980
-0.043544568 -0.019891225 0.31134173 4289702566
-0.042662937 -0.019715549 0.30859202 4289702566
-0.042165883 -0.019715549 0.30859202 4289702566
-0.041213162 -0.019499948 0.30521739 4289702568
-0.04058814 -0.019436067 0.30421749 4289965740
-0.040065188 -0.019420097 0.30396754 4289899947
-0.039575584 -0.019420097 0.30396754 4289965740
-0.039069913 -0.019412111 0.30384254 4290096556
-0.038580511 -0.019412111 0.30384254 4290096556
-0.038059771 -0.019396141 0.30359256 4290096556
-0.037570771 -0.019396141 0.30359256 4290096556
-0.037035976 -0.019372186 0.30321762 4290162349
-0.036472254 -0.019332258 0.30259266 4290162349
-0.035984866 -0.019332258 0.30259266 4290096554
-0.035174903 -0.019156583 0.29984295 4290162347
-0.034691945 -0.019156583 0.29984295 4290359726
-0.033838235 -0.018948967 0.29659331 4290359726
-0.033290219 -0.018909041 0.29596838 4290293933
-0.032813501 -0.018909041 0.29596838 4290293933
-0.032336779 -0.018909041 0.29596838 4290359728
-0.031860061 -0.018909041 0.29596838 4290359728
-0.031383343 -0.018909041 0.29596838 4290359728
-0.030906623 -0.018909041 0.29596838 4290359728
-0.030417055 -0.018901056 0.29584339 4290490801
-0.029927887 -0.018893071 0.2957184 4290490801
-0.029451573 -0.018893071 0.2957184 4290425008
-0.029036488 -0.018932996 0.29634333 4290556594
-0.028643483 -0.018988892 0.29721823 4290490799
-0.02816475 -0.018988892 0.29721823 4290490799
-0.027674377 -0.018980909 0.29709327 4290425519
-0.027024228 -0.01886113 0.29521847 4290425519
-0.026548717 -0.01886113 0.29521847 4290359726
-0.02595178 -0.018773291 0.2938436 4290491312
-0.025391787 -0.018709412 0.29284373 4290491312
-0.024920104 -0.018709412 0.29284373 4290491312
-0.024417112 -0.018685455 0.29246876 4290491312
-0.023935795 -0.018677469 0.29234377 4290491312
-0.023454884 -0.018669484 0.29221877 4290491314
-0.022984203 -0.018669484 0.29221877 4290557107
-0.022513526 -0.018669484 0.29221877 4290557107
-0.022099413 -0.018717395 0.29296869 4290491314
-0.021664437 -0.018749338 0.29346865 4290557107
-0.021300048 -0.01884516 0.29496849 4290557107
-0.020639632 -0.018677469 0.29234377 4290557107
-0.019987674 -0.018509779 0.28971905 4290557107
-0.01952102 -0.018509779 0.28971905 4290557107
-0.018955726 -0.018413957 0.28821921 4290557107
-0.018475451 -0.018397985 0.28796923 4290491312
-0.018011615 -0.018397985 0.28796923 4290491312
-0.017540166 -0.01839 0.28784424 4290426289
-0.017076533 -0.01839 0.28784424 4290426289
-0.016620113 -0.018397985 0.28796923 4290426289
-0.016156279 -0.018397985 0.28796923 4290492082
-0.015678821 -0.018382015 0.28771925 4290492082
-0.015129466 -0.018278208 0.28609443 4290426289
-0.014668651 -0.018278208 0.28609443 4290426289
-0.014102318 -0.01814246 0.28396967 4290492082
-0.013626908 -0.018118503 0.2835947 4290623668
-0.013170119 -0.018118503 0.2835947 4290623668
-0.012713331 -0.018118503 0.2835947 4290623670
-0.012261945 -0.018126488 0.28371969 4290492084
-0.011825757 -0.018158428 0.28421962 4290623670
-0.011397958 -0.018206341 0.28496957 4290623670
-0.010953348 -0.018230297 0.28534451 4290689463
-0.010498337 -0.018238282 0.2854695 4290623670
-0.010038529 -0.018238282 0.2854695 4290886072
-0.0095829153 -0.018246267 0.28559449 4290820279
-0.009154846 -0.018310148 0.28659439 4290820279
-0.0087690502 -0.018469853 0.28909412 4290820279
-0.0083213532 -0.018509779 0.28971905 4290886070
-0.0077869291 -0.018350074 0.28721932 4290820277
-0.0072733066 -0.01822231 0.28521952 4290951863
-0.006813901 -0.01822231 0.28521952 4290886070
-0.0063155107 -0.018110517 0.28346971 4290755254
-0.0058408407 -0.018054621 0.2825948 4290755254
-0.0053856634 -0.018054621 0.2825948 4290821047
-0.0049283043 -0.018046634 0.28246981 4290821047
-0.0044733281 -0.018046634 0.28246981 4291017910
-0.0040183519 -0.018046634 0.28246981 4291017910
-0.0035649524 -0.018054621 0.2825948 4291017910
-0.0031235286 -0.018134473 0.28384468 4291083703
-0.0026663379 -0.018134473 0.28384468 4291017656
-0.002270431 -0.018637544 0.29171884 4291083449
-0.0018036428 -0.018669484 0.29221877 4291150012
-0.0013118689 -0.018374031 0.28759429 4290952633
-0.00084863848 -0.018374031 0.28759429 4291084219
-0.00037954573 -0.018094547 0.28321975 4291150012
7.6334247e-05 -0.018022681 0.28209487 4291084219
0.00053070672 -0.018022681 0.28209487 4291150012
0.00098464265 -0.018014695 0.28196988 4291215805
0.0014388139 -0.018014695 0.28196988 4291215805
0.0018938241 -0.018022681 0.28209487 4291281598
0.0023481965 -0.018022681 0.28209487 4291281598
0.0028038109 -0.018030666 0.28221986 4291281598
0.0032569414 -0.018022681 0.28209487 4291281598
0.0037113139 -0.018022681 0.28209487 4291282111
0.0041656867 -0.018022681 0.28209487 4291282111
0.004603683 -0.017958798 0.28109497 4291347904
0.0050407066 -0.017902901 0.28022006 4291282111
0.0054920595 -0.017902901 0.28022006 4291282111
0.005943412 -0.017902901 0.28022006 4291282111
0.0063890601 -0.017886931 0.27997008 4291282111
0.0068400106 -0.017886931 0.27997008 4291282111
0.0072974702 -0.017902901 0.28022006 4291347906
0.0077488227 -0.017902901 0.28022006 4291347906
0.0082038334 -0.017910887 0.28034505 4291347906
0.0086553879 -0.017910887 0.28034505 4291282113
0.0091110021 -0.017918872 0.28047004 4291282113
0.0095627569 -0.017918872 0.28047004 4291347906
0.010018975 -0.017926859 0.28059503 4291347906
0.010470932 -0.017926859 0.28059503 4291282113
0.010927754 -0.017934842 0.28072 4291347653
0.011374845 -0.017926859 0.28059503 4291347653
0.011826802 -0.017926859 0.28059503 4291282113
0.012278759 -0.017926859 0.28059503 4291347906
0.012730715 -0.017926859 0.28059503 4291479492
0.013188543 -0.017934842 0.28072 4291479492
0.013640702 -0.017934842 0.28072 4291611078
0.014092859 -0.017934842 0.28072 4291611078
0.014545017 -0.017934842 0.28072 4291545285
0.014997175 -0.017934842 0.28072 4291479492
0.015449333 -0.017934842 0.28072 4291545285
0.015908571 -0.017942827 0.28084499 4291611078
0.016368212 -0.017950812 0.28096998 4291676871
0.016820773 -0.017950812 0.28096998 4291676871
0.017257964 -0.017934842 0.28072 4291610565
0.017710123 -0.017934842 0.28072 4291742151
0.01816228 -0.017934842 0.28072 4291742151
0.018597865 -0.017918872 0.28047004 4291610565
0.019049618 -0.017918872 0.28047004 4291742151
0.019501375 -0.017918872 0.28047004 4291742151
0.019962022 -0.017926859 0.28059503 4291742151
0.02041398 -0.017926859 0.28059503 4291807944
0.020865938 -0.017926859 0.28059503 4291807944
0.021317892 -0.017926859 0.28059503 4291807944
0.021789242 -0.017942827 0.28084499 4291676358
0.0222515 -0.017950812 0.28096998 4291807944
0.022794958 -0.018022681 0.28209487 4291808457
0.02324933 -0.018022681 0.28209487 4291808457
0.023798224 -0.018094547 0.28321975 4291742664
0.024233002 -0.018078577 0.28296977 4291742664
0.024590638 -0.018006708 0.28184488 4291939790
0.025044607 -0.018006708 0.28184488 4292005583
0.025464656 -0.017982755 0.28146994 4291939790
0.025918022 -0.017982755 0.28146994 4291808204
0.026359675 -0.01797477 0.28134495 4292005583
0.026812842 -0.01797477 0.28134495 4291808204
0.027266007 -0.01797477 0.28134495 4291808204
0.02771917 -0.01797477 0.28134495 4291808204
0.028184852 -0.017982755 0.28146994 4291808457
0.028638216 -0.017982755 0.28146994 4292005836
0.029091584 -0.017982755 0.28146994 4291940043
0.029597426 -0.018014695 0.28196988 4291808457
0.030291369 -0.018158428 0.28421962 4291940043
0.030776208 -0.018174399 0.2844696 4291940043
0.031056002 -0.018070592 0.28284478 4291809227
0.031511582 -0.018070592 0.28284478 4291875020
0.031868279 -0.018014695 0.28196988 4291809227
0.032322451 -0.018014695 0.28196988 4291875020
0.032791153 -0.018022681 0.28209487 4291940560
0.033260256 -0.018030666 0.28221986 4292006353
0.033714831 -0.018030666 0.28221986 4292006355
0.034184534 -0.018038651 0.28234485 4292006355
0.034654643 -0.018046634 0.28246981 4292006353
0.035125155 -0.018054621 0.2825948 4291940560
0.035580333 -0.018054621 0.2825948 4291940560
0.036051448 -0.018062606 0.28271979 4291940560
0.036539108 -0.018078577 0.28296977 4292005583
0.037011229 -0.018086562 0.28309476 4292137169
0.037467211 -0.018086562 0.28309476 4292137169
0.037923194 -0.018086562 0.28309476 4292137169
0.038396124 -0.018094547 0.28321975 4292071376
0.038886599 -0.018110517 0.28346971 4292005583
0.039360531 -0.018118503 0.2835947 4292005583
0.039869964 -0.01814246 0.28396967 4292137169
0.040327359 -0.01814246 0.28396967 4292268757
0.040856555 -0.018174399 0.2844696 4292202964
0.041369207 -0.018198356 0.28484458 4292137171
0.04188307 -0.01822231 0.28521952 4292202964
0.042416696 -0.018254252 0.28571948 4292202964
0.04295193 -0.018286193 0.28621942 4292400343
0.04341295 -0.018286193 0.28621942 4292466136
0.043950599 -0.018318135 0.28671938 4292400343
0.0444705 -0.018342089 0.28709432 4292334037
0.044972051 -0.018358061 0.28734431 4292268244
0.045454644 -0.018366046 0.2874693 4292268244
0.045917671 -0.018366046 0.2874693 4292465623
0.046421025 -0.018382015 0.28771925 4292334037
0.046904825 -0.01839 0.28784424 4292334037
0.04738903 -0.018397985 0.28796923 4292268757
0.047894403 -0.018413957 0.28821921 4292466136
0.048358638 -0.018413957 0.28821921 4292202964
0.048844051 -0.018421942 0.2883442 4292268757
0.049372606 -0.018445898 0.28871915 4292006357
0.049902376 -0.018469853 0.28909412 4292072150
0.050455123 -0.018501794 0.28959405 4292137943
0.050921574 -0.018501794 0.28959405 4292269529
0.051498923 -0.018541722 0.29021901 4292006357
0.052055899 -0.018573662 0.29071894 4292137943
0.052659649 -0.018621573 0.29146886 4292269529
0.053220257 -0.018653514 0.29196882 4292006357
0.053736493 -0.018669484 0.29221877 4292006614
0.054207172 -0.018669484 0.29221877 4291940821
0.05472463 -0.018685455 0.29246876 4292072153
0.055242889 -0.018701427 0.29271874 4292006360
0.055761948 -0.018717395 0.29296869 4292072153
0.056281816 -0.018733365 0.29321867 4292335325
0.056754105 -0.018733365 0.29321867 4292269786
0.057299577 -0.018757323 0.29359365 4292269786
0.057846252 -0.018781276 0.29396859 4292203993
0.058394138 -0.018805234 0.29434356 4292203993
0.05891823 -0.018821202 0.29459351 4292073177
0.059392735 -0.018821202 0.29459351 4291941591
0.059943441 -0.01884516 0.29496849 4291942361
0.060469754 -0.01886113 0.29521847 4292008154
0.061022665 -0.018885085 0.29559341 4292139740
0.061628804 -0.018925013 0.29621837 4292008154
0.062210742 -0.018956952 0.2967183 4292204761
0.062688671 -0.018956952 0.2967183 4292204761
0.063432679 -0.019036805 0.29796818 4292204761
0.064073466 -0.019084716 0.29871809 4291941589
0.064662658 -0.019116657 0.29921803 4292073947
0.065199032 -0.019132629 0.29946801 4292008154
0.065763623 -0.019156583 0.29984295 4292204763
0.066246584 -0.019156583 0.29984295 4292270556
0.066757359 -0.019164568 0.29996794 4292204763
0.067296557 -0.01918054 0.30021793 4292336349
0.06783656 -0.01919651 0.30046791 4292204763
0.068320528 -0.01919651 0.30046791 4292336349
0.068918966 -0.019228451 0.30096784 4292665314
0.069519036 -0.019260393 0.30146781 4292204763
0.070178747 -0.019308304 0.30221772 4292204763
0.070899338 -0.019372186 0.30321762 4292138970
-0.052554619 -0.020152571 0.32359043 4289174688
-0.052033406 -0.020152571 0.32359043 4289043866
-0.0515122 -0.020152571 0.32359043 4289043866
-0.050912213 -0.020121435 0.32309049 4289175452
-0.050391804 -0.020121435 0.32309049 4289241245
-0.049254034 -0.019872349 0.3190909 4289438624
-0.04874007 -0.019872349 0.3190909 4289438624
-0.047376066 -0.019522073 0.31346652 4289570210
-0.046871163 -0.019522073 0.31346652 4289570210
-0.046162892 -0.019436449 0.31209165 4289373601
-0.045587063 -0.019405315 0.31159171 4289439394
-0.045085177 -0.019405315 0.31159171 4289439394
-0.044547532 -0.019389747 0.31134173 4289505187
-0.044046048 -0.019389747 0.31134173 4289570980
-0.043334801 -0.019296339 0.3098419 4289702566
-0.042662937 -0.019218499 0.30859202 4289768359
-0.041841403 -0.019070605 0.30621728 4289702566
-0.041213162 -0.019008333 0.30521739 4289702566
-0.04058814 -0.018946063 0.30421749 4289899945
-0.040065188 -0.018930495 0.30396754 4289899947
-0.039575584 -0.018930495 0.30396754 4289899947
-0.039069913 -0.018922711 0.30384254 4289899947
-0.038580511 -0.018922711 0.30384254 4289899947
-0.038059771 -0.018907143 0.30359256 4290030763
-0.037570771 -0.018907143 0.30359256 4290030763
-0.037035976 -0.018883793 0.30321762 4289899947
-0.036472254 -0.018844871 0.30259266 4289899947
-0.035984866 -0.018844871 0.30259266 4289965740
-0.035174903 -0.018673625 0.29984295 4289965740
-0.034691945 -0.018673625 0.29984295 4290097839
-0.033838235 -0.018471243 0.29659331 4290163632
-0.033290219 -0.018432325 0.29596838 4289966000
-0.032813501 -0.018432325 0.29596838 4290097586
-0.032336779 -0.018432325 0.29596838 4290097586
-0.031860061 -0.018432325 0.29596838 4290097586
-0.031383343 -0.018432325 0.29596838 4290163119
-0.030906623 -0.018432325 0.29596838 4290228912
-0.030417055 -0.018424541 0.29584339 4290425521
-0.029927887 -0.018416755 0.2957184 4290359728
-0.029451573 -0.018416755 0.2957184 4290425008
-0.029036488 -0.018455675 0.29634333 4290556594
-0.028643483 -0.018510163 0.29721823 4290490801
-0.02816475 -0.018510163 0.29721823 4290490801
-0.027674377 -0.018502381 0.29709327 4290490799
-0.027024228 -0.018385621 0.29521847 4290490799
-0.026548717 -0.018385621 0.29521847 4290293933
-0.02595178 -0.018299997 0.2938436 4290425519
-0.025391787 -0.018237727 0.29284373 4290359726
-0.024920104 -0.018237727 0.29284373 4290425519
-0.024417112 -0.018214375 0.29246876 4290425521
-0.023935795 -0.018206591 0.29234377 4290491314
-0.023454884 -0.018198807 0.29221877 4290425521
-0.022984203 -0.018198807 0.29221877 4290557107
-0.022513526 -0.018198807 0.29221877 4290491314
-0.022099413 -0.018245509 0.29296869 4290491314
-0.021645982 -0.018261077 0.29321867 4290491314
-0.021218818 -0.018299997 0.2938436 4290557107
-0.020639632 -0.018206591 0.29234377 4290491312
-0.019987674 -0.018043127 0.28971905 4290491312
-0.01952102 -0.018043127 0.28971905 4290491312
-0.018955726 -0.017949721 0.28821921 4290491312
-0.018475451 -0.017934153 0.28796923 4290557105
-0.018011615 -0.017934153 0.28796923 4290491312
-0.017540166 -0.017926369 0.28784424 4290491312
-0.017076533 -0.017926369 0.28784424 4290557105
-0.016620113 -0.017934153 0.28796923 4290491312
-0.016156279 -0.017934153 0.28796923 4290491312
-0.015678821 -0.017918585 0.28771925 4290622898
-0.015129466 -0.017817393 0.28609443 4290557105
-0.014668651 -0.017817393 0.28609443 4290557105
-0.014077489 -0.017653931 0.28346971 4290557105
-0.013620903 -0.017653931 0.28346971 4290622898
-0.013013401 -0.017451549 0.28022006 4290754484
-0.012562049 -0.017451549 0.28022006 4290492082
-0.012197125 -0.017576093 0.28221986 4290492082
-0.011815357 -0.017685069 0.28396967 4290623668
-0.011397958 -0.017747339 0.28496957 4290623668
-0.010953348 -0.017770691 0.28534451 4290754484
-0.010498337 -0.017778475 0.2854695 4290754484
-0.010038529 -0.017778475 0.2854695 4290886070
-0.0095829153 -0.017786259 0.28559449 4290820277
-0.009154846 -0.017848531 0.28659439 4290820277
-0.0087690502 -0.018004209 0.28909412 4290886070
-0.0082567353 -0.017903019 0.2874693 4290886070
-0.0077869291 -0.017887449 0.28721932 4290820277
-0.0072733066 -0.017762907 0.28521952 4290886070
-0.006813901 -0.017762907 0.28521952 4290886070
-0.0063155107 -0.017653931 0.28346971 4290951863
-0.0058382577 -0.017591659 0.28246981 4290951863
-0.0053832815 -0.017591659 0.28246981 4290821047
-0.0049283043 -0.017591659 0.28246981 4290821047
-0.0044733281 -0.017591659 0.28246981 4290886840
-0.0040183519 -0.017591659 0.28246981 4290821047
-0.0035649524 -0.017599443 0.2825948 4290821047
-0.0031235286 -0.017677285 0.28384468 4290886840
-0.0026663379 -0.017677285 0.28384468 4290952635
-0.002270431 -0.018167671 0.29171884 4290952635
-0.0018021001 -0.018183239 0.29196882 4291018941
-0.0013090181 -0.017871881 0.28696933 4290887355
-0.00084679434 -0.017871881 0.28696933 4291018941
-0.00037921072 -0.017622797 0.28296977 4291084734
7.6334247e-05 -0.017568309 0.28209487 4290887355
0.00053070672 -0.017568309 0.28209487 4291084734
0.00098464265 -0.017560525 0.28196988 4291215807
0.0014388139 -0.017560525 0.28196988 4291215807
0.0018938241 -0.017568309 0.28209487 4291215805
0.0023481965 -0.017568309 0.28209487 4291281598
0.0028038109 -0.017576093 0.28221986 4291281598
0.0032569414 -0.017568309 0.28209487 4291281598
0.0037113139 -0.017568309 0.28209487 4291150525
0.0041638408 -0.017560525 0.28196988 4291216318
0.004603683 -0.017506037 0.28109497 4291282113
0.0050407066 -0.017451549 0.28022006 4291216320
0.0054920595 -0.017451549 0.28022006 4291282111
0.005943412 -0.017451549 0.28022006 4291282111
0.0063890601 -0.017435981 0.27997008 4291347391
0.0068400106 -0.017435981 0.27997008 4291347391
0.0072974702 -0.017451549 0.28022006 4291347904
0.0077488227 -0.017451549 0.28022006 4291479490
0.0082038334 -0.017459335 0.28034505 4291347906
0.0086553879 -0.017459335 0.28034505 4291282113
0.0091110021 -0.017467119 0.28047004 4291282113
0.0095627569 -0.017467119 0.28047004 4291347906
