# .PCD v0.7 - Point Cloud Data file format
VERSION 0.7
FIELDS x y z rgba
SIZE 4 4 4 4
TYPE F F F U
COUNT 1 1 1 1
WIDTH 1006
HEIGHT 1
VIEWPOINT 0 0 0 1 0 0 0
POINTS 1006
DATA ascii
-0.082848728 -0.020677533 0.50019658 4289635490
-0.082043059 -0.020677533 0.50019658 4289767328
-0.081298284 -0.020693034 0.50057155 4289964707
-0.081054747 -0.020837704 0.50407118 4290096293
-0.080402009 -0.020879038 0.50507104 4290096293
-0.079627879 -0.020889372 0.50532103 4290359465
-0.078813955 -0.020889372 0.50532103 4290227879
-0.078019321 -0.020894539 0.50544602 4290227881
-0.077090643 -0.020863537 0.50469607 4290425260
-0.076277725 -0.020863537 0.50469607 4290491053
-0.075296611 -0.020817036 0.50357121 4290491053
-0.074282147 -0.020760201 0.50219637 4290425519
-0.073290385 -0.020708531 0.50094646 4290491312
-0.07248351 -0.020708531 0.50094646 4290360496
-0.071462035 -0.020646531 0.49944663 4290426289
-0.070516117 -0.020605197 0.49844676 4290492084
-0.069608375 -0.020574195 0.49769682 4290426291
-0.06880673 -0.020574195 0.49769682 4290492084
-0.067868464 -0.020532861 0.49669695 4290623670
-0.066933416 -0.020491527 0.49569705 4290492084
-0.066134997 -0.020491527 0.49569705 4290623670
-0.06522125 -0.02045536 0.49482214 4290689463
-0.064310327 -0.020419192 0.49394724 4290755256
-0.06338615 -0.020377858 0.49294734 4290886070
-0.062592156 -0.020377858 0.49294734 4290886070
-0.06167281 -0.020336524 0.49194744 4290820277
-0.060756683 -0.020295188 0.49094754 4290820277
-0.059843782 -0.020253854 0.48994765 4290689461
-0.059054617 -0.020253854 0.48994765 4290755254
-0.058161411 -0.020217687 0.48907274 4290689461
-0.057285681 -0.020186685 0.48832282 4290821047
-0.056499138 -0.020186685 0.48832282 4290821049
-0.055655554 -0.020166019 0.48782289 4290821049
-0.054827638 -0.020150518 0.48744792 4290886840
-0.053973217 -0.020124685 0.48682299 4290886840
-0.053189088 -0.020124685 0.48682299 4290821047
-0.052351143 -0.020104017 0.48632306 4290886840
-0.051514804 -0.020083349 0.48582309 4291084219
-0.050693128 -0.02006785 0.48544815 4290952633
-0.049911216 -0.02006785 0.48544815 4290952633
-0.04909135 -0.020052349 0.48507318 4291084219
-0.048272695 -0.020036848 0.48469821 4290886840
-0.047467496 -0.020026516 0.48444825 4291084219
-0.046675149 -0.020021349 0.48432326 4291084732
-0.045871355 -0.020011015 0.48407328 4291084732
-0.045056727 -0.019995514 0.48369834 4291281598
-0.044254746 -0.01998518 0.48344836 4291347391
-0.043442331 -0.019969679 0.48307338 4291413184
-0.042664245 -0.019969679 0.48307338 4291413184
-0.04185364 -0.01995418 0.48269844 4291413184
-0.041054886 -0.019943846 0.48244846 4291544770
-0.040256929 -0.019933512 0.48219848 4291544770
-0.039480247 -0.019933512 0.48219848 4291610563
-0.038683504 -0.01992318 0.48194852 4291544770
-0.037897393 -0.019918013 0.48182353 4291544770
-0.037111688 -0.019912846 0.48169854 4291610563
-0.036335811 -0.019912846 0.48169854 4291610563
-0.03555071 -0.019907679 0.48157355 4291676356
-0.034766011 -0.019902512 0.48144856 4291676356
-0.033981711 -0.019897345 0.48132357 4291807942
-0.033206441 -0.019897345 0.48132357 4291807942
-0.032422747 -0.019892178 0.48119858 4291807942
-0.031647678 -0.019892178 0.48119858 4291676356
-0.030872606 -0.019892178 0.48119858 4291676358
-0.030097533 -0.019892178 0.48119858 4291742151
-0.029322466 -0.019892178 0.48119858 4291742151
-0.02855481 -0.019897345 0.48132357 4291807944
-0.02778675 -0.019902512 0.48144856 4292005323
-0.027011279 -0.019902512 0.48144856 4292005323
-0.026235806 -0.019902512 0.48144856 4292005323
-0.025460333 -0.019902512 0.48144856 4292136909
-0.024684859 -0.019902512 0.48144856 4292136909
-0.023909386 -0.019902512 0.48144856 4292202702
-0.023133915 -0.019902512 0.48144856 4292136907
-0.022352636 -0.019897345 0.48132357 4292268493
-0.021571761 -0.019892178 0.48119858 4292334286
-0.02079129 -0.019887011 0.48107362 4292334286
-0.020016421 -0.019887011 0.48107362 4292465874
-0.019236552 -0.019881845 0.48094863 4292465874
-0.018461885 -0.019881845 0.48094863 4292531667
-0.017682619 -0.019876678 0.48082364 4292531667
-0.016903758 -0.019871511 0.48069865 4292531667
-0.016129492 -0.019871511 0.48069865 4292334288
-0.015351235 -0.019866344 0.48057365 4292597460
-0.01457338 -0.019861177 0.48044866 4292663253
-0.013792338 -0.019850845 0.48019871 4292597460
-0.013018878 -0.019850845 0.48019871 4292663253
-0.012245419 -0.019850845 0.48019871 4292729046
-0.011471959 -0.019850845 0.48019871 4292926425
-0.010698498 -0.019850845 0.48019871 4292728793
-0.0099250386 -0.019850845 0.48019871 4292794586
-0.0091515789 -0.019850845 0.48019871 4292794588
-0.0083802985 -0.01985601 0.48032367 4292991967
-0.0076086172 -0.019861177 0.48044866 4292926174
-0.0068383105 -0.019871511 0.48069865 4292794588
-0.0060656224 -0.019876678 0.48082364 4292991967
-0.0052911555 -0.019876678 0.48082364 4292991967
-0.0045202114 -0.019892178 0.48119858 4292926172
-0.0037470865 -0.019902512 0.48144856 4292991965
-0.0029731565 -0.019912846 0.48169854 4293057758
-0.0021972805 -0.019912846 0.48169854 4293057758
-0.0014221425 -0.01992318 0.48194852 4293058011
-0.00064619916 -0.019933512 0.48219848 4293189597
0.00013051566 -0.019938679 0.48232347 4293255390
0.0009076331 -0.019943846 0.48244846 4293189597
0.0016847167 -0.019943846 0.48244846 4293386206
0.002463076 -0.01995418 0.48269844 4293320413
0.0032414012 -0.019959347 0.48282343 4293320413
0.0040201289 -0.019964512 0.48294839 4293451999
0.0047980179 -0.019964512 0.48294839 4293452767
0.0055787927 -0.019974846 0.48319837 4293321181
0.0063603735 -0.01998518 0.48344836 4293518560
0.0071409135 -0.019990347 0.48357335 4293518560
0.0079218559 -0.019995514 0.48369834 4293452769
0.0087009519 -0.019995514 0.48369834 4293518562
0.009487398 -0.020011015 0.48407328 4293715171
0.010280353 -0.020036848 0.48469821 4294044136
0.011081026 -0.020073015 0.48557311 4294109416
0.011890626 -0.020119518 0.486698 4293912037
0.012674553 -0.020119518 0.486698 4293912037
0.013482675 -0.020155685 0.48757291 4293912037
0.014286301 -0.020181518 0.48819783 4293780964
0.01508808 -0.020202186 0.4886978 4293780964
0.015887409 -0.020217687 0.48907274 4293912297
0.016675163 -0.020217687 0.48907274 4293846504
0.017476305 -0.020233188 0.48944771 4293912297
0.018287985 -0.020259021 0.49007264 4294109676
0.01909681 -0.020279689 0.4905726 4294044136
0.019907245 -0.020300355 0.49107254 4293912550
0.02069822 -0.020300355 0.49107254 4293913320
0.021516541 -0.02032619 0.49169746 4293913320
0.022331204 -0.020346858 0.49219742 4293978862
0.023159223 -0.020377858 0.49294734 4294044655
0.023989659 -0.020408858 0.49369726 4293978862
0.024784861 -0.020408858 0.49369726 4294044655
0.025625395 -0.020445026 0.49457216 4294110448
0.026468746 -0.020481193 0.49544707 4294044655
0.027308038 -0.020512193 0.49619699 4293978860
0.028156826 -0.020548362 0.49707189 4294110446
0.028957464 -0.020548362 0.49707189 4294242285
0.029810481 -0.020584529 0.4979468 4294176492
0.030666314 -0.020620696 0.49882171 4294176239
0.031517081 -0.020651698 0.49957162 4294176239
0.032378353 -0.020687867 0.50044656 4294110448
0.033184428 -0.020687867 0.50044656 4293978862
0.034041431 -0.020718865 0.50119644 4294109676
0.034918237 -0.020760201 0.50219637 4294043883
0.035816044 -0.020811869 0.50344622 4293781734
0.036726974 -0.020868704 0.50482106 4293715941
0.037540097 -0.020868704 0.50482106 4293650146
0.038457666 -0.020925537 0.5061959 4293321181
0.039389364 -0.020987539 0.50769573 4293254618
0.040335793 -0.021054709 0.50932062 4293057239
0.041267257 -0.021111544 0.51069546 4292859860
0.042203147 -0.021168377 0.5120703 4292794067
0.043027945 -0.021168377 0.5120703 4292925653
0.043981183 -0.021230379 0.51357013 4293320411
0.044928346 -0.021287214 0.51494497 4292728015
0.04586884 -0.021338884 0.51619488 4292793808
0.046858583 -0.021411218 0.51794469 4292465356
0.047692843 -0.021411218 0.51794469 4292399563
0.04873788 -0.02150422 0.52019441 4292269006
0.049754437 -0.021581721 0.52206922 4291940041
0.050692245 -0.021623056 0.52306914 4291480771
-0.084460065 -0.019871863 0.50019658 4286739833
-0.083654396 -0.019871863 0.50019658 4289964455
-0.082890131 -0.019881794 0.50044656 4289635490
-0.08208406 -0.019881794 0.50044656 4289767328
-0.08160276 -0.01996124 0.50244629 4289964707
-0.081074834 -0.020030756 0.50419611 4290030498
-0.080362216 -0.020055585 0.50482106 4290096291
-0.079568788 -0.02006055 0.50494605 4290227879
-0.078755468 -0.02006055 0.50494605 4290227879
-0.077961437 -0.020065516 0.50507104 4290162086
-0.077033363 -0.020035721 0.5043211 4290425258
-0.076221056 -0.020035721 0.5043211 4290491053
-0.075184479 -0.019976135 0.50282127 4290491053
-0.074171223 -0.019921517 0.50144643 4290425773
-0.073198959 -0.019876828 0.50032157 4290425773
-0.07239309 -0.019876828 0.50032157 4290491312
-0.071390502 -0.019822206 0.4989467 4290491312
-0.070445389 -0.019782484 0.4979468 4290426289
-0.069608375 -0.019772552 0.49769682 4290360496
-0.068737611 -0.019752691 0.49719688 4290426289
-0.067817226 -0.019717932 0.49632198 4290492082
-0.066899665 -0.019683173 0.49544707 4290689463
-0.06610164 -0.019683173 0.49544707 4290689463
-0.065188304 -0.019648414 0.49457216 4290755254
-0.064277776 -0.019613657 0.49369726 4290755254
-0.063354008 -0.019573933 0.49269736 4290886070
-0.062560417 -0.019573933 0.49269736 4290820277
-0.06164147 -0.019534208 0.49169746 4290689461
-0.060710281 -0.019489519 0.4905726 4290689461
-0.05981325 -0.019454762 0.48969769 4290689461
-0.05902449 -0.019454762 0.48969769 4290755254
-0.058146551 -0.019424969 0.48894778 4290689463
-0.057271019 -0.019395174 0.48819783 4290755256
-0.056484677 -0.019395174 0.48819783 4290755256
-0.055641294 -0.019375313 0.4876979 4290755256
-0.054799523 -0.019355452 0.48719797 4290821047
-0.053959362 -0.019335588 0.486698 4290821047
-0.053175431 -0.019335588 0.486698 4290821047
-0.05231078 -0.019305797 0.48594809 4290821047
-0.051475044 -0.019285936 0.48544815 4291084732
-0.050653972 -0.019271038 0.48507318 4290887353
-0.049872663 -0.019271038 0.48507318 4290887353
-0.049053401 -0.019256141 0.48469821 4290887353
-0.048247803 -0.019246211 0.48444825 4290887353
-0.047443002 -0.01923628 0.48419827 4291018939
-0.046663102 -0.01923628 0.48419827 4291084732
-0.045847666 -0.019221382 0.4838233 4291084732
-0.04503344 -0.019206487 0.48344836 4291150525
-0.044231866 -0.019196555 0.48319837 4291216318
-0.043442331 -0.019191591 0.48307338 4291282111
-0.042642169 -0.019181659 0.48282343 4291282111
-0.041842803 -0.019171728 0.48257345 4291479490
-0.041033611 -0.019156832 0.48219848 4291479490
-0.04023606 -0.019146902 0.48194852 4291479490
-0.03945978 -0.019146902 0.48194852 4291479490
-0.038663439 -0.019136971 0.48169854 4291544770
-0.037887562 -0.019136971 0.48169854 4291544770
-0.037092429 -0.019127039 0.48144856 4291544770
-0.036316957 -0.019127039 0.48144856 4291610563
-0.035541486 -0.019127039 0.48144856 4291610563
-0.034747958 -0.019117108 0.48119858 4291610563
-0.033972885 -0.019117108 0.48119858 4291742149
-0.033197816 -0.019117108 0.48119858 4291742149
-0.032414325 -0.019112144 0.48107362 4291807942
-0.03163946 -0.019112144 0.48107362 4291742149
-0.030864589 -0.019112144 0.48107362 4291807942
-0.030089717 -0.019112144 0.48107362 4291807942
-0.029314851 -0.019112144 0.48107362 4291807944
-0.028547395 -0.019117108 0.48119858 4291807944
-0.027772324 -0.019117108 0.48119858 4292005323
-0.027004266 -0.019122073 0.48132357 4292136909
-0.026228994 -0.019122073 0.48132357 4292071116
-0.025453722 -0.019122073 0.48132357 4292136909
-0.024678452 -0.019122073 0.48132357 4292136907
-0.023896972 -0.019117108 0.48119858 4292202700
-0.023121903 -0.019117108 0.48119858 4292202700
-0.02234683 -0.019117108 0.48119858 4292202700
-0.021566158 -0.019112144 0.48107362 4292268493
-0.020785887 -0.019107178 0.48094863 4292268493
-0.02001122 -0.019107178 0.48094863 4292334286
-0.019231554 -0.019102212 0.48082364 4292465872
-0.018452289 -0.019097246 0.48069865 4292531667
-0.017678022 -0.019097246 0.48069865 4292531667
-0.016894966 -0.019087315 0.48044866 4292597460
-0.016121104 -0.019087315 0.48044866 4292597460
-0.01534325 -0.019082349 0.48032367 4292663251
-0.014565798 -0.019077385 0.48019871 4292597458
-0.013788748 -0.019072419 0.48007372 4292597460
-0.013015489 -0.019072419 0.48007372 4292597460
-0.012242232 -0.019072419 0.48007372 4292597973
-0.011468973 -0.019072419 0.48007372 4292663766
-0.010695714 -0.019072419 0.48007372 4292597720
-0.0099224551 -0.019072419 0.48007372 4292729306
-0.0091491966 -0.019072419 0.48007372 4292729308
-0.0083781183 -0.019077385 0.48019871 4292926687
-0.0076066377 -0.019082349 0.48032367 4292991967
-0.0068347543 -0.019087315 0.48044866 4292991967
-0.0060640457 -0.019097246 0.48069865 4292926174
-0.0052897804 -0.019097246 0.48069865 4292926174
-0.0045178635 -0.019107178 0.48094863 4292926174
-0.003745141 -0.019117108 0.48119858 4292926174
-0.0029716135 -0.019127039 0.48144856 4293057758
-0.0021961404 -0.019127039 0.48144856 4293057758
-0.0014217737 -0.019141937 0.48182353 4293057758
-0.00064586417 -0.019146902 0.48194852 4293057758
0.00013048184 -0.019156832 0.48219848 4293189597
0.00090739795 -0.019161798 0.48232347 4293189597
0.0016842802 -0.019161798 0.48232347 4292992218
0.0024618004 -0.019166764 0.48244846 4293189597
0.003240562 -0.019176694 0.48269844 4293320413
0.0040201289 -0.019186625 0.48294839 4293451999
0.0047980179 -0.019186625 0.48294839 4293058009
0.0055773496 -0.019191591 0.48307338 4293123802
0.0063570845 -0.019196555 0.48319837 4293255901
0.0071390676 -0.019206487 0.48344836 4293453280
0.0079198088 -0.019211452 0.48357335 4293452769
0.0086987037 -0.019211452 0.48357335 4293321183
0.0094849486 -0.019226348 0.48394829 4293649378
0.010277702 -0.019251177 0.48457325 4293846757
0.011078174 -0.019285936 0.48544815 4293846244
0.011884518 -0.019325659 0.48644802 4293912037
0.012668043 -0.019325659 0.48644802 4293912037
0.013475763 -0.019360416 0.48732293 4293846244
0.014278986 -0.019385245 0.48794788 4293846757
0.015080363 -0.019405106 0.48844782 4294109929
0.015883351 -0.019424969 0.48894778 4294109929
0.016670903 -0.019424969 0.48894778 4293846757
0.017471842 -0.019439865 0.48932272 4293846504
0.018283321 -0.019464692 0.48994765 4294043883
0.019091945 -0.019484553 0.49044761 4294043883
0.019902179 -0.019504415 0.49094754 4294043883
0.020692952 -0.019504415 0.49094754 4294043883
0.021505604 -0.019524278 0.49144751 4294043883
0.022319863 -0.01954414 0.49194744 4293978862
0.023147479 -0.019573933 0.49269736 4294110448
0.023977511 -0.019603726 0.49344727 4294044655
0.024772311 -0.019603726 0.49344727 4293978862
0.025612442 -0.019638484 0.49432218 4293978862
0.026455391 -0.019673241 0.49519709 4294176241
0.02729428 -0.019703034 0.495947 4294044653
0.028135587 -0.019732829 0.49669695 4294176239
0.028935622 -0.019732829 0.49669695 4294242032
0.02978055 -0.019762622 0.49744686 4294373618
0.030635579 -0.019797379 0.49832177 4294307055
0.031485543 -0.019827172 0.49907169 4294504434
0.032337919 -0.019856965 0.4998216 4294372850
0.033142988 -0.019856965 0.4998216 4294307057
0.034007471 -0.019891722 0.50069648 4294109676
0.034874786 -0.019926483 0.50157142 4294109676
0.035762694 -0.01997117 0.50269628 4293913320
0.036663324 -0.020020828 0.50394619 4293715941
0.037475038 -0.020020828 0.50394619 4293453280
0.038400695 -0.020080412 0.50544602 4293058522
0.039331183 -0.020139998 0.50694585 4293123032
0.040266503 -0.020199584 0.50844568 4293123032
0.041206658 -0.020259168 0.50994551 4292859860
0.042141341 -0.020313788 0.51132035 4292794067
0.042964928 -0.020313788 0.51132035 4292859860
0.043916959 -0.020373374 0.51282018 4292859860
0.044862922 -0.020427996 0.51419508 4292728015
0.045813307 -0.020482616 0.51556993 4292728015
0.04683597 -0.02056703 0.51769471 4292465356
0.047669824 -0.02056703 0.51769471 4292465356
0.04873788 -0.020666339 0.52019441 4292268747
0.049766347 -0.020745786 0.52219421 4292202954
0.050704356 -0.020785512 0.52319413 4292007115
-0.084586687 -0.019094774 0.50094646 4287923590
-0.083696201 -0.019075718 0.50044656 4289372831
-0.082890131 -0.019075718 0.50044656 4289504417
-0.08208406 -0.019075718 0.50044656 4289702050
-0.081805758 -0.019199587 0.5036962 4289899429
-0.081155233 -0.019237699 0.50469607 4290161570
-0.080362216 -0.019242464 0.50482106 4290161570
-0.079568788 -0.019247228 0.50494605 4290293158
-0.078755468 -0.019247228 0.50494605 4290358951
-0.077961437 -0.019251991 0.50507104 4290227879
-0.077033363 -0.019223405 0.5043211 4290359465
-0.076221056 -0.019223405 0.5043211 4290425258
-0.075184479 -0.019166237 0.50282127 4290491051
-0.074171223 -0.019113831 0.50144643 4290425260
-0.073198959 -0.019070955 0.50032157 4290622639
-0.07239309 -0.019070955 0.50032157 4290491566
-0.071390502 -0.019018548 0.4989467 4290491566
-0.070445389 -0.018980434 0.4979468 4290557105
-0.069643341 -0.018980434 0.4979468 4290491312
-0.068737611 -0.01895185 0.49719688 4290557105
-0.067817226 -0.018918499 0.49632198 4290622898
-0.066899665 -0.018885151 0.49544707 4290623668
-0.06610164 -0.018885151 0.49544707 4290689461
-0.065188304 -0.018851802 0.49457216 4290689461
-0.064277776 -0.018818453 0.49369726 4290755254
-0.063354008 -0.01878034 0.49269736 4290886070
-0.062560417 -0.01878034 0.49269736 4290886070
-0.06164147 -0.018742226 0.49169746 4290755254
-0.060710281 -0.01869935 0.4905726 4290689461
-0.05981325 -0.018665999 0.48969769 4290689461
-0.05902449 -0.018665999 0.48969769 4290755254
-0.058146551 -0.018637415 0.48894778 4290623668
-0.057271019 -0.018608829 0.48819783 4290689461
-0.056484677 -0.018608829 0.48819783 4290689463
-0.055641294 -0.018589772 0.4876979 4290755256
-0.054799523 -0.018570717 0.48719797 4290755256
-0.053959362 -0.018551659 0.486698 4290886842
-0.053175431 -0.018551659 0.486698 4290821047
-0.05231078 -0.018523075 0.48594809 4290755254
-0.051475044 -0.018504018 0.48544815 4290689974
-0.050653972 -0.018489726 0.48507318 4290887353
-0.049872663 -0.018489726 0.48507318 4290887353
-0.049053401 -0.018475432 0.48469821 4290887353
-0.048247803 -0.018465905 0.48444825 4291018939
-0.047443002 -0.018456377 0.48419827 4291018939
-0.046663102 -0.018456377 0.48419827 4291150525
-0.045847666 -0.018442083 0.4838233 4291150525
-0.04503344 -0.018427791 0.48344836 4291084732
-0.044231866 -0.018418264 0.48319837 4291084732
-0.04345357 -0.018418264 0.48319837 4291216320
-0.042642169 -0.018403972 0.48282343 4291282113
-0.041842803 -0.018394442 0.48257345 4291347906
-0.041033611 -0.018380148 0.48219848 4291347906
-0.04023606 -0.018370621 0.48194852 4291347906
-0.03945978 -0.018370621 0.48194852 4291347906
-0.038663439 -0.018361093 0.48169854 4291479492
-0.037887562 -0.018361093 0.48169854 4291479492
-0.037092429 -0.018351564 0.48144856 4291479492
-0.036316957 -0.018351564 0.48144856 4291545285
-0.035541486 -0.018351564 0.48144856 4291545285
-0.034747958 -0.018342035 0.48119858 4291545285
-0.033972885 -0.018342035 0.48119858 4291676356
-0.033197816 -0.018342035 0.48119858 4291676356
-0.032414325 -0.018337272 0.48107362 4291807942
-0.03163946 -0.018337272 0.48107362 4291807942
-0.030864589 -0.018337272 0.48107362 4291873735
-0.030089717 -0.018337272 0.48107362 4292005321
-0.029314851 -0.018337272 0.48107362 4291807942
-0.028547395 -0.018342035 0.48119858 4291873735
-0.027772324 -0.018342035 0.48119858 4292071116
-0.027004266 -0.0183468 0.48132357 4291873737
-0.026228994 -0.0183468 0.48132357 4292005323
-0.025453722 -0.0183468 0.48132357 4292005323
-0.024678452 -0.0183468 0.48132357 4292071116
-0.023896972 -0.018342035 0.48119858 4292136909
-0.023121903 -0.018342035 0.48119858 4292136909
-0.02234683 -0.018342035 0.48119858 4292202702
-0.021566158 -0.018337272 0.48107362 4292268495
-0.020785887 -0.018332507 0.48094863 4292268495
-0.02001122 -0.018332507 0.48094863 4292268495
-0.019231554 -0.018327745 0.48082364 4292334288
-0.018452289 -0.01832298 0.48069865 4292531667
-0.017678022 -0.01832298 0.48069865 4292663253
-0.016894966 -0.018313451 0.48044866 4292531667
-0.016121104 -0.018313451 0.48044866 4292531667
-0.01534325 -0.018308686 0.48032367 4292597460
-0.014565798 -0.018303923 0.48019871 4292663253
-0.013788748 -0.018299159 0.48007372 4292531667
-0.013015489 -0.018299159 0.48007372 4292465874
-0.012242232 -0.018299159 0.48007372 4292532180
-0.011468973 -0.018299159 0.48007372 4292597973
-0.010695714 -0.018299159 0.48007372 4292663513
-0.0099224551 -0.018299159 0.48007372 4292729306
-0.0091491966 -0.018299159 0.48007372 4292729306
-0.0083781183 -0.018303923 0.48019871 4292992478
-0.0076066377 -0.018308686 0.48032367 4293057760
-0.0068347543 -0.018313451 0.48044866 4293057760
-0.0060640457 -0.01832298 0.48069865 4292926174
-0.0052897804 -0.01832298 0.48069865 4292926174
-0.0045178635 -0.018332507 0.48094863 4293057760
-0.003745141 -0.018342035 0.48119858 4292991967
-0.0029716135 -0.018351564 0.48144856 4293254369
-0.0021961404 -0.018351564 0.48144856 4293254369
-0.0014217737 -0.018365858 0.48182353 4293188574
-0.00064586417 -0.018370621 0.48194852 4293188574
0.00013048184 -0.018380148 0.48219848 4293189344
0.00090739795 -0.018384913 0.48232347 4293123551
0.0016842802 -0.018384913 0.48232347 4293058011
0.0024618004 -0.018389678 0.48244846 4293189597
0.003240562 -0.018399207 0.48269844 4293255390
0.0040201289 -0.018408734 0.48294839 4293518562
0.0047980179 -0.018408734 0.48294839 4293189597
0.0055773496 -0.018413499 0.48307338 4293255390
0.0063570845 -0.018418264 0.48319837 4293321181
0.0071390676 -0.018427791 0.48344836 4293518560
0.0079198088 -0.018432556 0.48357335 4293583585
0.0086987037 -0.018432556 0.48357335 4293320413
0.0094849486 -0.018446848 0.48394829 4293648865
0.010277702 -0.018470669 0.48457325 4293846244
0.011078174 -0.018504018 0.48544815 4293846244
0.011884518 -0.018542131 0.48644802 4293912037
0.012668043 -0.018542131 0.48644802 4293912037
0.013475763 -0.01857548 0.48732293 4293912037
0.014278986 -0.018599302 0.48794788 4293912037
0.015080363 -0.018618358 0.48844782 4294109416
0.015883351 -0.018637415 0.48894778 4294241515
0.016670903 -0.018637415 0.48894778 4293780964
0.017471842 -0.018651707 0.48932272 4293845991
0.018283321 -0.018675527 0.48994765 4293977577
0.019091945 -0.018694585 0.49044761 4293977579
0.019902179 -0.01871364 0.49094754 4293977579
0.020692952 -0.01871364 0.49094754 4294043885
0.021505604 -0.018732699 0.49144751 4294043885
0.022319863 -0.018751753 0.49194744 4294044657
0.023147479 -0.01878034 0.49269736 4294176243
0.023977511 -0.018808924 0.49344727 4294044657
0.024772311 -0.018808924 0.49344727 4294044657
0.025612442 -0.018842272 0.49432218 4294044657
0.026455391 -0.018875623 0.49519709 4294176243
0.02729428 -0.018904207 0.495947 4294110448
0.028135587 -0.018932793 0.49669695 4294242034
0.028935622 -0.018932793 0.49669695 4294504434
0.02978055 -0.018961377 0.49744686 4294372848
0.030635579 -0.018994728 0.49832177 4294240751
0.031485543 -0.019023312 0.49907169 4294438130
0.032337919 -0.019051896 0.4998216 4294307057
0.033142988 -0.019051896 0.4998216 4294307057
0.034007471 -0.019085245 0.50069648 4294175471
0.034874786 -0.019118596 0.50157142 4294636022
0.035762694 -0.019161472 0.50269628 4293978860
0.036663324 -0.019209115 0.50394619 4293715688
0.037475038 -0.019209115 0.50394619 4293518560
0.038400695 -0.019266285 0.50544602 4293189595
0.039331183 -0.019323455 0.50694585 4292992216
0.040266503 -0.019380623 0.50844568 4293058009
0.041206658 -0.019437794 0.50994551 4292729044
0.042141341 -0.019490199 0.51132035 4292663251
0.042964928 -0.019490199 0.51132035 4292663251
0.043916959 -0.019547369 0.51282018 4292597458
0.044862922 -0.019599777 0.51419508 4292596688
0.045813307 -0.019652182 0.51556993 4292596688
0.04683597 -0.019733174 0.51769471 4292334286
0.047669824 -0.019733174 0.51769471 4292334286
0.04873788 -0.019828456 0.52019441 4292268493
0.04977826 -0.019909447 0.5223192 4292202700
0.050704356 -0.019942798 0.52319413 4291809736
-0.084586687 -0.018287895 0.50094646 4288122253
-0.083696201 -0.018269645 0.50044656 4289110429
-0.082890131 -0.018269645 0.50044656 4289439394
-0.08208406 -0.018269645 0.50044656 4289505187
-0.081805758 -0.018388279 0.5036962 4289505187
-0.081014551 -0.018392842 0.50382119 4290030502
-0.080322422 -0.018420218 0.50457108 4290030502
-0.079568788 -0.018433908 0.50494605 4290293158
-0.078755468 -0.018433908 0.50494605 4290358951
-0.077942148 -0.018433908 0.50494605 4290358951
-0.076976098 -0.018397406 0.50394619 4290490537
-0.076164395 -0.018397406 0.50394619 4290622123
-0.075128414 -0.01834265 0.50244629 4290556330
-0.074097268 -0.018287895 0.50094646 4290490539
-0.073144101 -0.018251393 0.49994659 4290622125
-0.072338834 -0.018251393 0.49994659 4290622639
-0.071354732 -0.018205764 0.49869671 4290556846
-0.070410021 -0.018169262 0.49769682 4290622639
-0.069608375 -0.018169262 0.49769682 4290556846
-0.068685777 -0.018137321 0.49682191 4290622898
-0.067783073 -0.018109946 0.49607199 4290622898
-0.066865914 -0.018078005 0.49519709 4290754484
-0.066068292 -0.018078005 0.49519709 4290820277
-0.065171823 -0.018050628 0.49444717 4290754484
-0.064245231 -0.018014126 0.49344727 4290754484
-0.063321866 -0.017977621 0.49244738 4290754484
-0.062528677 -0.017977621 0.49244738 4290754484
-0.061610136 -0.017941119 0.49144751 4290622898
-0.060694814 -0.017904617 0.49044761 4290622898
-0.059782717 -0.017868115 0.48944771 4290820277
-0.05899436 -0.017868115 0.48944771 4290820277
-0.058116823 -0.017840737 0.4886978 4290689461
-0.057271019 -0.017822485 0.48819783 4290492082
-0.056484677 -0.017822485 0.48819783 4290623668
-0.055641294 -0.017804233 0.4876979 4290689461
-0.054771405 -0.017776858 0.48694798 4290755254
-0.053903934 -0.017749481 0.48619807 4290821047
-0.053120811 -0.017749481 0.48619807 4290821047
-0.052270412 -0.017726665 0.48557311 4290755254
-0.05142203 -0.017703852 0.48494819 4290689974
-0.050614815 -0.017694725 0.48469821 4290821560
-0.04983411 -0.017694725 0.48469821 4290821560
-0.049028106 -0.0176856 0.48444825 4290887353
-0.048222907 -0.017676475 0.48419827 4291018939
-0.04740626 -0.017662786 0.4838233 4291018939
-0.046626966 -0.017662786 0.4838233 4291150525
-0.045812137 -0.017649097 0.48344836 4291084732
-0.045010153 -0.017639972 0.48319837 4291084734
-0.044208981 -0.017630845 0.48294839 4291150527
-0.043431092 -0.017630845 0.48294839 4291216320
-0.042620089 -0.017617157 0.48257345 4291216320
-0.04182113 -0.017608032 0.48232347 4291282113
-0.041022975 -0.017598905 0.48207349 4291282113
-0.040225625 -0.017589781 0.48182353 4291281860
-0.039449546 -0.017589781 0.48182353 4291347653
-0.038653407 -0.017580654 0.48157355 4291479239
-0.0378679 -0.017576091 0.48144856 4291479239
-0.037082799 -0.017571529 0.48132357 4291479492
-0.036307529 -0.017571529 0.48132357 4291545285
-0.035523031 -0.017566966 0.48119858 4291545285
-0.034738936 -0.017562404 0.48107362 4291611078
-0.033955239 -0.017557841 0.48094863 4291676356
-0.033180572 -0.017557841 0.48094863 4291807942
-0.032405905 -0.017557841 0.48094863 4291873735
-0.031631239 -0.017557841 0.48094863 4291807942
-0.03085657 -0.017557841 0.48094863 4291873735
-0.0300819 -0.017557841 0.48094863 4291742149
-0.029307235 -0.017557841 0.48094863 4291807942
-0.028539982 -0.017562404 0.48107362 4291873735
-0.027765112 -0.017562404 0.48107362 4291742151
-0.026997253 -0.017566966 0.48119858 4291807944
-0.026222182 -0.017566966 0.48119858 4292071116
-0.025447113 -0.017566966 0.48119858 4292005323
-0.024672043 -0.017566966 0.48119858 4292005323
-0.023890767 -0.017562404 0.48107362 4292005323
-0.023115898 -0.017562404 0.48107362 4292071116
-0.022335222 -0.017557841 0.48094863 4292268495
-0.021554952 -0.017553277 0.48082364 4292268495
-0.020775083 -0.017548714 0.48069865 4292268495
-0.020000819 -0.017548714 0.48069865 4292203215
-0.019226555 -0.017548714 0.48069865 4292269008
-0.01844749 -0.017544152 0.48057365 4292531414
-0.017668828 -0.017539589 0.48044866 4292663000
-0.016886177 -0.017530464 0.48019871 4292465621
-0.016112717 -0.017530464 0.48019871 4292465621
-0.015339258 -0.017530464 0.48019871 4292531414
-0.014558216 -0.017521339 0.47994873 4292531414
-0.013785157 -0.017521339 0.47994873 4292531414
-0.013012101 -0.017521339 0.47994873 4292465621
-0.012239044 -0.017521339 0.47994873 4292466134
-0.011465986 -0.017521339 0.47994873 4292663513
-0.010692929 -0.017521339 0.47994873 4292663513
-0.0099198716 -0.017521339 0.47994873 4292729306
-0.0091468152 -0.017521339 0.47994873 4292729306
-0.0083759371 -0.0175259 0.48007372 4292926685
-0.0076046586 -0.017530464 0.48019871 4292991967
-0.0068347543 -0.017539589 0.48044866 4292991967
-0.006062469 -0.017544152 0.48057365 4292926174
-0.0052884049 -0.017544152 0.48057365 4292794588
-0.0045166896 -0.017553277 0.48082364 4293057760
-0.0037441684 -0.017562404 0.48107362 4292991967
-0.0029708419 -0.017571529 0.48132357 4293188576
-0.0021955702 -0.017571529 0.48132357 4293254369
-0.0014214049 -0.017585218 0.48169854 4293254369
-0.00064569671 -0.017589781 0.48182353 4293385955
0.00013044801 -0.017598905 0.48207349 4293320160
0.00090716279 -0.017603468 0.48219848 4293320160
0.0016838437 -0.017603468 0.48219848 4293189344
0.0024618004 -0.017612595 0.48244846 4293255137
0.0032397232 -0.017617157 0.48257345 4293255137
0.0040180483 -0.01762172 0.48269844 4293518309
0.004795535 -0.01762172 0.48269844 4293321183
0.0055759065 -0.017630845 0.48294839 4293321183
0.0063570845 -0.017639972 0.48319837 4293451999
0.0071372217 -0.017644534 0.48332337 4293649378
0.0079177618 -0.017649097 0.48344836 4293583332
0.0086964555 -0.017649097 0.48344836 4293385953
0.0094824992 -0.017662786 0.4838233 4293649125
0.010275052 -0.0176856 0.48444825 4293780711
0.011075322 -0.01771754 0.48532316 4293846504
0.011878411 -0.017749481 0.48619807 4293780711
0.012661534 -0.017749481 0.48619807 4293780711
0.01346885 -0.01778142 0.48707297 4293846504
0.014271671 -0.017804233 0.4876979 4293846504
0.015076504 -0.017827049 0.48832282 4294043883
0.01587929 -0.017845301 0.48882279 4294109416
0.016666641 -0.017845301 0.48882279 4293846244
0.01746738 -0.017858988 0.48919773 4293845991
0.018273992 -0.01787724 0.48969769 4293977577
0.019082213 -0.017895492 0.49019763 4294174956
0.019892044 -0.017913742 0.49069756 4293911784
0.020682415 -0.017913742 0.49069756 4294109167
0.021500133 -0.017936558 0.49132252 4294109167
0.022319863 -0.017959371 0.49194744 4294109680
0.023141606 -0.017982185 0.49257237 4294241266
0.023934998 -0.017982185 0.49257237 4293978864
0.024766035 -0.018009562 0.49332228 4294044657
0.025605965 -0.018041503 0.49419719 4293978864
0.026442038 -0.01806888 0.49494714 4294110450
0.027280524 -0.018096257 0.49569705 4293913071
0.028121427 -0.018123634 0.49644697 4294242036
0.028921058 -0.018123634 0.49644697 4294570229
0.029758101 -0.018146448 0.49707189 4294372850
0.030612526 -0.018178388 0.4979468 4294175471
0.031454001 -0.018201202 0.49857172 4294307057
0.032305572 -0.018228579 0.49932167 4293780713
0.033109836 -0.018228579 0.49932167 4294241264
0.033973519 -0.01826052 0.50019658 4294043885
0.03483133 -0.018287895 0.50094646 4293912299
0.035709344 -0.018324399 0.50194639 4294043885
0.036608763 -0.018370027 0.50319624 4293912299
0.037419267 -0.018370027 0.50319624 4293584355
0.038343716 -0.018424781 0.50469607 4293255390
0.039273001 -0.018479535 0.5061959 4293189595
0.04020711 -0.01853429 0.50769573 4293058009
0.041156162 -0.018593607 0.50932062 4292334286
0.041976526 -0.018593607 0.50932062 4292597458
0.04291242 -0.018643798 0.51069546 4292663251
0.043852743 -0.018693989 0.5120703 4292597458
0.044808395 -0.018748743 0.51357013 4292465872
0.045757774 -0.018798934 0.51494497 4292268493
0.046734195 -0.018858252 0.51656979 4292334286
0.047566243 -0.018858252 0.51656979 4292334286
0.048632488 -0.018949509 0.51906955 4292268493
0.049682971 -0.019031642 0.52131933 4292202700
0.050668016 -0.019086394 0.52281916 4292006088
-0.084030643 -0.017533354 0.50244629 4289373350
-0.083179958 -0.017524634 0.50219637 4289439143
-0.082371064 -0.017524634 0.50219637 4289505187
-0.081562169 -0.017524634 0.50219637 4289570980
-0.081014551 -0.017581334 0.50382119 4290030502
-0.080302522 -0.01760314 0.50444609 4290030502
-0.079568788 -0.017620588 0.50494605 4290096295
-0.078755468 -0.017620588 0.50494605 4290162088
-0.077942148 -0.017620588 0.50494605 4290227879
-0.076976098 -0.017585695 0.50394619 4290227879
-0.076164395 -0.017585695 0.50394619 4290425258
-0.075109728 -0.017528996 0.50232136 4290425258
-0.074060291 -0.017472293 0.50069648 4290359465
-0.073070958 -0.017428679 0.49944663 4290491051
-0.072266489 -0.017428679 0.49944663 4290753711
-0.071301088 -0.017389426 0.49832177 4290687918
-0.07035698 -0.017354533 0.49732187 4290622639
-0.069555938 -0.017354533 0.49732187 4290556846
-0.068651214 -0.017328365 0.49657196 4290688432
-0.067748919 -0.017302195 0.49582204 4290820018
-0.066865914 -0.017280387 0.49519709 4290754738
-0.066068292 -0.017280387 0.49519709 4290754738
-0.06515535 -0.017249856 0.49432218 4290623152
-0.064228959 -0.017214963 0.49332228 4290557359
-0.063289724 -0.017175712 0.49219742 4290623152
-0.062496938 -0.017175712 0.49219742 4290623152
-0.061578795 -0.017140819 0.49119753 4290622898
-0.060663879 -0.017105926 0.49019763 4290754484
-0.059782717 -0.017079758 0.48944771 4290886070
-0.058979295 -0.017075395 0.48932272 4290820277
-0.05810196 -0.017049227 0.48857281 4290623668
-0.057241697 -0.017027419 0.48794788 4290623668
-0.056455757 -0.017027419 0.48794788 4290623668
-0.055612776 -0.017009972 0.48744792 4290689461
-0.054729227 -0.016979441 0.48657301 4290755254
-0.053848505 -0.01694891 0.4856981 4290821047
-0.053066183 -0.01694891 0.4856981 4290755254
-0.052216597 -0.016927103 0.48507318 4290821047
-0.051395524 -0.016914017 0.48469821 4290755767
-0.050575662 -0.016900934 0.48432326 4290821560
-0.049795561 -0.016900934 0.48432326 4291018939
-0.048990157 -0.016892212 0.48407328 4290821560
-0.048185561 -0.016883487 0.4838233 4290952633
-0.04738177 -0.016874766 0.48357335 4291084219
-0.046602879 -0.016874766 0.48357335 4291084732
-0.045788448 -0.016861681 0.48319837 4291084732
-0.044986866 -0.016852956 0.48294839 4291150527
-0.0441861 -0.016844235 0.48269844 4291216320
-0.043408614 -0.016844235 0.48269844 4291150527
-0.042609051 -0.016835511 0.48244846 4291216320
-0.041810289 -0.016826788 0.48219848 4291282113
-0.041012343 -0.016818065 0.48194852 4291282113
-0.040215191 -0.016809342 0.48169854 4291281860
-0.039439313 -0.016809342 0.48169854 4291281860
-0.038643375 -0.01680062 0.48144856 4291347653
-0.037858069 -0.016796257 0.48132357 4291479239
-0.037073169 -0.016791895 0.48119858 4291545032
-0.0362981 -0.016791895 0.48119858 4291545032
-0.035513807 -0.016787535 0.48107362 4291545285
-0.034729909 -0.016783172 0.48094863 4291611078
-0.033946414 -0.016778812 0.48082364 4291676358
-0.033171952 -0.016778812 0.48082364 4291807944
-0.032397483 -0.016778812 0.48082364 4291807942
-0.031614799 -0.016774449 0.48069865 4291807942
-0.030840531 -0.016774449 0.48069865 4291807944
-0.030074082 -0.016778812 0.48082364 4291742151
-0.029299619 -0.016778812 0.48082364 4292071116
-0.028525151 -0.016778812 0.48082364 4292071116
-0.027757898 -0.016783172 0.48094863 4291807944
-0.026983229 -0.016783172 0.48094863 4291873737
-0.026208563 -0.016783172 0.48094863 4292267725
-0.025433894 -0.016783172 0.48094863 4292136139
-0.024659228 -0.016783172 0.48094863 4292005323
-0.023878353 -0.016778812 0.48082364 4292005323
-0.023103885 -0.016778812 0.48082364 4292005323
-0.022329418 -0.016778812 0.48082364 4292071116
-0.021549348 -0.016774449 0.48069865 4292268495
-0.020769682 -0.016770087 0.48057365 4292202702
-0.019995619 -0.016770087 0.48057365 4292137422
-0.019216556 -0.016765727 0.48044866 4292203215
-0.018433098 -0.016757004 0.48019871 4292466134
-0.017655041 -0.016752642 0.48007372 4292531927
-0.016877387 -0.016748281 0.47994873 4292597207
-0.016104329 -0.016748281 0.47994873 4292531414
-0.01532728 -0.016743919 0.47982374 4292531416
-0.014554424 -0.016743919 0.47982374 4292663002
-0.013781568 -0.016743919 0.47982374 4292531416
-0.013008712 -0.016743919 0.47982374 4292531416
-0.012235857 -0.016743919 0.47982374 4292531929
-0.011463 -0.016743919 0.47982374 4292663515
-0.010690144 -0.016743919 0.47982374 4292663513
-0.0099172881 -0.016743919 0.47982374 4292729306
-0.0091444328 -0.016743919 0.47982374 4292729306
-0.0083737569 -0.016748281 0.47994873 4292860892
-0.0076026791 -0.016752642 0.48007372 4292926174
-0.0068311985 -0.016757004 0.48019871 4292794588
-0.0060608923 -0.016765727 0.48044866 4292794588
-0.0052870293 -0.016765727 0.48044866 4292926174
-0.0045155152 -0.016774449 0.48069865 4293057760
-0.0037431957 -0.016783172 0.48094863 4293057760
-0.0029700706 -0.016791895 0.48119858 4293188576
-0.002195 -0.016791895 0.48119858 4293188576
-0.0014206672 -0.01680062 0.48144856 4293188576
-0.00064552919 -0.016809342 0.48169854 4293188576
0.00013041421 -0.016818065 0.48194852 4293320162
0.00090692769 -0.016822426 0.48207349 4293451748
0.0016834072 -0.016822426 0.48207349 4293385953
0.0024605247 -0.016826788 0.48219848 4293451746
0.003238884 -0.016835511 0.48244846 4293451746
0.0040180483 -0.016844235 0.48269844 4293254367
0.004795535 -0.016844235 0.48269844 4293385953
0.0055744639 -0.016848596 0.48282343 4293451746
0.0063537955 -0.016852956 0.48294839 4293583332
0.0071353763 -0.016861681 0.48319837 4293649125
0.0079157148 -0.016866041 0.48332337 4293583334
0.0086942073 -0.016866041 0.48332337 4293451748
0.0094800498 -0.016879126 0.48369834 4293583334
0.0102724 -0.016900934 0.48432326 4293714920
0.011069617 -0.016927103 0.48507318 4293780713
0.011872305 -0.016957635 0.48594809 4293714920
0.012655024 -0.016957635 0.48594809 4293780713
0.013461938 -0.016988166 0.48682299 4293912299
0.014264356 -0.017009972 0.48744792 4293846506
0.015068787 -0.017031781 0.48807287 4293846506
0.015871169 -0.017049227 0.48857281 4293780711
0.016658118 -0.017049227 0.48857281 4293714918
0.017462917 -0.017066672 0.48907274 4293780711
0.018269328 -0.017084118 0.4895727 4293912297
0.019082213 -0.017105926 0.49019763 4294043883
0.019892044 -0.017123371 0.49069756 4293846504
0.020682415 -0.017123371 0.49069756 4293846508
0.021494664 -0.017140819 0.49119753 4293451750
0.022319863 -0.017166987 0.49194744 4294044657
0.023141606 -0.017188795 0.49257237 4294110450
0.023934998 -0.017188795 0.49257237 4294044657
0.024766035 -0.017214963 0.49332228 4294044657
0.025599491 -0.017241133 0.49407223 4294571001
0.02643536 -0.017267304 0.49482214 4293978864
0.027266767 -0.017289111 0.49544707 4294373620
0.028064787 -0.017289111 0.49544707 4294242034
0.028906496 -0.01731528 0.49619699 4294372337
0.029735655 -0.017332727 0.49669695 4294438130
0.030581793 -0.017358895 0.49744686 4294307057
0.031430345 -0.017385064 0.49819678 4294307057
0.032232795 -0.017385064 0.49819678 4294175473
0.03308497 -0.017411234 0.4989467 4294241266
0.033931073 -0.01743304 0.49957162 4294109680
0.034796573 -0.017463572 0.50044656 4293912301
0.035673775 -0.017498463 0.50144643 4293912299
0.036481462 -0.017498463 0.50144643 4293912299
0.037400678 -0.017550802 0.50294626 4293780964
0.038315229 -0.017598778 0.5043211 4293451999
0.039243914 -0.017651118 0.50582099 4293255388
0.040187318 -0.017707819 0.50744581 4293123802
0.041125864 -0.017760156 0.50894564 4292334540
0.041945625 -0.017760156 0.50894564 4292663505
0.042880911 -0.017808134 0.51032048 4292663505
0.043820631 -0.01785611 0.51169533 4292597712
0.044764772 -0.017904086 0.51307017 4292269260
0.045713354 -0.017952064 0.51444507 4292269260
0.046643738 -0.017991317 0.51556993 4292203213
0.047474172 -0.017991317 0.51556993 4292269006
0.048491966 -0.018061101 0.51756972 4292137420
0.049492385 -0.018122163 0.51931953 4292203213
0.050668016 -0.018244287 0.52281916 4292071881
-0.084281489 -0.016773986 0.50394619 4289307810
-0.083179958 -0.016715743 0.50219637 4289439396
-0.082371064 -0.016715743 0.50219637 4289570980
-0.081562169 -0.016715743 0.50219637 4289768359
-0.080914058 -0.016749023 0.50319624 4289965222
-0.080143355 -0.016757345 0.50344622 4289965222
-0.07943093 -0.016778145 0.50407118 4290096295
-0.078619018 -0.016778145 0.50407118 4289767330
-0.077942148 -0.016807266 0.50494605 4290425258
-0.076995187 -0.016778145 0.50407118 4290227879
-0.076183282 -0.016778145 0.50407118 4290425258
-0.075091042 -0.016715743 0.50219637 4290359465
-0.074023321 -0.0166575 0.50044656 4290359465
-0.073034391 -0.016615897 0.49919668 4290425258
-0.072230324 -0.016615897 0.49919668 4290687918
-0.071247436 -0.016574295 0.4979468 4290622125
-0.070339292 -0.016549334 0.49719688 4290556846
-0.069538452 -0.016549334 0.49719688 4290556846
-0.068633936 -0.016524373 0.49644697 4290688432
-0.067748919 -0.016503571 0.49582204 4290820018
-0.066865914 -0.016482769 0.49519709 4290754738
-0.066068292 -0.016482769 0.49519709 4290754738
-0.06515535 -0.016453648 0.49432218 4290623152
-0.064228959 -0.016420366 0.49332228 4290557359
-0.063273653 -0.016378764 0.49207243 4290623152
-0.062481064 -0.016378764 0.49207243 4290754738
-0.061547458 -0.016341323 0.49094754 4290623152
-0.06063294 -0.016308041 0.48994765 4290820531
-0.059843782 -0.016308041 0.48994765 4290886324
-0.058949161 -0.016278919 0.48907274 4290820531
-0.058087096 -0.016258119 0.48844782 4290820531
-0.057212371 -0.016233157 0.4876979 4290820531
-0.056426834 -0.016233157 0.4876979 4290689461
-0.055584259 -0.016216516 0.48719797 4290689461
-0.054687057 -0.016183235 0.48619807 4290689461
-0.053793076 -0.016149953 0.48519817 4290623668
-0.053011563 -0.016149953 0.48519817 4290755254
-0.052176233 -0.016133312 0.48469821 4290821047
-0.051355768 -0.016120831 0.48432326 4290821047
-0.050549556 -0.01611251 0.48407328 4290886840
-0.04976986 -0.01611251 0.48407328 4291084473
-0.048964858 -0.01610419 0.4838233 4290755508
-0.048160668 -0.016095869 0.48357335 4290952633
-0.047345031 -0.01608339 0.48319837 4290952633
-0.04656674 -0.01608339 0.48319837 4291150012
-0.045764759 -0.016075069 0.48294839 4291150012
-0.044963583 -0.016066749 0.48269844 4291215805
-0.044163216 -0.016058428 0.48244846 4291281598
-0.043386132 -0.016058428 0.48244846 4291215807
-0.042586971 -0.016050108 0.48219848 4291281600
-0.041788619 -0.016041787 0.48194852 4291216320
-0.040991068 -0.016033467 0.48169854 4291216320
-0.040215191 -0.016033467 0.48169854 4291281860
-0.039418846 -0.016025146 0.48144856 4291281860
-0.038633343 -0.016020985 0.48132357 4291347653
-0.037848238 -0.016016826 0.48119858 4291479239
-0.037053913 -0.016008506 0.48094863 4291545032
-0.036279242 -0.016008506 0.48094863 4291545032
-0.03550458 -0.016008506 0.48094863 4291545285
-0.034720883 -0.016004344 0.48082364 4291611078
-0.033937592 -0.016000185 0.48069865 4291676356
-0.033163328 -0.016000185 0.48069865 4291807942
-0.03238906 -0.016000185 0.48069865 4291610563
-0.031614799 -0.016000185 0.48069865 4291676356
-0.030840531 -0.016000185 0.48069865 4291807944
-0.030066265 -0.016000185 0.48069865 4291873737
-0.029292 -0.016000185 0.48069865 4292005323
-0.028517736 -0.016000185 0.48069865 4292005323
-0.02774347 -0.016000185 0.48069865 4291807944
-0.026969206 -0.016000185 0.48069865 4291873737
-0.026201751 -0.016004344 0.48082364 4292071116
-0.025427286 -0.016004344 0.48082364 4292071116
-0.024652818 -0.016004344 0.48082364 4291873737
-0.023872145 -0.016000185 0.48069865 4292071116
-0.02309788 -0.016000185 0.48069865 4292071116
-0.022317808 -0.015996024 0.48057365 4292136909
-0.021538142 -0.015991865 0.48044866 4292334288
-0.020758878 -0.015987704 0.48032367 4292268495
-0.019985218 -0.015987704 0.48032367 4292137422
-0.019206557 -0.015983544 0.48019871 4292269008
-0.018423503 -0.015975224 0.47994873 4292466134
-0.017645847 -0.015971063 0.47982374 4292466134
-0.016872991 -0.015971063 0.47982374 4292597207
-0.016091747 -0.015962742 0.47957376 4292597207
-0.015319294 -0.015962742 0.47957376 4292597209
-0.014546841 -0.015962742 0.47957376 4292663002
-0.013774388 -0.015962742 0.47957376 4292663002
-0.013001935 -0.015962742 0.47957376 4292597209
-0.012229482 -0.015962742 0.47957376 4292597209
-0.011457029 -0.015962742 0.47957376 4292728795
-0.01068736 -0.015966903 0.47969875 4292663515
-0.0099147046 -0.015966903 0.47969875 4292729308
-0.0091420505 -0.015966903 0.47969875 4292729308
-0.0083715757 -0.015971063 0.47982374 4292926687
-0.0076007 -0.015975224 0.47994873 4292729308
-0.0068311985 -0.015983544 0.48019871 4292663515
-0.0060593151 -0.015987704 0.48032367 4292663517
-0.0052856538 -0.015987704 0.48032367 4292729310
-0.0045143412 -0.015996024 0.48057365 4292926176
-0.0037422227 -0.016004344 0.48082364 4293057762
-0.0029700706 -0.016016826 0.48119858 4292991969
-0.002195 -0.016016826 0.48119858 4292991969
-0.0014206672 -0.016025146 0.48144856 4293188576
-0.00064552919 -0.016033467 0.48169854 4293056990
0.00013038037 -0.016037626 0.48182353 4293254369
0.00090669258 -0.016041787 0.48194852 4293188576
0.0016829709 -0.016041787 0.48194852 4293320932
0.0024605247 -0.016050108 0.48219848 4293189346
0.0032380449 -0.016054267 0.48232347 4293123553
0.004017008 -0.016062587 0.48257345 4292926174
0.0047942931 -0.016062587 0.48257345 4293189344
0.0055730208 -0.016066749 0.48269844 4293320930
0.0063537955 -0.016075069 0.48294839 4293649125
0.0071335305 -0.016079228 0.48307338 4293649125
0.0079157148 -0.016087549 0.48332337 4293451748
0.0086942073 -0.016087549 0.48332337 4293451748
0.0094800498 -0.01610003 0.48369834 4293452518
0.01026975 -0.016116671 0.48419827 4293584104
0.011066765 -0.016141633 0.48494819 4293649897
0.011866197 -0.016166594 0.4856981 4293649897
0.012648514 -0.016166594 0.4856981 4293846506
0.013451569 -0.016191555 0.48644802 4293912299
0.014257042 -0.016216516 0.48719797 4293780713
0.015064928 -0.016241478 0.48794788 4293714920
0.015867108 -0.016258119 0.48844782 4293714920
0.016653856 -0.016258119 0.48844782 4293714920
0.017458454 -0.01627476 0.48894778 4293649895
0.018264664 -0.0162914 0.48944771 4293715688
0.019077348 -0.016312201 0.49007264 4293715688
0.01988698 -0.016328841 0.4905726 4293649895
0.020677147 -0.016328841 0.4905726 4293781485
0.021494664 -0.016349643 0.49119753 4293320934
0.022319863 -0.016374605 0.49194744 4293913071
0.023135735 -0.016391244 0.49244738 4293913071
0.023928925 -0.016391244 0.49244738 4293913071
0.024759762 -0.016416207 0.49319732 4294044657
0.025593014 -0.016441168 0.49394724 4293650412
0.026428683 -0.01646613 0.49469715 4293716205
0.027253009 -0.016482769 0.49519709 4294439415
0.028050626 -0.016482769 0.49519709 4294242036
0.028891932 -0.01650773 0.495947 4294307057
0.02972069 -0.016524373 0.49644697 4294241264
0.030566424 -0.016549334 0.49719688 4293913069
0.031398803 -0.016565973 0.49769682 4294439413
0.032200448 -0.016565973 0.49769682 4294176243
0.033051822 -0.016590936 0.49844676 4294176243
0.033905607 -0.016615897 0.49919668 4294175473
0.034779191 -0.016649179 0.50019658 4294043887
0.03565599 -0.016682459 0.50119644 4293846506
0.036463276 -0.016682459 0.50119644 4293912299
0.037363499 -0.016724061 0.50244629 4294043883
0.038286746 -0.016773986 0.50394619 4293451746
0.03921482 -0.016823908 0.50544602 4293386204
0.040157624 -0.01687799 0.50707084 4293188825
0.041105662 -0.016932074 0.50869566 4292729296
0.041925021 -0.016932074 0.50869566 4292729296
0.042859908 -0.016977835 0.5100705 4292597710
0.043799222 -0.017023597 0.51144534 4292531917
0.044753868 -0.01707352 0.51294518 4292466637
0.04569114 -0.017115124 0.51419508 4292269258
0.046609815 -0.017148403 0.51519495 4292137674
0.047439646 -0.017148403 0.51519495 4292269260
0.048468545 -0.017219128 0.51731974 4292072651
0.049456649 -0.01727321 0.51894456 4292006858
-0.084281489 -0.015962275 0.50394619 4289307808
-0.083386973 -0.01594644 0.50344622 4289439394
-0.082576066 -0.01594644 0.50344622 4289702566
-0.081724562 -0.015938522 0.50319624 4289834152
-0.080914058 -0.015938522 0.50319624 4289899429
-0.080143355 -0.01594644 0.50344622 4289965222
-0.07943093 -0.015966235 0.50407118 4290031015
-0.078619018 -0.015966235 0.50407118 4289965222
-0.077942148 -0.015993945 0.50494605 4290294185
-0.076995187 -0.015966235 0.50407118 4290162599
-0.076183282 -0.015966235 0.50407118 4290294185
-0.075091042 -0.015906852 0.50219637 4290294185
-0.074023321 -0.015851427 0.50044656 4290294185
-0.073034391 -0.015811836 0.49919668 4290359978
-0.072230324 -0.015811836 0.49919668 4290491053
