# .PCD v0.7 - Point Cloud Data file format
VERSION 0.7
FIELDS x y z rgba
SIZE 4 4 4 4
TYPE F F F U
COUNT 1 1 1 1
WIDTH 1003
HEIGHT 1
VIEWPOINT 0 0 0 1 0 0 0
POINTS 1003
DATA ascii
-0.019981151 -0.03682439 0.38970837 4292401113
-0.019403102 -0.036918875 0.39070827 4292466906
-0.018797807 -0.036966115 0.3912082 4292597720
-0.018190902 -0.037013356 0.39170817 4292663513
-0.017559974 -0.037013356 0.39170817 4292531927
-0.016918244 -0.036989734 0.39145818 4292597720
-0.016282517 -0.036977924 0.39133319 4292663513
-0.015652195 -0.036977924 0.39133319 4292860892
-0.015021872 -0.036977924 0.39133319 4292597720
-0.014409932 -0.037025165 0.39183313 4292597720
-0.013796384 -0.037072405 0.39233309 4292663513
-0.01318542 -0.037131459 0.39295802 4292729306
-0.012572441 -0.037190508 0.39358294 4292729306
-0.011938495 -0.037190508 0.39358294 4292597720
-0.011322496 -0.037249561 0.39420789 4292597720
-0.010701098 -0.037296802 0.39470783 4292597720
-0.010078087 -0.037344042 0.39520779 4292597720
-0.0094504813 -0.037379473 0.39558274 4292663513
-0.0088133123 -0.037379473 0.39558274 4292597720
-0.0081838947 -0.037414905 0.39595771 4292860892
-0.0075556501 -0.037462145 0.39645764 4292729308
-0.0069257948 -0.037509389 0.39695761 4292663515
-0.0062982882 -0.037580248 0.39770752 4292663515
-0.0056665875 -0.037639298 0.39833245 4292663515
-0.0050249905 -0.037639298 0.39833245 4292663513
-0.0043916455 -0.03771016 0.39908236 4292729306
-0.0037570591 -0.037792832 0.39995727 4292729306
-0.003118681 -0.037863694 0.40070719 4292729306
-0.002477116 -0.037922744 0.40133211 4292597722
-0.0018306869 -0.037922744 0.40133211 4292663515
-0.0011861023 -0.037981797 0.40195706 4292532701
-0.00053933676 -0.038029037 0.402457 4292532701
0.00010903926 -0.038076282 0.40295696 4292598492
0.0007590258 -0.038123518 0.4034569 4292598492
0.0014088771 -0.038123518 0.4034569 4292598492
0.0020619172 -0.038182572 0.40408182 4292598492
0.0027161315 -0.038229812 0.40458179 4292729306
0.0033740369 -0.038300674 0.4053317 4292729306
0.0040368419 -0.038395155 0.4063316 4292860892
0.0047014244 -0.038477827 0.40720651 4292729306
0.0053573158 -0.038477827 0.40720651 4292400341
0.0060279719 -0.038572311 0.4082064 4292466134
0.0066998019 -0.038654983 0.40908131 4292794586
0.0073744506 -0.038737655 0.40995622 4292728793
0.0080543673 -0.038832135 0.41095608 4292859609
0.0087162973 -0.038832135 0.41095608 4292859609
0.0094010457 -0.038926616 0.41195598 4292926172
0.010092069 -0.03903291 0.41308087 4292926172
0.01078997 -0.039151009 0.41433072 4292663515
0.011495355 -0.039280925 0.41570559 4292663515
0.012208826 -0.039422646 0.41720542 4292663515
0.01291941 -0.039540753 0.4184553 4292663515
0.013593419 -0.039540753 0.4184553 4292466906
0.014318566 -0.039682474 0.41995513 4292466906
0.015044081 -0.039812386 0.42132998 4292401370
0.0157647 -0.03991868 0.42245486 4292269784
0.016518133 -0.040095832 0.42432967 4291875026
0.017313072 -0.04035566 0.42707938 4291940819
0.018322324 -0.041076086 0.43470356 4291940562
0.01931238 -0.041702028 0.44132784 4291677390
0.020159328 -0.041985475 0.44432753 4291546061
0.020880882 -0.041997284 0.44445252 4290493373
0.021596767 -0.041997284 0.44445252 4286544764
-0.10838202 -0.039598107 0.42632946 4285623666
-0.10769533 -0.039598107 0.42632946 4288847523
-0.10697727 -0.039586499 0.42620447 4289638062
-0.10554268 -0.039307881 0.42320478 4289638062
-0.10486102 -0.039307881 0.42320478 4289835437
-0.10331786 -0.038982831 0.41970515 4289835437
-0.10264184 -0.038982831 0.41970515 4290032563
-0.10056903 -0.038448822 0.41395578 4290032563
-0.099902272 -0.038448822 0.41395578 4289967280
-0.098037012 -0.037984464 0.40895632 4290033073
-0.096544996 -0.037659414 0.40545669 4290098866
-0.095891923 -0.037659414 0.40545669 4290230452
-0.095180131 -0.037636194 0.40520671 4290427574
-0.094527461 -0.037636194 0.40520671 4290427574
-0.09387479 -0.037636194 0.40520671 4290427574
-0.093337134 -0.03768263 0.40570664 4290493367
-0.092683658 -0.03768263 0.40570664 4290689723
-0.091434799 -0.037438843 0.40308192 4290689723
-0.090785548 -0.037438843 0.40308192 4290755003
-0.088906541 -0.03692805 0.39758253 4290755003
-0.087988667 -0.036811959 0.39633265 4290689463
-0.087350287 -0.036811959 0.39633265 4290821049
-0.086411126 -0.036684263 0.39495781 4290821562
-0.085639238 -0.03662622 0.39433289 4290755769
-0.085004084 -0.03662622 0.39433289 4290689976
-0.084208474 -0.036556561 0.39358294 4290821562
-0.083547994 -0.036544956 0.39345798 4290821560
-0.082756214 -0.036475301 0.39270803 4290755767
-0.082123674 -0.036475301 0.39270803 4290755767
-0.081309579 -0.036394037 0.39183313 4290755767
-0.080601253 -0.036359213 0.39145818 4290821560
-0.079970732 -0.036359213 0.39145818 4290887353
-0.079264209 -0.036324386 0.39108321 4290821562
-0.078609154 -0.036312774 0.39095822 4290887355
-0.077979431 -0.036312774 0.39095822 4291018941
-0.077349707 -0.036312774 0.39095822 4291018941
-0.076670945 -0.036289558 0.39070827 4290887355
-0.076041631 -0.036289558 0.39070827 4290887355
-0.075364061 -0.036266338 0.39045829 4290887355
-0.074735142 -0.036266338 0.39045829 4290887355
-0.074106231 -0.036266338 0.39045829 4291018939
-0.07347732 -0.036266338 0.39045829 4291018939
-0.072825082 -0.03625473 0.39033329 4290887353
-0.072196372 -0.03625473 0.39033329 4291084732
-0.071498908 -0.036219906 0.38995835 4291150525
-0.070802659 -0.036185078 0.38958338 4291150525
-0.070062585 -0.036127035 0.38895845 4291084732
-0.069436081 -0.036127035 0.38895845 4291150525
-0.068676919 -0.036057379 0.38820854 4291150525
-0.067942075 -0.035999332 0.38758358 4291216318
-0.067317799 -0.035999332 0.38758358 4291018939
-0.066650502 -0.035976116 0.38733363 4291282111
-0.066005312 -0.035964508 0.38720864 4291347906
-0.065381631 -0.035964508 0.38720864 4291347906
-0.064757951 -0.035964508 0.38720864 4291282113
-0.06413427 -0.035964508 0.38720864 4291347906
-0.063490093 -0.0359529 0.38708365 4291347906
-0.06284631 -0.035941288 0.38695866 4291545285
-0.062182833 -0.035918072 0.38670868 4291611078
-0.061559964 -0.035918072 0.38670868 4291545285
-0.060858309 -0.035871636 0.38620874 4291610825
-0.060197249 -0.035848416 0.38595876 4291676618
-0.05957558 -0.035848416 0.38595876 4291610825
-0.058934819 -0.035836808 0.38583377 4291610825
-0.058294468 -0.0358252 0.38570878 4291676618
-0.057673205 -0.0358252 0.38570878 4291742411
-0.057088915 -0.035848416 0.38595876 4291742411
-0.056467246 -0.035848416 0.38595876 4291676618
-0.055845577 -0.035848416 0.38595876 4291742664
-0.055241801 -0.035860028 0.38608375 4291808457
-0.054602247 -0.035848416 0.38595876 4291742664
-0.053980578 -0.035848416 0.38595876 4291676871
-0.053324349 -0.0358252 0.38570878 4291677388
-0.052668933 -0.035801984 0.38545883 4291677388
-0.052014321 -0.035778765 0.38520885 4291808974
-0.051393859 -0.035778765 0.38520885 4291677388
-0.050723977 -0.035743937 0.38483387 4291677388
-0.050087851 -0.035732329 0.38470891 4291545802
-0.04945213 -0.035720721 0.38458392 4291677388
-0.048832674 -0.035720721 0.38458392 4291874767
-0.048197553 -0.035709109 0.38445893 4291808974
-0.04756283 -0.035697501 0.38433394 4291677388
-0.046913251 -0.035674281 0.38408396 4291874769
-0.0462946 -0.035674281 0.38408396 4291940562
-0.045661096 -0.035662677 0.383959 4291940562
-0.045027986 -0.035651065 0.383834 4291940562
-0.044409744 -0.035651065 0.383834 4292137941
-0.043791495 -0.035651065 0.383834 4292072148
-0.04317325 -0.035651065 0.383834 4292006355
-0.042568866 -0.035662677 0.383959 4291940562
-0.04197773 -0.035685893 0.38420895 4292006355
-0.041385792 -0.035709109 0.38445893 4292269527
-0.040793046 -0.035732329 0.38470891 4292072148
-0.040173389 -0.035732329 0.38470891 4291940562
-0.039592288 -0.035767157 0.38508385 4292137941
-0.038984679 -0.035778765 0.38520885 4292072148
-0.03837667 -0.035790373 0.38533384 4291940562
-0.037731513 -0.035767157 0.38508385 4292006355
-0.03711126 -0.035767157 0.38508385 4292072148
-0.036490999 -0.035767157 0.38508385 4292269527
-0.035870742 -0.035767157 0.38508385 4292335320
-0.035250485 -0.035767157 0.38508385 4292137941
-0.034630224 -0.035767157 0.38508385 4292400341
-0.034032047 -0.035790373 0.38533384 4292400341
-0.033433061 -0.035813592 0.38558382 4292531414
-0.032843906 -0.035848416 0.38595876 4292531414
-0.032222237 -0.035848416 0.38595876 4292531414
-0.031641506 -0.035894856 0.38645872 4292465621
-0.031059163 -0.035941288 0.38695866 4292268242
-0.030494867 -0.036010943 0.38770857 4292334035
-0.029908903 -0.036057379 0.38820854 4292334035
-0.029283611 -0.036057379 0.38820854 4292531414
-0.028676774 -0.036080595 0.38845849 4292466134
-0.028060105 -0.036092207 0.38858348 4292400341
-0.027443033 -0.036103815 0.38870847 4292400341
-0.026825562 -0.036115423 0.38883346 4292400341
-0.026199264 -0.036115423 0.38883346 4292400341
-0.025581188 -0.036127035 0.38895845 4292531927
-0.024970725 -0.036150251 0.38920841 4292400341
-0.024351642 -0.036161859 0.3893334 4292531927
-0.023724541 -0.036161859 0.3893334 4292531929
-0.023104854 -0.036173467 0.38945839 4292466136
-0.022477549 -0.036173467 0.38945839 4292401113
-0.021850245 -0.036173467 0.38945839 4292335320
-0.021236563 -0.036196686 0.38970837 4292401370
-0.020608857 -0.036196686 0.38970837 4292467163
-0.020000376 -0.03623151 0.39008331 4292401113
-0.019415515 -0.036312774 0.39095822 4292401113
-0.01882183 -0.036382429 0.39170817 4292531929
-0.018214118 -0.036428865 0.3922081 4292597722
-0.017582387 -0.036428865 0.3922081 4292597722
-0.016945252 -0.036417257 0.39208311 4292597722
-0.01631372 -0.036417257 0.39208311 4292663513
-0.015682189 -0.036417257 0.39208311 4292729306
-0.015050658 -0.036417257 0.39208311 4292663513
-0.014432915 -0.036452085 0.39245808 4292663513
-0.01381836 -0.036498517 0.39295802 4292728793
-0.013202196 -0.036544956 0.39345798 4292663000
-0.012588413 -0.036603 0.3940829 4292728793
-0.011972615 -0.036661044 0.39470783 4292663000
-0.011336857 -0.036661044 0.39470783 4292597720
-0.010714652 -0.03670748 0.39520779 4292597720
-0.010090836 -0.036753915 0.39570773 4292597720
-0.0094594387 -0.036777135 0.39595771 4292597720
-0.0088328049 -0.036823571 0.39645764 4292597720
-0.0081942277 -0.036823571 0.39645764 4292663513
-0.0075627961 -0.036858398 0.39683262 4292663515
-0.0069345175 -0.036916442 0.39745754 4292597722
-0.0063042264 -0.036974486 0.39808246 4292663513
-0.0056736995 -0.037044138 0.39883238 4292531927
-0.005031297 -0.037044138 0.39883238 4292663000
-0.0043971469 -0.037113793 0.3995823 4292794586
-0.0037617553 -0.037195053 0.4004572 4292663513
-0.0031225723 -0.037264708 0.40120715 4292663513
-0.0024809733 -0.037334364 0.40195706 4292663515
-0.0018335377 -0.037334364 0.40195706 4292597722
-0.0011883151 -0.037404016 0.40270698 4292466908
-0.00054084428 -0.037485279 0.40358189 4292401115
0.00010937747 -0.037543323 0.40420681 4292401115
0.00076184748 -0.037612978 0.40495673 4292466908
0.0014158604 -0.037659414 0.40545669 4292532701
0.0020689329 -0.037659414 0.40545669 4292532701
0.0027253614 -0.03770585 0.40595663 4292598492
0.0033854814 -0.037775502 0.40670654 4292598492
0.0040467759 -0.037833549 0.4073315 4292926687
0.0047100829 -0.037891593 0.40795642 4292729308
0.0053671817 -0.037891593 0.40795642 4292663513
0.0060372003 -0.037972856 0.40883133 4292663513
0.0067100367 -0.038054116 0.40970623 4292729306
0.0073879403 -0.038146991 0.41070613 4292663513
0.0080690654 -0.038239863 0.41170603 4292859609
0.0087534105 -0.038332731 0.4127059 4292859609
0.0094181588 -0.038332731 0.4127059 4292794586
0.010107337 -0.038425602 0.4137058 4292794586
0.010806246 -0.038541693 0.41495568 4292663515
0.011516091 -0.038681 0.41645551 4292663515
0.012238086 -0.038843524 0.41820532 4292597722
0.012961857 -0.038994443 0.41983014 4292597722
0.013698983 -0.039168578 0.42170495 4292466906
0.014378226 -0.039168578 0.42170495 4292532699
0.015106561 -0.039296273 0.42307979 4292401113
0.015839325 -0.039423972 0.42445466 4292401113
0.016547324 -0.039482016 0.42507958 4292401113
0.017313072 -0.039667763 0.42707938 4291940562
0.018322324 -0.040375907 0.43470356 4291874769
0.01931785 -0.041002788 0.44145283 4292006355
0.020187682 -0.041327838 0.44495246 4291084483
0.020880882 -0.041281406 0.44445252 4289439658
0.021596767 -0.041281406 0.44445252 4291085502
-0.10838202 -0.038911413 0.42632946 4283584079
-0.10769533 -0.038911413 0.42632946 4287136901
-0.10697727 -0.038900007 0.42620447 4288717213
-0.10554268 -0.03862622 0.42320478 4289177764
-0.10486102 -0.03862622 0.42320478 4289769901
-0.10331786 -0.03830681 0.41970515 4289704108
-0.10209165 -0.038101472 0.4174554 4289901234
-0.10056903 -0.037782058 0.41395578 4289967027
-0.099268831 -0.0375425 0.41133106 4289967027
-0.098037012 -0.037325755 0.40895632 4290032820
-0.096544996 -0.037006341 0.40545669 4290098613
-0.095891923 -0.037006341 0.40545669 4290230199
-0.095150776 -0.036972117 0.40508172 4290295735
-0.094469145 -0.03696071 0.40495673 4290295735
-0.093787923 -0.036949299 0.40483174 4290427321
-0.093135856 -0.036949299 0.40483174 4290427321
-0.092483789 -0.036949299 0.40483174 4290623930
-0.091434799 -0.036789592 0.40308192 4290623930
-0.090785548 -0.036789592 0.40308192 4290689723
-0.088906541 -0.036287658 0.39758253 4290689723
-0.087988667 -0.036173582 0.39633265 4290624183
-0.087350287 -0.036173582 0.39633265 4290624183
-0.086411126 -0.036048099 0.39495781 4290755769
-0.085639238 -0.035991061 0.39433289 4290755769
-0.085004084 -0.035991061 0.39433289 4290755767
-0.084208474 -0.035922613 0.39358294 4290821560
-0.083494917 -0.035888392 0.393208 4290755767
-0.082756214 -0.035842761 0.39270803 4290755767
-0.082123674 -0.035842761 0.39270803 4290755767
-0.081309579 -0.035762906 0.39183313 4290755767
-0.080601253 -0.035728686 0.39145818 4290821560
-0.079970732 -0.035728686 0.39145818 4290821560
-0.079264209 -0.035694461 0.39108321 4290821562
-0.078609154 -0.035683054 0.39095822 4290821562
-0.077979431 -0.035683054 0.39095822 4290887355
-0.077349707 -0.035683054 0.39095822 4290887355
-0.076670945 -0.035660241 0.39070827 4290887355
-0.076041631 -0.035660241 0.39070827 4290887355
-0.075364061 -0.035637423 0.39045829 4290821562
-0.074735142 -0.035637423 0.39045829 4290755769
-0.074106231 -0.035637423 0.39045829 4291018939
-0.07347732 -0.035637423 0.39045829 4291018939
-0.072825082 -0.035626017 0.39033329 4291018939
-0.072196372 -0.035626017 0.39033329 4291150525
-0.071498908 -0.035591796 0.38995835 4291150525
-0.070802659 -0.035557572 0.38958338 4291150525
-0.070062585 -0.035500534 0.38895845 4291084732
-0.069436081 -0.035500534 0.38895845 4291018939
-0.068676919 -0.035432089 0.38820854 4291150525
-0.067942075 -0.035375047 0.38758358 4291150525
-0.067317799 -0.035375047 0.38758358 4291150525
-0.066650502 -0.035352234 0.38733363 4291216318
-0.066005312 -0.035340827 0.38720864 4291282113
-0.065381631 -0.035340827 0.38720864 4291282113
-0.064757951 -0.035340827 0.38720864 4291282113
-0.06413427 -0.035340827 0.38720864 4291347906
-0.063490093 -0.03532942 0.38708365 4291347906
-0.06284631 -0.03531801 0.38695866 4291545285
-0.062182833 -0.035295196 0.38670868 4291545285
-0.061559964 -0.035295196 0.38670868 4291479492
-0.060858309 -0.035249565 0.38620874 4291479492
-0.060197249 -0.035226751 0.38595876 4291479492
-0.05957558 -0.035226751 0.38595876 4291545032
-0.058934819 -0.035215341 0.38583377 4291545032
-0.058294468 -0.035203934 0.38570878 4291545034
-0.057673205 -0.035203934 0.38570878 4291545034
-0.057088915 -0.035226751 0.38595876 4291610825
-0.056467246 -0.035226751 0.38595876 4291610825
-0.055845577 -0.035226751 0.38595876 4291676618
-0.055241801 -0.035238158 0.38608375 4291742411
-0.054602247 -0.035226751 0.38595876 4291676618
-0.053980578 -0.035226751 0.38595876 4291676618
-0.053324349 -0.035203934 0.38570878 4292005836
-0.052668933 -0.03518112 0.38545883 4291940043
-0.052014321 -0.035158303 0.38520885 4291808457
-0.051393859 -0.035158303 0.38520885 4291940043
-0.050723977 -0.035124078 0.38483387 4291611848
-0.050087851 -0.035112675 0.38470891 4291348676
-0.04945213 -0.035101265 0.38458392 4291611595
-0.048832674 -0.035101265 0.38458392 4291808974
-0.048197553 -0.035089858 0.38445893 4291677388
-0.04756283 -0.035078451 0.38433394 4291808974
-0.046913251 -0.035055634 0.38408396 4291808974
-0.0462946 -0.035055634 0.38408396 4291940560
-0.045661096 -0.035044231 0.383959 4291874767
-0.045027986 -0.03503282 0.383834 4291940560
-0.044409744 -0.03503282 0.383834 4292006353
-0.043791495 -0.03503282 0.383834 4291940560
-0.04317325 -0.03503282 0.383834 4291874769
-0.042568866 -0.035044231 0.383959 4291874769
-0.04197773 -0.035067044 0.38420895 4292006355
-0.041385792 -0.035089858 0.38445893 4292072148
-0.040793046 -0.035112675 0.38470891 4292072148
-0.040173389 -0.035112675 0.38470891 4291874769
-0.039592288 -0.035146896 0.38508385 4292137941
-0.038984679 -0.035158303 0.38520885 4292072148
-0.03837667 -0.035169713 0.38533384 4292072148
-0.037731513 -0.035146896 0.38508385 4292072148
-0.03711126 -0.035146896 0.38508385 4292006612
-0.036490999 -0.035146896 0.38508385 4292203991
-0.035870742 -0.035146896 0.38508385 4292269525
-0.035250485 -0.035146896 0.38508385 4292137939
-0.034630224 -0.035146896 0.38508385 4292466134
-0.034032047 -0.035169713 0.38533384 4292400341
-0.033433061 -0.035192527 0.38558382 4292531414
-0.032843906 -0.035226751 0.38595876 4292531414
-0.032222237 -0.035226751 0.38595876 4292531414
-0.031641506 -0.035272382 0.38645872 4292465621
-0.031059163 -0.03531801 0.38695866 4292334035
-0.030494867 -0.035386454 0.38770857 4292465621
-0.029908903 -0.035432089 0.38820854 4292465621
-0.029283611 -0.035432089 0.38820854 4292465621
-0.028676774 -0.035454903 0.38845849 4292465621
-0.028060105 -0.03546631 0.38858348 4292465621
-0.027443033 -0.035477716 0.38870847 4292465621
-0.026825562 -0.035489127 0.38883346 4292531414
-0.026199264 -0.035489127 0.38883346 4292465621
-0.025581188 -0.035500534 0.38895845 4292465621
-0.024970725 -0.035523348 0.38920841 4292400341
-0.024351642 -0.035534754 0.3893334 4292531927
-0.023724541 -0.035534754 0.3893334 4292466134
-0.023104854 -0.035546161 0.38945839 4292268755
-0.022477549 -0.035546161 0.38945839 4292401111
-0.021850245 -0.035546161 0.38945839 4292269525
-0.021236563 -0.035568979 0.38970837 4292401111
-0.020608857 -0.035568979 0.38970837 4292532697
-0.020000376 -0.035603199 0.39008331 4292401113
-0.019415515 -0.035683054 0.39095822 4292401113
-0.01882183 -0.035751503 0.39170817 4292401113
-0.018214118 -0.03579713 0.3922081 4292401113
-0.017582387 -0.03579713 0.3922081 4292597722
-0.016945252 -0.035785723 0.39208311 4292597722
-0.01631372 -0.035785723 0.39208311 4292663513
-0.015682189 -0.035785723 0.39208311 4292729306
-0.015050658 -0.035785723 0.39208311 4292729306
-0.014432915 -0.035819948 0.39245808 4292400341
-0.01381836 -0.035865575 0.39295802 4292597207
-0.013202196 -0.03591121 0.39345798 4292663000
-0.012588413 -0.035968248 0.3940829 4292728793
-0.011972615 -0.036025282 0.39470783 4292663000
-0.011336857 -0.036025282 0.39470783 4292663000
-0.010714652 -0.036070917 0.39520779 4292597207
-0.010090836 -0.036116544 0.39570773 4292597207
-0.0094594387 -0.036139362 0.39595771 4292663000
-0.0088328049 -0.036184989 0.39645764 4292597720
-0.0081942277 -0.036184989 0.39645764 4292663513
-0.0075627961 -0.036219213 0.39683262 4292794586
-0.0069345175 -0.036276251 0.39745754 4292794586
-0.0063042264 -0.036333289 0.39808246 4293123551
-0.0056736995 -0.036401734 0.39883238 4292663000
-0.005031297 -0.036401734 0.39883238 4292663253
-0.0043971469 -0.036470179 0.3995823 4292926425
-0.0037617553 -0.036550034 0.4004572 4292729046
-0.0031225723 -0.036618482 0.40120715 4292663253
-0.0024809733 -0.036686927 0.40195706 4292597720
-0.0018335377 -0.036686927 0.40195706 4292597720
-0.0011883151 -0.036755372 0.40270698 4292466906
-0.00054084428 -0.036835227 0.40358189 4292466906
0.00010937747 -0.036892261 0.40420681 4292401115
0.00076184748 -0.03696071 0.40495673 4292335322
0.0014158604 -0.037006341 0.40545669 4292532701
0.0020689329 -0.037006341 0.40545669 4292401115
0.0027253614 -0.037051968 0.40595663 4292532701
0.0033854814 -0.037120417 0.40670654 4292532701
0.0040467759 -0.037177455 0.4073315 4292598492
0.0047100829 -0.037234493 0.40795642 4292730078
0.0053671817 -0.037234493 0.40795642 4292598492
0.0060372003 -0.037314344 0.40883133 4292598492
0.0067100367 -0.0373942 0.40970623 4292729306
0.0073879403 -0.037485462 0.41070613 4292663513
0.0080690654 -0.037576724 0.41170603 4292728793
0.0087534105 -0.037667982 0.4127059 4292663000
0.0094181588 -0.037667982 0.4127059 4292728795
0.010107337 -0.037759241 0.4137058 4292728795
0.010806246 -0.03787332 0.41495568 4292663515
0.011516091 -0.03801021 0.41645551 4292663515
0.012238086 -0.038169917 0.41820532 4292466136
0.012961857 -0.038318217 0.41983014 4292531929
0.013698983 -0.038489331 0.42170495 4292466136
0.014378226 -0.038489331 0.42170495 4292597722
0.015106561 -0.038614813 0.42307979 4292663515
0.015839325 -0.0387403 0.42445466 4292268757
0.016547324 -0.038797338 0.42507958 4292202964
0.017308004 -0.038968451 0.42695439 4292071378
0.018322324 -0.039675724 0.43470356 4292005583
0.019115483 -0.039869655 0.43682835 4292531927
0.02009695 -0.040428627 0.44295269 4289833903
0.020880882 -0.040565521 0.44445252 4289570731
0.021596767 -0.040565521 0.44445252 4292269006
-0.10927171 -0.038538501 0.42982909 4282729793
-0.10848465 -0.03850488 0.42945412 4285164134
-0.10779293 -0.03850488 0.42945412 4288387995
-0.1071012 -0.03850488 0.42945412 4288848546
-0.10644045 -0.038516086 0.42957911 4289703855
-0.1041486 -0.037933357 0.42307979 4289638062
-0.10209165 -0.037429076 0.4174554 4289835184
-0.10141926 -0.037429076 0.4174554 4289966770
-0.099268831 -0.036879964 0.41133106 4290032563
-0.098606296 -0.036879964 0.41133106 4290098356
-0.096783079 -0.036442921 0.40645659 4290229944
-0.096128397 -0.036442921 0.40645659 4290229944
-0.095150776 -0.036319651 0.40508172 4290360758
-0.094469145 -0.036308441 0.40495673 4290558137
-0.09375897 -0.036286034 0.40470678 4290558137
-0.093107104 -0.036286034 0.40470678 4290558137
-0.092455238 -0.036286034 0.40470678 4290558137
-0.091491506 -0.03616276 0.40333191 4290558137
-0.090841852 -0.03616276 0.40333191 4290623930
-0.089325778 -0.035815366 0.39945734 4290623930
-0.088432632 -0.035714511 0.39833245 4290558390
-0.087791041 -0.035714511 0.39833245 4290558390
-0.086793959 -0.03556883 0.39670762 4290755767
-0.085720673 -0.035389528 0.39470783 4290689974
-0.085084908 -0.035389528 0.39470783 4290689974
-0.084208474 -0.035288669 0.39358294 4290689974
-0.083494917 -0.035255052 0.393208 4290756021
-0.082861573 -0.035255052 0.393208 4290624435
-0.082228228 -0.035255052 0.393208 4290756021
-0.081387393 -0.035165399 0.3922081 4290690228
-0.080652721 -0.035120577 0.39170817 4290755767
-0.080021799 -0.035120577 0.39170817 4290755767
-0.079314873 -0.035086956 0.39133319 4290821560
-0.078659415 -0.03507575 0.3912082 4290821560
-0.07800436 -0.035064541 0.39108321 4290821560
-0.077374436 -0.035064541 0.39108321 4290821560
-0.076744527 -0.035064541 0.39108321 4290887355
-0.076090276 -0.035053335 0.39095822 4290887355
-0.075460553 -0.035053335 0.39095822 4290821562
-0.074854754 -0.035064541 0.39108321 4290821562
-0.074224837 -0.035064541 0.39108321 4291018939
-0.073618442 -0.03507575 0.3912082 4291018939
-0.072988316 -0.03507575 0.3912082 4290887353
-0.072358191 -0.03507575 0.3912082 4291084732
-0.071636409 -0.035030924 0.39070827 4291084732
-0.070916228 -0.034986097 0.3902083 4291084732
-0.070152633 -0.03491886 0.38945839 4291150525
-0.069525331 -0.03491886 0.38945839 4291018939
-0.06878747 -0.034862831 0.38883346 4291018939
-0.068051629 -0.034806799 0.38820854 4291084732
-0.067361213 -0.034773178 0.38783357 4291150525
-0.066736527 -0.034773178 0.38783357 4291216318
-0.066090532 -0.034761973 0.38770857 4291216320
-0.065466046 -0.034761973 0.38770857 4291282113
-0.064841561 -0.034761973 0.38770857 4291282113
-0.064237781 -0.034773178 0.38783357 4291347906
-0.063613094 -0.034773178 0.38783357 4291347906
-0.062947802 -0.034750767 0.38758358 4291347906
-0.062283326 -0.034728356 0.38733363 4291479492
-0.061659452 -0.034728356 0.38733363 4291479492
-0.060956784 -0.034683529 0.38683367 4291347906
-0.060294718 -0.034661114 0.38658369 4291545285
-0.059614167 -0.034627497 0.38620874 4291611078
-0.058992095 -0.034627497 0.38620874 4291545285
-0.058370031 -0.034627497 0.38620874 4291414216
-0.05774796 -0.034627497 0.38620874 4291414216
-0.057181351 -0.034661114 0.38658369 4291480009
-0.05657696 -0.03467232 0.38670868 4291545802
-0.055954084 -0.03467232 0.38670868 4291545802
-0.05531333 -0.034661114 0.38658369 4291611595
-0.054672979 -0.034649912 0.38645872 4291676618
-0.054050505 -0.034649912 0.38645872 4291742411
-0.05337619 -0.034616292 0.38608375 4292071629
-0.052720163 -0.034593876 0.38583377 4291676871
-0.052048076 -0.034560259 0.38545883 4291742664
-0.051427212 -0.034560259 0.38545883 4291808457
-0.050773401 -0.034537848 0.38520885 4291676871
-0.050136667 -0.034526639 0.38508385 4291808457
-0.049500342 -0.034515433 0.38495886 4291677388
-0.048880283 -0.034515433 0.38495886 4291808974
-0.048244558 -0.034504227 0.38483387 4291808974
-0.047609236 -0.034493022 0.38470891 4291677388
-0.046974316 -0.034481816 0.38458392 4291808974
-0.046354864 -0.034481816 0.38458392 4291874767
-0.045720547 -0.03447061 0.38445893 4291874767
-0.045086633 -0.034459401 0.38433394 4291940560
-0.044467587 -0.034459401 0.38433394 4291940560
-0.043848533 -0.034459401 0.38433394 4291940560
-0.043229483 -0.034459401 0.38433394 4291940560
-0.042638149 -0.034481816 0.38458392 4291940560
-0.042032354 -0.034493022 0.38470891 4291940562
-0.041439608 -0.034515433 0.38495886 4292006355
-0.040846057 -0.034537848 0.38520885 4292006355
-0.040225595 -0.034537848 0.38520885 4291874769
-0.039617989 -0.034549054 0.38533384 4292072148
-0.03899733 -0.034549054 0.38533384 4292006355
-0.038389117 -0.034560259 0.38545883 4292006612
-0.037756007 -0.034549054 0.38533384 4292006612
-0.037123304 -0.034537848 0.38520885 4292006612
-0.036502846 -0.034537848 0.38520885 4292072405
-0.035882384 -0.034537848 0.38520885 4292072405
-0.03528481 -0.034560259 0.38545883 4292203991
-0.034663945 -0.034560259 0.38545883 4292466134
-0.034065161 -0.034582671 0.38570878 4292400341
-0.033465572 -0.034605086 0.38595876 4292400341
-0.032865178 -0.034627497 0.38620874 4292268755
-0.03224311 -0.034627497 0.38620874 4292400341
-0.031661969 -0.03467232 0.38670868 4292268755
-0.03109929 -0.034739558 0.38745859 4292268755
-0.030514529 -0.034784384 0.38795856 4292400341
-0.029928159 -0.03482921 0.38845849 4292400341
-0.029302465 -0.03482921 0.38845849 4292400341
-0.028704455 -0.034862831 0.38883346 4292466134
-0.028087182 -0.034874037 0.38895845 4292466134
-0.027469506 -0.034885243 0.38908345 4292531414
-0.026851431 -0.034896448 0.38920841 4292531414
-0.026224528 -0.034896448 0.38920841 4292531414
-0.025605848 -0.034907654 0.3893334 4292465621
-0.024986764 -0.03491886 0.38945839 4292465621
-0.024367277 -0.034930069 0.38958338 4292597207
-0.023739774 -0.034930069 0.38958338 4292466134
-0.023119684 -0.034941275 0.38970837 4292268755
-0.022491977 -0.034941275 0.38970837 4292335318
-0.021864269 -0.034941275 0.38970837 4292401111
-0.021263806 -0.034986097 0.3902083 4292401111
-0.020635296 -0.034986097 0.3902083 4292006353
-0.020038826 -0.035042133 0.39083326 4292531927
-0.019440344 -0.035098162 0.39145818 4292531927
-0.018851858 -0.035176605 0.39233309 4292466136
-0.018231532 -0.03519902 0.39258307 4292466136
-0.017599195 -0.03519902 0.39258307 4292268757
-0.016972261 -0.035210226 0.39270803 4292597722
-0.016339721 -0.035210226 0.39270803 4292597720
-0.015712183 -0.035221431 0.39283302 4292663513
-0.015089041 -0.035243843 0.39308301 4292597720
-0.014455897 -0.035243843 0.39308301 4292663513
-0.013840335 -0.035288669 0.39358294 4292531416
-0.013223165 -0.035333496 0.3940829 4292728795
-0.012608374 -0.035389528 0.39470783 4292728795
-0.011987781 -0.035434354 0.39520779 4292663002
-0.011351217 -0.035434354 0.39520779 4292663002
-0.010728206 -0.035479177 0.39570773 4292597209
-0.010100398 -0.035512798 0.3960827 4292531416
-0.0094713829 -0.035546415 0.39645764 4292663002
-0.0088411588 -0.035580035 0.39683262 4292663000
-0.0082019772 -0.035580035 0.39683262 4292663000
-0.0075699417 -0.035613652 0.39720756 4292728793
-0.0069410596 -0.035669684 0.39783251 4292794586
-0.0063101645 -0.035725717 0.39845744 4293452516
-0.0056808121 -0.03580416 0.39933234 4292728793
-0.0050376044 -0.03580416 0.39933234 4292794069
-0.0044040242 -0.035882603 0.40020725 4292925655
-0.0037676259 -0.035961051 0.40108216 4292663253
-0.0031284087 -0.036039494 0.40195706 4292597460
-0.0024863735 -0.036117937 0.40283197 4292466134
-0.0018409494 -0.036185175 0.40358189 4292466134
-0.0011908968 -0.036185175 0.40358189 4292466134
-0.00054184924 -0.036252413 0.4043318 4292531927
0.00010961422 -0.036319651 0.40508172 4292401115
0.00076325826 -0.036375679 0.40570664 4292401115
0.001418479 -0.036420505 0.40620661 4292598494
0.0020727594 -0.036420505 0.40620661 4292466908
0.0027303959 -0.036465332 0.40670654 4292663517
0.0033906836 -0.036521364 0.4073315 4292663517
0.0040529845 -0.036577396 0.40795642 4292466908
0.0047187409 -0.036644634 0.40870634 4292532701
0.0053770477 -0.036644634 0.40870634 4292598494
0.0060482742 -0.036723077 0.40958124 4292532701
0.0067223189 -0.036801521 0.41045615 4292729308
0.00740143 -0.036891174 0.41145605 4292663515
0.0080837635 -0.036980823 0.41245595 4292531929
0.0087693166 -0.037070476 0.41345584 4292531929
0.0094352728 -0.037070476 0.41345584 4292531929
0.010128712 -0.03717133 0.4145807 4292597722
0.010825775 -0.037272185 0.41570559 4292663515
0.011540285 -0.03741787 0.41733041 4292597722
0.012281976 -0.037630789 0.41970515 4292466136
0.013027458 -0.037832502 0.42195493 4292466136
0.013743645 -0.037933357 0.42307979 4292400343
0.014480502 -0.038079042 0.42470464 4292400343
0.015164577 -0.038079042 0.42470464 4292531416
0.015857982 -0.038101453 0.42495459 4292268244
0.016561922 -0.03814628 0.42545456 4292005585
0.017302938 -0.038269546 0.4268294 4291808206
0.018264376 -0.038852278 0.43332872 4292006353
0.01896234 -0.038852278 0.43332872 4291019458
0.02009695 -0.039715163 0.44295269 4287333771
0.020910241 -0.039905667 0.44507745 4289044389
-0.10930347 -0.037857171 0.42995405 4283124551
-0.10861094 -0.037857171 0.42995405 4283124551
-0.10791841 -0.037857171 0.42995405 4286677379
-0.10713238 -0.037824158 0.42957911 4288980134
-0.10644045 -0.037824158 0.42957911 4290164149
-0.10581005 -0.03784617 0.42982909 4289703598
-0.10365054 -0.037317932 0.42382973 4289900207
-0.10296788 -0.037317932 0.42382973 4289966000
-0.099660963 -0.036360495 0.41295588 4290163379
-0.098995812 -0.036360495 0.41295588 4290229172
-0.097080693 -0.035898283 0.40770644 4290360758
-0.096128397 -0.035788238 0.40645659 4290163379
-0.095473722 -0.035788238 0.40645659 4290294965
-0.094819039 -0.035788238 0.40645659 4290426551
-0.09375897 -0.035634167 0.40470678 4290426551
-0.093107104 -0.035634167 0.40470678 4290558137
-0.092455238 -0.035634167 0.40470678 4290558137
-0.091576561 -0.035546128 0.40370688 4290558137
-0.090926304 -0.035546128 0.40370688 4290558137
-0.089717068 -0.035326026 0.40120715 4290426551
-0.088904344 -0.035259996 0.4004572 4290623417
-0.088231787 -0.035248991 0.40033224 4290689210
-0.08723148 -0.035105929 0.39870742 4290821049
-0.086209267 -0.034951858 0.39695761 4290689463
-0.085354336 -0.034863818 0.39595771 4290689461
-0.084716566 -0.034863818 0.39595771 4290755254
-0.084052257 -0.03485281 0.39583272 4290821047
-0.083230317 -0.034775775 0.39495781 4290689461
-0.082594149 -0.034775775 0.39495781 4290755767
-0.081517071 -0.034588691 0.39283302 4290689974
-0.080729924 -0.03452266 0.39208311 4290821560
-0.080098398 -0.03452266 0.39208311 4290755767
-0.079390869 -0.034489647 0.39170817 4290755767
-0.078709677 -0.034467638 0.39145818 4290821560
-0.078079149 -0.034467638 0.39145818 4290821560
-0.077448629 -0.034467638 0.39145818 4290755767
-0.076793581 -0.034456633 0.39133319 4290886840
-0.076163255 -0.034456633 0.39133319 4290886840
-0.075557053 -0.034467638 0.39145818 4290886840
-0.074950449 -0.034478642 0.39158317 4290952633
-0.074319728 -0.034478642 0.39158317 4290952635
-0.073736042 -0.034500651 0.39183313 4290952635
-0.073081598 -0.034489647 0.39170817 4290887353
-0.072450668 -0.034489647 0.39170817 4291084732
-0.071750984 -0.034456633 0.39133319 4290887353
-0.071007095 -0.034401607 0.39070827 4291018939
-0.070265204 -0.034346581 0.39008331 4291084732
-0.069636889 -0.034346581 0.39008331 4291018939
-0.06889803 -0.034291554 0.38945839 4291084732
-0.068161175 -0.034236532 0.38883346 4291084732
-0.067491464 -0.034214523 0.38858348 4291150525
-0.066865571 -0.034214523 0.38858348 4291150525
-0.06623967 -0.034214523 0.38858348 4291216320
-0.065634884 -0.034225527 0.38870847 4291216320
-0.065029688 -0.034236532 0.38883346 4291282113
-0.064424098 -0.034247536 0.38895845 4291282113
-0.063797601 -0.034247536 0.38895845 4291282113
-0.063150801 -0.034236532 0.38883346 4291347906
-0.062444106 -0.03419251 0.3883335 4291347906
-0.061818618 -0.03419251 0.3883335 4291347906
-0.061074954 -0.034126479 0.38758358 4291347906
-0.06039219 -0.034093466 0.38720864 4291545285
-0.059710629 -0.034060452 0.38683367 4291479492
-0.059087552 -0.034060452 0.38683367 4291545285
-0.058464479 -0.034060452 0.38683367 4291480262
-0.057841402 -0.034060452 0.38683367 4291348676
-0.057236813 -0.034071457 0.38695866 4291480262
-0.056613535 -0.034071457 0.38695866 4291480262
-0.055990256 -0.034071457 0.38695866 4291546055
-0.055366982 -0.034071457 0.38695866 4291546055
-0.054726023 -0.034060452 0.38683367 4291546055
-0.054102946 -0.034060452 0.38683367 4291677641
-0.053428032 -0.034027439 0.38645872 4291809227
-0.052771401 -0.034005426 0.38620874 4291677641
-0.052098703 -0.033972412 0.38583377 4291809227
-0.051477235 -0.033972412 0.38583377 4291677641
-0.050822824 -0.033950403 0.38558382 4291742664
-0.050169215 -0.033928391 0.38533384 4291742664
-0.049532484 -0.033917386 0.38520885 4291677388
-0.048912026 -0.033917386 0.38520885 4291808974
-0.048291564 -0.033917386 0.38520885 4291808974
-0.047655638 -0.033906382 0.38508385 4291677388
-0.047020115 -0.033895377 0.38495886 4291808974
-0.046400055 -0.033895377 0.38495886 4291874767
-0.045750275 -0.033873368 0.38470891 4291874767
-0.045130622 -0.033873368 0.38470891 4291940560
-0.044510968 -0.033873368 0.38470891 4291940560
-0.043905571 -0.033884369 0.38483387 4292006353
-0.043299776 -0.033895377 0.38495886 4292006353
-0.04267972 -0.033895377 0.38495886 4291940560
-0.042086974 -0.033917386 0.38520885 4291808974
-0.041493427 -0.033939399 0.38545883 4291940560
-0.040885817 -0.033950403 0.38558382 4291940560
-0.040264752 -0.033950403 0.38558382 4291940560
-0.039656539 -0.033961404 0.38570878 4292006353
-0.039022628 -0.033950403 0.38558382 4292006353
-0.038401566 -0.033950403 0.38558382 4291940817
-0.037768256 -0.033939399 0.38545883 4292006610
-0.037147395 -0.033939399 0.38545883 4292072405
-0.036526531 -0.033939399 0.38545883 4292006612
-0.035917312 -0.033950403 0.38558382 4291940819
-0.035307691 -0.033961404 0.38570878 4292006612
-0.034686424 -0.033961404 0.38570878 4292335320
-0.034087241 -0.033983417 0.38595876 4292269527
-0.033487249 -0.034005426 0.38620874 4292202962
-0.032907721 -0.034049444 0.38670868 4292005583
-0.032284845 -0.034049444 0.38670868 4292268755
-0.031702906 -0.034093466 0.38720864 4292268755
-0.031129386 -0.034148492 0.38783357 4292202962
-0.030553851 -0.034203514 0.38845849 4292268755
-0.029966678 -0.034247536 0.38895845 4292335318
-0.029368462 -0.03428055 0.3893334 4292269525
-0.028741362 -0.03428055 0.3893334 4292137939
-0.028123284 -0.034291554 0.38945839 4292072146
-0.027504802 -0.034302562 0.38958338 4292400341
-0.026885923 -0.034313567 0.38970837 4292400341
-0.026258215 -0.034313567 0.38970837 4292400341
-0.025630509 -0.034313567 0.38970837 4292400341
-0.025018841 -0.034335576 0.38995835 4292400341
-0.024398547 -0.034346581 0.39008331 4292400341
-0.023777854 -0.034357585 0.3902083 4292400341
-0.023149343 -0.034357585 0.3902083 4292531927
-0.022528043 -0.03436859 0.39033329 4292269525
-0.021906342 -0.034379598 0.39045829 4292335318
-0.021291051 -0.034401607 0.39070827 4292401111
-0.020661734 -0.034401607 0.39070827 4292269525
-0.020083684 -0.034489647 0.39170817 4292597720
-0.01949 -0.034555677 0.39245808 4292531927
-0.01887588 -0.034588691 0.39283302 4292466134
-0.018248944 -0.034599695 0.39295802 4292466134
-0.017616004 -0.034599695 0.39295802 4292466134
-0.016983064 -0.034599695 0.39295802 4292597720
-0.016360525 -0.034621708 0.393208 4292597973
-0.015727181 -0.034621708 0.393208 4292597973
-0.015113029 -0.034665726 0.39370793 4292597973
-0.014478879 -0.034665726 0.39370793 4292597973
-0.013857917 -0.03469874 0.3940829 4292597207
-0.013244133 -0.034753766 0.39470783 4292663000
-0.012624345 -0.034797788 0.39520779 4292663002
-0.012002946 -0.034841806 0.39570773 4292663002
-0.011365576 -0.034841806 0.39570773 4292663002
-0.010738372 -0.034874823 0.3960827 4292597209
-0.01010996 -0.034907836 0.39645764 4292597209
-0.0094803404 -0.03494085 0.39683262 4292663002
-0.0088495119 -0.034973864 0.39720756 4292663000
-0.0082097268 -0.034973864 0.39720756 4293057758
-0.0075794701 -0.035017885 0.39770752 4292728793
-0.0069476012 -0.035061907 0.39820746 4292728793
-0.0063180816 -0.035127934 0.39895737 4292728793
-0.0056879236 -0.035204969 0.39983228 4292663000
-0.0050439108 -0.035204969 0.39983228 4292794069
-0.0044109011 -0.035293009 0.40083218 4292794069
-0.0037746702 -0.035381053 0.40183207 4292663253
-0.0031342453 -0.035458084 0.40270698 4292465874
-0.0024902306 -0.035524115 0.4034569 4292531927
-0.0018443702 -0.03560115 0.4043318 4292597720
-0.0011931097 -0.03560115 0.4043318 4292401111
-0.00054302171 -0.035678186 0.40520671 4292335318
0.00010978332 -0.035722204 0.40570664 4292335322
0.00076443399 -0.03577723 0.4063316 4292532701
0.0014206613 -0.035821252 0.40683153 4292532701
0.0020759483 -0.035821252 0.40683153 4292466908
0.0027345915 -0.03586527 0.4073315 4292663517
0.0033958855 -0.035920296 0.40795642 4292663517
0.0040579513 -0.035964314 0.40845636 4292466908
0.0047245128 -0.036030345 0.40920627 4292401115
0.0053967801 -0.036118384 0.41020617 4292532447
0.0060575022 -0.036118384 0.41020617 4292532447
0.0067346008 -0.036206424 0.41120607 4292663517
0.0074149198 -0.036294464 0.41220596 4292597724
0.0080984607 -0.036382504 0.41320586 4292466138
0.0087878732 -0.036481548 0.41433072 4292531931
0.0094809085 -0.036580592 0.41545561 4292466138
0.010150087 -0.036580592 0.41545561 4292531931
0.010851813 -0.036690645 0.41670549 4292531931
0.011567935 -0.036833711 0.41833031 4292531931
0.012307579 -0.0370318 0.42058006 4292269529
0.013062187 -0.037251897 0.42307979 4292335322
0.013808608 -0.03742798 0.42507958 4292466134
0.01450181 -0.037449989 0.42532957 4292400341
0.015186891 -0.037449989 0.42532957 4292399058
0.015904624 -0.037527025 0.42620447 4292333265
0.016615441 -0.037582047 0.4268294 4292268757
0.017302938 -0.037582047 0.4268294 4291808206
0.018122137 -0.037857171 0.42995405 4291809233
0.018896708 -0.038022246 0.43182886 4288585376
0.019722683 -0.038275365 0.43470356 4285163633
0.020422865 -0.038275365 0.43470356 4288650662
-0.10864251 -0.037175447 0.43007904 4282466621
-0.10794979 -0.037175447 0.43007904 4284440417
-0.10722588 -0.037164643 0.42995405 4287269516
-0.10650238 -0.037153844 0.42982909 4289703851
-0.10581005 -0.037153844 0.42982909 4289374886
-0.10365054 -0.036635265 0.42382973 4289899947
-0.10296788 -0.036635265 0.42382973 4290031533
-0.10074686 -0.036084279 0.4174554 4290229425
-0.10007446 -0.036084279 0.4174554 4290229425
-0.097735435 -0.035479274 0.41045615 4290295218
-0.096453555 -0.035252396 0.40783143 4290163632
-0.09579666 -0.035252396 0.40783143 4290360498
-0.095110603 -0.035241589 0.40770644 4290492084
-0.094395995 -0.035219982 0.40745646 4290426291
-0.093739696 -0.035219982 0.40745646 4290492084
-0.092598006 -0.035036322 0.4053317 4290426291
-0.091576561 -0.034895875 0.40370688 4290426291
-0.090926304 -0.034895875 0.40370688 4290491831
-0.08994066 -0.034766227 0.40220702 4290491831
-0.089043088 -0.034668997 0.40108216 4290623417
-0.088231787 -0.034604173 0.40033224 4290689210
-0.087586969 -0.034604173 0.40033224 4290689463
-0.086697854 -0.034506939 0.39920735 4290623670
-0.085893191 -0.034442119 0.39845744 4290755256
-0.085251391 -0.034442119 0.39845744 4290755256
-0.084609598 -0.034442119 0.39845744 4290689463
-0.083493695 -0.034247652 0.39620766 4290755256
-0.082855523 -0.034247652 0.39620766 4290755769
-0.08190611 -0.034118008 0.39470783 4290755769
-0.08096154 -0.033988364 0.393208 4290755769
-0.080174997 -0.033923544 0.39245808 4290624183
-0.07954286 -0.033923544 0.39245808 4290689976
-0.078835331 -0.03389113 0.39208311 4290821562
-0.078178868 -0.033880327 0.39195812 4290755769
-0.077547535 -0.033880327 0.39195812 4290755769
-0.07691621 -0.033880327 0.39195812 4290821047
-0.076284878 -0.033880327 0.39195812 4290755254
-0.075677671 -0.03389113 0.39208311 4290821047
-0.075070068 -0.033901934 0.3922081 4290952633
-0.074509501 -0.033934347 0.39258307 4290886840
-0.073877163 -0.033934347 0.39258307 4290952633
-0.073198192 -0.033912741 0.39233309 4290952633
-0.072496898 -0.033880327 0.39195812 4291084219
-0.071865566 -0.033880327 0.39195812 4291084732
-0.071075238 -0.0338047 0.39108321 4291084732
-0.070310235 -0.03373988 0.39033329 4291084732
-0.069681518 -0.03373988 0.39033329 4291018939
-0.068964362 -0.033696666 0.38983336 4291018939
-0.068270721 -0.033664253 0.38945839 4291084732
-0.067643419 -0.033664253 0.38945839 4291150525
-0.067016117 -0.033664253 0.38945839 4291150525
-0.066346198 -0.033642646 0.38920841 4291216318
-0.065719299 -0.033642646 0.38920841 4291216318
-0.065238714 -0.033718273 0.39008331 4291216320
-0.064631112 -0.033729076 0.3902083 4291282113
-0.064043604 -0.033750683 0.39045829 4291282113
-0.063374087 -0.033729076 0.3902083 4291347906
-0.062584788 -0.033642646 0.38920841 4291282113
-0.061957896 -0.033642646 0.38920841 4291479492
-0.061212823 -0.033577822 0.38845849 4291347906
-0.060509153 -0.033534609 0.38795856 4291479492
-0.059845679 -0.033513002 0.38770857 4291479492
-0.059221189 -0.033513002 0.38770857 4291545285
-0.058577821 -0.033502199 0.38758358 4291611078
-0.057953533 -0.033502199 0.38758358 4291479492
-0.057347737 -0.033513002 0.38770857 4291348676
-0.056723252 -0.033513002 0.38770857 4291480262
-0.05608068 -0.033502199 0.38758358 4291546055
-0.055438515 -0.033491395 0.38745859 4291546055
-0.054779071 -0.033469789 0.38720864 4291611848
-0.054155387 -0.033469789 0.38720864 4291677641
-0.053462587 -0.033426572 0.38670868 4291677641
-0.052805558 -0.033404969 0.38645872 4291611848
-0.052149337 -0.033383358 0.38620874 4291677641
-0.051527265 -0.033383358 0.38620874 4291677641
-0.050855771 -0.033350948 0.38583377 4291676871
-0.050218031 -0.033340141 0.38570878 4291676871
-0.049580701 -0.033329342 0.38558382 4291676871
-0.048959639 -0.033329342 0.38558382 4291940043
-0.048322905 -0.033318538 0.38545883 4291874767
-0.047686573 -0.033307735 0.38533384 4291808974
-0.047050647 -0.033296928 0.38520885 4291808974
-0.046430185 -0.033296928 0.38520885 4291808974
-0.045809731 -0.033296928 0.38520885 4291874767
-0.045189269 -0.033296928 0.38520885 4291940560
-0.044568811 -0.033296928 0.38520885 4292071376
-0.043948352 -0.033296928 0.38520885 4292137169
-0.043356009 -0.033318538 0.38545883 4292137169
-0.042735148 -0.033318538 0.38545883 4292071376
-0.042127945 -0.033329342 0.38558382 4291875020
-0.041533787 -0.033350948 0.38583377 4291940813
-0.040925574 -0.033361752 0.38595876 4291940813
-0.040303908 -0.033361752 0.38595876 4292072399
-0.039682243 -0.033361752 0.38595876 4292072146
-0.039060574 -0.033361752 0.38595876 4292072146
-0.038438909 -0.033361752 0.38595876 4292006612
-0.037792746 -0.033340141 0.38570878 4292006612
-0.037171483 -0.033340141 0.38570878 4292203991
-0.036550216 -0.033340141 0.38570878 4292269784
-0.03595224 -0.033361752 0.38595876 4292006612
-0.035342015 -0.033372555 0.38608375 4291940819
-0.034720145 -0.033372555 0.38608375 4292269527
-0.034120359 -0.033394162 0.38633373 4292072148
-0.033530597 -0.033426572 0.38670868 4292202962
-0.032939631 -0.033458985 0.38708365 4292137169
-0.03235789 -0.033502199 0.38758358 4292202962
-0.031733602 -0.033502199 0.38758358 4292202962
-0.031159483 -0.033556219 0.38820854 4292072399
-0.030583344 -0.033610236 0.38883346 4292072399
-0.029995566 -0.033653449 0.3893334 4292269525
-0.029396746 -0.033685863 0.38970837 4292335318
-0.028769042 -0.033685863 0.38970837 4292269525
-0.02816841 -0.033718273 0.39008331 4292137939
-0.027540099 -0.033718273 0.39008331 4292137941
-0.026920412 -0.033729076 0.3902083 4292137941
-0.026291899 -0.033729076 0.3902083 4292269527
-0.025663389 -0.033729076 0.3902083 4292269527
-0.025050916 -0.033750683 0.39045829 4292269527
-0.024437634 -0.033772293 0.39070827 4292137941
-0.023823552 -0.033793896 0.39095822 4292269525
-0.023193832 -0.033793896 0.39095822 4292335318
-0.022578539 -0.033815507 0.3912082 4292269525
-0.021969454 -0.033847917 0.39158317 4292335318
-0.021359161 -0.033880327 0.39195812 4292466904
-0.02075427 -0.033923544 0.39245808 4292335318
-0.020122135 -0.033923544 0.39245808 4292597720
-0.019502413 -0.033945147 0.39270803 4292597720
-0.01887588 -0.033955954 0.39283302 4292466134
-0.018248944 -0.033966757 0.39295802 4292466134
-0.017616004 -0.033966757 0.39295802 4292532180
-0.016993867 -0.033988364 0.393208 4292597973
-0.016370926 -0.034009974 0.39345798 4292532180
-0.015747176 -0.034031577 0.39370793 4292597973
-0.01513222 -0.034074795 0.39420789 4292597973
-0.014497266 -0.034074795 0.39420789 4292597973
-0.013875497 -0.034107205 0.39458284 4292532180
-0.013256716 -0.034150422 0.3950828 4292532180
-0.012636323 -0.034193635 0.39558274 4292531927
-0.012014319 -0.034236852 0.3960827 4292400341
-0.011376346 -0.034236852 0.3960827 4292531927
-0.010748537 -0.034269258 0.39645764 4292531927
-0.010119522 -0.034301672 0.39683262 4292531929
-0.0094892979 -0.034334082 0.39720756 4292531929
-0.0088578667 -0.034366492 0.39758253 4292597720
-0.0082174772 -0.034366492 0.39758253 4292860892
-0.0075866156 -0.034409706 0.39808246 4292728793
-0.0069563244 -0.034463726 0.39870742 4292663000
-0.0063259993 -0.03452855 0.39945734 4292663000
-0.0056950361 -0.034604173 0.40033224 4292663000
-0.0050502182 -0.034604173 0.40033224 4292663000
-0.0044164024 -0.034690604 0.40133211 4292663000
-0.0037793664 -0.03477703 0.40233201 4292597460
-0.0031381364 -0.034852657 0.40320691 4292531667
-0.0024940879 -0.034928285 0.40408182 4292465874
-0.0018466506 -0.034993105 0.40483174 4292729046
-0.0011945849 -0.034993105 0.40483174 4292401111
-0.00054352422 -0.035057928 0.40558168 4292335318
0.00010985096 -0.035090338 0.40595663 4292269786
0.00076490425 -0.035144355 0.40658155 4292467165
0.0014210978 -0.035176769 0.40695652 4292532447
0.002076586 -0.035176769 0.40695652 4292466654
0.0027354304 -0.035219982 0.40745646 4292532701
0.0033979665 -0.035284806 0.4082064 4292532701
0.0040616766 -0.035338823 0.40883133 4292401115
0.0047331718 -0.035436057 0.40995622 4292401115
0.0054066461 -0.035522487 0.41095608 4292532701
0.0060685766 -0.035522487 0.41095608 4292401115
0.0067468826 -0.035608914 0.41195598 4292401115
0.0074284095 -0.035695344 0.41295588 4292401115
0.0081180576 -0.035803381 0.41420576 4292269529
0.0088090803 -0.035900615 0.41533062 4292335322
0.0095094321 -0.036019456 0.41670549 4292401115
0.010180623 -0.036019456 0.41670549 4292466908
0.010890872 -0.036149099 0.41820532 4292466908
0.011599042 -0.036257137 0.4194552 4292466908
0.012336839 -0.036440797 0.42157996 4292335322
0.013085341 -0.036635265 0.42382973 4292335322
0.013820789 -0.036775712 0.42545456 4292400343
0.014527379 -0.036829732 0.42607948 4292268757
0.015213668 -0.036829732 0.42607948 4291807691
0.015923278 -0.036883749 0.42670441 4292070863
0.016644632 -0.036959376 0.42757931 4292005583
0.017368807 -0.037035 0.42845422 4292005583
0.018122137 -0.037164643 0.42995405 4290295739
0.018896708 -0.037326701 0.43182886 4285624436
0.019722683 -0.037575185 0.43470356 4283321431
