# .PCD v0.7 - Point Cloud Data file format
VERSION 0.7
FIELDS x y z rgba
SIZE 4 4 4 4
TYPE F F F U
COUNT 1 1 1 1
WIDTH 1008
HEIGHT 1
VIEWPOINT 0 0 0 1 0 0 0
POINTS 1008
DATA ascii
-0.023332281 -0.096078582 0.73042196 4293253843
-0.022136828 -0.09599638 0.72979701 4293122257
-0.020961337 -0.09599638 0.72979701 4293122773
-0.01973502 -0.095749781 0.72792226 4293122773
-0.018524302 -0.095552482 0.72642237 4293057493
-0.017309459 -0.095305875 0.72454756 4293057493
-0.016142422 -0.095305875 0.72454756 4292925907
-0.014931474 -0.095026389 0.72242284 4293057493
-0.013734514 -0.094796225 0.72067302 4293189079
-0.012549732 -0.094615377 0.71929818 4293254872
-0.011391154 -0.094615377 0.71929818 4293188566
-0.010220127 -0.094500288 0.71842325 4293254359
-0.0090582268 -0.094450966 0.71804827 4293254359
-0.0078975344 -0.094401643 0.7176733 4293385945
-0.0067415726 -0.094401643 0.7176733 4293320152
-0.0055826921 -0.094352327 0.71729839 4293451738
-0.0044242479 -0.094286568 0.71679842 4293451738
-0.0032685546 -0.094253682 0.71654844 4293451738
-0.0021144042 -0.094253682 0.71654844 4293320665
-0.00096008647 -0.094237238 0.71642345 4293386458
0.00019386259 -0.094237238 0.71642345 4293386458
0.0013480468 -0.094253682 0.71654844 4293649630
0.0025026335 -0.094270125 0.71667343 4293649630
0.0036569852 -0.094270125 0.71667343 4293781216
0.0048138541 -0.094319448 0.71704841 4293518814
0.0059740115 -0.094401643 0.7176733 4293518814
0.0071423915 -0.094566055 0.71892321 4293584607
0.0083061382 -0.094631813 0.71942312 4293650400
0.0094649196 -0.094631813 0.71942312 4293781986
0.010645849 -0.094829105 0.72092301 4293913572
0.01182342 -0.09496063 0.72192287 4293781216
0.013004213 -0.095092148 0.72292274 4293912802
0.014188229 -0.09522368 0.72392267 4293847009
0.015354257 -0.09522368 0.72392267 4293912802
0.016548807 -0.095388077 0.72517252 4293846496
0.017729064 -0.095453843 0.72567248 4293978082
0.018907676 -0.095503166 0.72604746 4294109666
0.020077124 -0.095503166 0.72604746 4293912287
0.021261206 -0.095568925 0.72654736 4293847007
0.022439178 -0.095601805 0.72679734 4293912800
0.023617957 -0.095634691 0.72704732 4293846755
0.024801802 -0.095684014 0.7274223 4293649376
0.025973467 -0.095684014 0.7274223 4293714405
0.027163791 -0.095749781 0.72792226 4293517026
0.028350856 -0.095799096 0.72829717 4293386206
0.02955433 -0.095897742 0.72904712 4293188827
0.030728612 -0.095897742 0.72904712 4292728274
0.03193571 -0.09599638 0.72979701 4292794067
0.033162236 -0.096144348 0.73092192 4292728528
0.034486338 -0.09655536 0.73404658 4292596942
0.035844803 -0.097032137 0.7376712 4292662735
0.037032973 -0.097032137 0.7376712 4292465356
-0.039639771 -0.094512343 0.7274223 4292071368
-0.038468104 -0.094512343 0.7274223 4292137161
-0.037328482 -0.09459354 0.72804719 4292202954
-0.036168221 -0.094626017 0.72829717 4292137161
-0.03499515 -0.094626017 0.72829717 4292334540
-0.033845291 -0.094690979 0.72879714 4292597712
-0.032693826 -0.094755933 0.7292971 4292466126
-0.031562354 -0.094885848 0.73029697 4292466126
-0.030386059 -0.094885848 0.73029697 4292662735
-0.02924476 -0.094999522 0.73117191 4292662735
-0.028076651 -0.095032007 0.73142189 4292859087
-0.026889348 -0.094999522 0.73117191 4293056466
-0.025711644 -0.094999522 0.73117191 4293253843
-0.024521358 -0.094950803 0.73079693 4293319636
-0.023332281 -0.094902083 0.73042196 4293122257
-0.022136828 -0.094820887 0.72979701 4293122257
-0.020961337 -0.094820887 0.72979701 4292991187
-0.01973502 -0.094577305 0.72792226 4293188566
-0.018524302 -0.094382428 0.72642237 4292925907
-0.017309459 -0.094138838 0.72454756 4293189079
-0.016142422 -0.094138838 0.72454756 4293123286
-0.014931474 -0.093862779 0.72242284 4293057493
-0.013734514 -0.093635425 0.72067302 4293189079
-0.012549732 -0.093456797 0.71929818 4293189079
-0.011391154 -0.093456797 0.71929818 4293188312
-0.010220127 -0.093343116 0.71842325 4293254105
-0.0090582268 -0.093294397 0.71804827 4293319898
-0.0078975344 -0.093245678 0.7176733 4293319898
-0.0067415726 -0.093245678 0.7176733 4293385945
-0.0055826921 -0.093196966 0.71729839 4293517531
-0.0044242479 -0.093132012 0.71679842 4293517531
-0.0032685546 -0.093099527 0.71654844 4293517531
-0.0021144042 -0.093099527 0.71654844 4293451736
-0.00096008647 -0.093083292 0.71642345 4293517529
0.00019386259 -0.093083292 0.71642345 4293517529
0.0013480468 -0.093099527 0.71654844 4293649115
0.0025026335 -0.093115769 0.71667343 4293715423
0.0036569852 -0.093115769 0.71667343 4293781216
0.0048138541 -0.093164489 0.71704841 4293649630
0.0059740115 -0.093245678 0.7176733 4293715423
0.0071423915 -0.093408078 0.71892321 4293584607
0.0083061382 -0.093473032 0.71942312 4293584607
0.0094649196 -0.093473032 0.71942312 4293912802
0.010645849 -0.09366791 0.72092301 4294044388
0.01182342 -0.093797818 0.72192287 4294044388
0.013004213 -0.093927726 0.72292274 4293912802
0.014188229 -0.094057649 0.72392267 4294241254
0.015354257 -0.094057649 0.72392267 4294109668
0.016548807 -0.094220035 0.72517252 4293978082
0.017729064 -0.094284996 0.72567248 4293912289
0.018907676 -0.094333716 0.72604746 4293978082
0.020077124 -0.094333716 0.72604746 4293978082
0.021261206 -0.09439867 0.72654736 4293912800
0.022439178 -0.094431147 0.72679734 4293847007
0.023617957 -0.094463624 0.72704732 4293847009
0.024801802 -0.094512343 0.7274223 4294044388
0.025973467 -0.094512343 0.7274223 4293912550
0.027163791 -0.094577305 0.72792226 4293583585
0.028350856 -0.094626017 0.72829717 4293386206
0.02955433 -0.094723456 0.72904712 4293386206
0.030728612 -0.094723456 0.72904712 4293188827
0.03193571 -0.094820887 0.72979701 4293780964
0.033162236 -0.094967045 0.73092192 4292728015
0.034486338 -0.095373027 0.73404658 4292793808
0.035844803 -0.095843963 0.7376712 4292728015
0.037032973 -0.095843963 0.7376712 4292530636
-0.040727288 -0.093148224 0.72592247 4292005321
-0.039558038 -0.093148224 0.72592247 4292136907
-0.038428444 -0.093244448 0.72667235 4292268493
-0.037283622 -0.093308598 0.72717232 4292137161
-0.03613719 -0.093372755 0.72767228 4292202954
-0.034965124 -0.093372755 0.72767228 4292334540
-0.033804663 -0.09340483 0.72792226 4292466126
-0.032654602 -0.093468979 0.72842216 4292334540
-0.031524543 -0.093597285 0.72942209 4292597712
-0.030349657 -0.093597285 0.72942209 4292728528
-0.029194767 -0.093661435 0.729922 4292728528
-0.028019076 -0.093661435 0.729922 4292924880
-0.026824998 -0.093597285 0.72942209 4293122259
-0.025650112 -0.093597285 0.72942209 4293253845
-0.024458451 -0.093533136 0.72892213 4293122259
-0.0232684 -0.093468979 0.72842216 4292925394
-0.022079961 -0.09340483 0.72792226 4292991187
-0.02090749 -0.09340483 0.72792226 4292925140
-0.019701133 -0.093244448 0.72667235 4293188312
-0.018479681 -0.092987843 0.72467256 4293254105
-0.017309459 -0.092971802 0.72454756 4293319898
-0.016089516 -0.092667088 0.72217286 4293188312
-0.014877224 -0.092362359 0.71979809 4293122519
-0.013686874 -0.09215387 0.71817327 4293319898
-0.012530106 -0.09215387 0.71817327 4293188312
-0.011357504 -0.092025571 0.7171734 4293254105
-0.010197013 -0.091977455 0.71679842 4293254105
-0.009039307 -0.09194538 0.71654844 4293385691
-0.0078837806 -0.091929339 0.71642345 4293254105
-0.0067298319 -0.091929339 0.71642345 4293319898
-0.0055739372 -0.091897264 0.71617347 4293517277
-0.0044196192 -0.091881223 0.71604848 4293385945
-0.0032657038 -0.091865182 0.71592349 4293451738
-0.0021125602 -0.091865182 0.71592349 4293517531
-0.00095941644 -0.091865182 0.71592349 4293517531
0.0001937273 -0.091865182 0.71592349 4293517529
0.0013471062 -0.091881223 0.71604848 4293714908
0.0025008877 -0.091897264 0.71617347 4293978080
0.0036544341 -0.091897264 0.71617347 4293846494
0.0048113368 -0.091961414 0.71667343 4293649630
0.0059688096 -0.092009529 0.71704841 4293781216
0.0071312157 -0.092105754 0.71779829 4293781216
0.0082974806 -0.092218027 0.71867323 4294373353
0.0094550531 -0.092218027 0.71867323 4293912802
0.010629238 -0.092362359 0.71979809 4294110181
0.011809092 -0.092522748 0.721048 4294372586
0.012990724 -0.092667088 0.72217286 4294241000
0.014153934 -0.092667088 0.72217286 4294175207
0.015338351 -0.092795387 0.72317272 4294635758
0.016525989 -0.092923693 0.72417265 4294570219
0.017710742 -0.093019918 0.72492254 4293978082
0.01889791 -0.093116149 0.72567248 4294044388
0.020066755 -0.093116149 0.72567248 4294307560
0.02123926 -0.093132183 0.72579747 4294175972
0.022412168 -0.093148224 0.72592247 4293912800
0.023589537 -0.093180299 0.72617245 4294044388
0.024759188 -0.093180299 0.72617245 4294110181
0.025937764 -0.093212374 0.72642237 4294373871
0.027121812 -0.093260489 0.72679734 4293650148
0.028311932 -0.093324639 0.72729731 4293584102
0.02952393 -0.093452938 0.72829717 4293452516
0.030697003 -0.093452938 0.72829717 4293452516
0.031902894 -0.09354917 0.72904712 4293255137
0.033139553 -0.093725584 0.73042196 4292925653
0.034445234 -0.094078422 0.7331717 4292662481
0.035784069 -0.094495408 0.73642135 4292728274
0.036970228 -0.094495408 0.73642135 4292596688
0.038240574 -0.094703905 0.73804617 4292137161
-0.044136025 -0.0917731 0.72429764 4291939010
-0.042969394 -0.0917731 0.72429764 4291939010
-0.041824397 -0.091820605 0.72467256 4292005575
-0.040657163 -0.091820605 0.72467256 4292071368
-0.039517172 -0.09188395 0.72517252 4292202954
-0.03838218 -0.091963135 0.72579747 4292137161
-0.037245173 -0.092042312 0.72642237 4292071368
-0.036099948 -0.092105664 0.72692233 4292334540
-0.034929089 -0.092105664 0.72692233 4292466126
-0.033775639 -0.092153177 0.72729731 4292334540
-0.032620985 -0.092200689 0.72767228 4292466126
-0.031470522 -0.092264026 0.72817218 4292531919
-0.030297652 -0.092264026 0.72817218 4292531919
-0.02912478 -0.092264026 0.72817218 4292597712
-0.027942313 -0.092232361 0.72792226 4292794321
-0.026769841 -0.092232361 0.72792226 4292925907
-0.025557812 -0.092089824 0.72679734 4292925907
-0.024353605 -0.091963135 0.72579747 4292925907
-0.023148624 -0.091820605 0.72467256 4292925907
-0.021981388 -0.091820605 0.72467256 4292925907
-0.020792613 -0.091725588 0.72392267 4293846242
-0.019585922 -0.091535546 0.72242284 4293254105
-0.01837769 -0.091313839 0.72067302 4293319900
-0.017216897 -0.091313839 0.72067302 4293319900
-0.016011547 -0.091060452 0.71867323 4293254107
-0.014822975 -0.09087041 0.7171734 4293122521
-0.013651145 -0.090759553 0.71629846 4293451486
-0.012497395 -0.090759553 0.71629846 4293254107
-0.011333752 -0.090680376 0.71567357 4293254105
-0.010177455 -0.090648696 0.71542358 4293254105
-0.0090235397 -0.090632863 0.71529859 4293254618
-0.0078714024 -0.090632863 0.71529859 4293188825
-0.0067192656 -0.090632863 0.71529859 4293123802
-0.0055661551 -0.090617023 0.7151736 4293452767
-0.0044142194 -0.090617023 0.7151736 4293452251
-0.0032617131 -0.090601183 0.71504861 4293386458
-0.0021099786 -0.090601183 0.71504861 4293386458
-0.00095824403 -0.090601183 0.71504861 4293452251
0.00019352439 -0.090617023 0.7151736 4293452249
0.0013456955 -0.090632863 0.71529859 4293715421
0.002499142 -0.090680376 0.71567357 4293846494
0.0036518832 -0.090680376 0.71567357 4293714908
0.0048071411 -0.090727873 0.71604848 4293451736
0.005964648 -0.090791225 0.71654844 4293978080
0.0071225241 -0.090838738 0.71692342 4293978080
0.0082844933 -0.090917923 0.71754837 4293978080
0.0094402544 -0.090917923 0.71754837 4293846496
0.010612627 -0.091060452 0.71867323 4294175461
0.011790669 -0.091218814 0.71992308 4294438119
0.012972737 -0.091377176 0.72117293 4294438119
0.014134337 -0.091377176 0.72117293 4294503658
0.015317144 -0.091503873 0.72217286 4294701037
0.01650317 -0.091630563 0.72317272 4294569965
0.017695475 -0.0917731 0.72429764 4294241000
0.018868614 -0.091804765 0.72454756 4294044134
0.020035649 -0.091804765 0.72454756 4294307306
0.021206342 -0.091820605 0.72467256 4294307560
0.022373578 -0.091820605 0.72467256 4294175974
0.023548933 -0.091852278 0.72492254 4294175974
0.024716571 -0.091852278 0.72492254 4294110181
0.025893135 -0.09188395 0.72517252 4294044906
0.027070507 -0.091915622 0.7254225 4293715941
0.028277874 -0.092042312 0.72642237 4293584615
0.029488463 -0.092169009 0.7274223 4293453029
0.030660128 -0.092169009 0.7274223 4293387236
0.031870078 -0.092279866 0.72829717 4293255650
0.0331112 -0.092469901 0.72979701 4292992731
0.034392387 -0.09275496 0.73204678 4292992731
0.035711188 -0.093119211 0.73492151 4292861143
0.036894932 -0.093119211 0.73492151 4292532178
0.038143434 -0.093277574 0.73617136 4292466385
0.039449383 -0.093562625 0.73842108 4292203213
-0.045271382 -0.090543933 0.72379768 4291873219
-0.04410556 -0.090543933 0.72379768 4292004805
-0.042947147 -0.090559565 0.72392267 4292136391
-0.041795544 -0.090590835 0.72417265 4292005575
-0.040629115 -0.090590835 0.72417265 4292137161
-0.039476309 -0.090622112 0.72442263 4292137161
-0.038335912 -0.090684645 0.72492254 4292005575
-0.037206724 -0.090778463 0.72567248 4292005575
-0.036050294 -0.090809733 0.72592247 4292202954
-0.034881044 -0.090809733 0.72592247 4292268747
-0.033729203 -0.090856634 0.72629738 4292334540
-0.032564953 -0.090872265 0.72642237 4292466126
-0.031405702 -0.090903543 0.72667235 4292334540
-0.030219644 -0.090856634 0.72629738 4292334540
-0.029034797 -0.090809733 0.72592247 4292531919
-0.027827164 -0.090684645 0.72492254 4292597712
-0.026659524 -0.090684645 0.72492254 4292663505
-0.025421562 -0.090434477 0.72292274 4292729298
-0.024219401 -0.090293765 0.72179788 4292729298
-0.023016872 -0.090137415 0.72054803 4292729298
-0.02185628 -0.090137415 0.72054803 4292926677
-0.020674147 -0.090043597 0.71979809 4293254618
-0.019480877 -0.089887246 0.71854824 4293254618
-0.018294821 -0.089746535 0.71742338 4293516763
-0.017139262 -0.089746535 0.71742338 4293056212
-0.015958639 -0.089605808 0.71629846 4293385691
-0.014786809 -0.089496367 0.71542358 4293188312
-0.013622561 -0.089418188 0.71479863 4293319898
-0.012471228 -0.089418188 0.71479863 4293188312
-0.011315937 -0.089386918 0.71454865 4293188312
-0.01016323 -0.089371279 0.71442366 4293254105
-0.0090109259 -0.089355648 0.71429867 4293254618
-0.0078603989 -0.089355648 0.71429867 4293188825
-0.0067098723 -0.089355648 0.71429867 4293123802
-0.0055583729 -0.089340009 0.71417367 4293321181
-0.0044080475 -0.089340009 0.71417367 4293255388
-0.0032577219 -0.089340009 0.71417367 4293189595
-0.0021073967 -0.089340009 0.71417367 4293255642
-0.00095707149 -0.089340009 0.71417367 4293321435
0.00019328763 -0.089355648 0.71429867 4293518814
0.0013440493 -0.089371279 0.71442366 4293781986
0.0024956502 -0.089402556 0.71467364 4293781214
0.003646781 -0.089402556 0.71467364 4293583835
0.0047995895 -0.089433827 0.71492362 4293320663
0.0059552845 -0.089496367 0.71542358 4293649628
0.0071113487 -0.089543276 0.71579856 4294307045
0.0082642911 -0.089543276 0.71579856 4293780701
0.009430388 -0.089668356 0.71679842 4294372326
0.01059786 -0.089777797 0.7176733 4294306533
0.011770199 -0.089902885 0.71867323 4294438119
0.012950254 -0.090059236 0.71992308 4294438119
0.014109841 -0.090059236 0.71992308 4294503658
0.015293285 -0.090199955 0.721048 4294569451
0.016480353 -0.090340674 0.72217286 4294438379
0.01765883 -0.090418845 0.72279775 4294241000
0.018832812 -0.090465754 0.72317272 4294109929
0.01999763 -0.090465754 0.72317272 4293912550
0.021169767 -0.090497024 0.72342271 4293715939
0.022334989 -0.090497024 0.72342271 4294044904
0.023508333 -0.090528294 0.72367269 4293979111
0.024673957 -0.090528294 0.72367269 4293979111
0.025848508 -0.090559565 0.72392267 4293979113
0.027023867 -0.090590835 0.72417265 4294110699
0.02822922 -0.090715915 0.72517252 4293584615
0.029442862 -0.090856634 0.72629738 4293453029
0.030612713 -0.090856634 0.72629738 4293322466
0.031831793 -0.090997353 0.7274223 4293059294
0.033077177 -0.091200612 0.72904712 4293059294
0.034327794 -0.091403872 0.73067194 4293125087
0.035583649 -0.091607131 0.73229676 4292532950
0.036763165 -0.091607131 0.73229676 4292532950
0.03805925 -0.091888569 0.73454654 4292532178
0.039315838 -0.092060551 0.73592138 4292466385
0.040508069 -0.09207619 0.73604637 4292269006
0.041693624 -0.09207619 0.73604637 4292269006
-0.045232292 -0.089300931 0.72317272 4291807942
-0.044067476 -0.089300931 0.72317272 4291873989
-0.042910073 -0.089316361 0.72329772 4292071368
-0.041752264 -0.089331798 0.72342271 4292071368
-0.040587042 -0.089331798 0.72342271 4292137161
-0.039435439 -0.089362666 0.72367269 4292071368
-0.038289644 -0.089408971 0.72404766 4292005575
-0.037142642 -0.089455277 0.72442263 4292005575
-0.03597581 -0.089455277 0.72442263 4292202954
-0.034820985 -0.089486137 0.72467256 4292268747
-0.033653747 -0.089486137 0.72467256 4292334540
-0.032480907 -0.089470699 0.72454756 4292466126
-0.031313874 -0.089470699 0.72454756 4292466126
-0.030131239 -0.089424402 0.72417265 4292466126
-0.028914817 -0.089270063 0.72292274 4292466126
-0.027712017 -0.089146592 0.72192287 4292531919
-0.026549209 -0.089146592 0.72192287 4292663505
-0.025333662 -0.088961385 0.72042304 4292663505
-0.024148107 -0.088868774 0.7196731 4292663505
-0.022952991 -0.088729873 0.71854824 4292729044
-0.021795619 -0.088729873 0.71854824 4292794837
-0.020627478 -0.088683568 0.71817327 4293254618
-0.019446991 -0.088575535 0.71729839 4293320411
-0.018269323 -0.088467494 0.71642345 4293582040
-0.017115373 -0.088467494 0.71642345 4293450454
-0.015944717 -0.088374898 0.71567357 4293451224
-0.014776476 -0.088282287 0.71492362 4293385431
-0.013617797 -0.088235989 0.71454865 4293254359
-0.012466867 -0.088235989 0.71454865 4293188566
-0.011309999 -0.088189684 0.71417367 4293188566
-0.01015434 -0.088143386 0.71379876 4293254359
-0.0090030422 -0.088127948 0.71367377 4293320665
-0.007853522 -0.088127948 0.71367377 4293189079
-0.0067040022 -0.088127948 0.71367377 4293254872
-0.0055544819 -0.088127948 0.71367377 4293320665
-0.0044049621 -0.088127948 0.71367377 4293320411
-0.0032554416 -0.088127948 0.71367377 4293320411
-0.0021059215 -0.088127948 0.71367377 4293321181
-0.00095640158 -0.088127948 0.71367377 4293518560
0.00019311854 -0.088127948 0.71367377 4293453534
0.0013426386 -0.088127948 0.71367377 4293519327
0.002492595 -0.088143386 0.71379876 4293387741
0.0036423167 -0.088143386 0.71379876 4293585120
0.004796233 -0.088220552 0.71442366 4294110951
0.0059511228 -0.088282287 0.71492362 4293453021
0.0071088653 -0.08835946 0.71554857 4293386458
0.0082614049 -0.08835946 0.71554857 4294175974
0.0094205216 -0.088421196 0.71604848 4294306533
0.010588633 -0.088544667 0.71704841 4294372326
0.011762011 -0.088683568 0.71817327 4294372072
0.012932268 -0.088776179 0.71892321 4294437865
0.014090245 -0.088776179 0.71892321 4294437865
0.015277379 -0.088945948 0.72029805 4294569451
0.016457533 -0.089053981 0.72117293 4294833652
0.017628295 -0.089100286 0.7215479 4294044136
0.018800262 -0.089146592 0.72192287 4294044906
0.019963069 -0.089146592 0.72192287 4293650148
0.021133192 -0.089177459 0.72217286 4293453282
0.02230026 -0.089192897 0.72229785 4293979626
0.023471791 -0.089223765 0.72254783 4293913833
0.024635606 -0.089223765 0.72254783 4293979626
0.025808342 -0.089254625 0.72279775 4293979373
0.026986552 -0.089300931 0.72317272 4293913580
0.028180566 -0.089393534 0.72392267 4293453799
0.029387128 -0.089517005 0.72492254 4293716971
0.030554766 -0.089517005 0.72492254 4294243825
0.031777099 -0.089671351 0.72617245 4293059551
0.0330148 -0.089856558 0.72767228 4293191137
0.034269076 -0.090072632 0.72942209 4293059551
0.035443962 -0.090072632 0.72942209 4292927965
0.03668787 -0.090242401 0.73079693 4292664793
0.037955631 -0.090458483 0.73254675 4292663766
0.039168939 -0.090535656 0.7331717 4292532180
0.040370498 -0.090581946 0.73354661 4292466387
0.041552026 -0.090581946 0.73354661 4292597973
0.042755403 -0.090628251 0.73392159 4292269006
-0.045232292 -0.088136107 0.72317272 4291873735
-0.044067476 -0.088136107 0.72317272 4291873735
-0.042910073 -0.088151343 0.72329772 4292005321
-0.041752264 -0.088166572 0.72342271 4292005321
-0.040587042 -0.088166572 0.72342271 4292071114
-0.039435439 -0.088197038 0.72367269 4292071114
-0.038289644 -0.088242739 0.72404766 4292071114
-0.037142642 -0.088288441 0.72442263 4292137161
-0.03597581 -0.088288441 0.72442263 4292202954
-0.034820985 -0.088318899 0.72467256 4292268747
-0.033653747 -0.088318899 0.72467256 4292334540
-0.032480907 -0.088303663 0.72454756 4292334540
-0.031313874 -0.088303663 0.72454756 4292466126
-0.030131239 -0.088257976 0.72417265 4292466126
-0.028914817 -0.088105641 0.72292274 4292466126
-0.027712017 -0.08798378 0.72192287 4292531919
-0.026549209 -0.08798378 0.72192287 4292597712
-0.025333662 -0.087800995 0.72042304 4292663251
-0.024148107 -0.087709591 0.7196731 4292663251
-0.022952991 -0.0875725 0.71854824 4292729044
-0.021795619 -0.0875725 0.71854824 4292794837
-0.020627478 -0.087526798 0.71817327 4293123032
-0.019446991 -0.08742018 0.71729839 4293188825
-0.018269323 -0.087313548 0.71642345 4293647833
-0.017115373 -0.087313548 0.71642345 4293450454
-0.015944717 -0.087222151 0.71567357 4293582040
-0.014776476 -0.087130755 0.71492362 4293516247
-0.013617797 -0.087085053 0.71454865 4293385431
-0.012466867 -0.087085053 0.71454865 4293319638
-0.011309999 -0.087039351 0.71417367 4293188566
-0.01015434 -0.086993665 0.71379876 4293188566
-0.0090030422 -0.086978428 0.71367377 4293254872
-0.007853522 -0.086978428 0.71367377 4293320665
-0.0067040022 -0.086978428 0.71367377 4293254872
-0.0055544819 -0.086978428 0.71367377 4293254872
-0.0044049621 -0.086978428 0.71367377 4293320411
-0.0032554416 -0.086978428 0.71367377 4293451997
-0.0021059215 -0.086978428 0.71367377 4293583583
-0.00095640158 -0.086978428 0.71367377 4293583583
0.00019311854 -0.086978428 0.71367377 4293255388
0.0013426386 -0.086978428 0.71367377 4293321181
0.002492595 -0.086993665 0.71379876 4293518814
0.0036423167 -0.086993665 0.71379876 4293584607
0.004796233 -0.087069824 0.71442366 4293650913
0.0059511228 -0.087130755 0.71492362 4293453534
0.0071088653 -0.087206922 0.71554857 4294110697
0.0082614049 -0.087206922 0.71554857 4294044904
0.0094205216 -0.087267846 0.71604848 4294240488
0.010588633 -0.087389708 0.71704841 4294372074
0.011762011 -0.087526798 0.71817327 4294306279
0.012932268 -0.087618202 0.71892321 4294437865
0.014090245 -0.087618202 0.71892321 4294241000
0.015277379 -0.087785758 0.72029805 4294372586
0.016457533 -0.087892383 0.72117293 4294307308
0.017628295 -0.087938085 0.7215479 4294109929
0.018800262 -0.08798378 0.72192287 4293978860
0.019963069 -0.08798378 0.72192287 4293649895
0.021133192 -0.088014245 0.72217286 4293518822
0.02230026 -0.088029481 0.72229785 4294045166
0.023471791 -0.088059947 0.72254783 4294045166
0.024635606 -0.088059947 0.72254783 4294045166
0.025808342 -0.088090405 0.72279775 4294044653
0.026986552 -0.088136107 0.72317272 4293978860
0.028180566 -0.088227503 0.72392267 4293781481
0.029387128 -0.088349365 0.72492254 4294176239
0.030554766 -0.088349365 0.72492254 4294111212
0.031777099 -0.088501699 0.72617245 4293979626
0.0330148 -0.088684484 0.72767228 4293256673
0.034269076 -0.088897742 0.72942209 4293125087
0.035443962 -0.088897742 0.72942209 4293059294
0.03668787 -0.089065298 0.73079693 4292861915
0.037955631 -0.089278556 0.73254675 4293058524
0.039168939 -0.089354724 0.7331717 4293190110
0.040370498 -0.089400418 0.73354661 4292663253
0.041552026 -0.089400418 0.73354661 4292597460
0.042755403 -0.089446113 0.73392159 4292465872
-0.04752906 -0.086911172 0.72267282 4291807942
-0.046365045 -0.086911172 0.72267282 4291873735
-0.045201026 -0.086911172 0.72267282 4291873735
-0.044037014 -0.086911172 0.72267282 4291873735
-0.042872999 -0.086911172 0.72267282 4292005321
-0.041716192 -0.086926192 0.72279775 4292071114
-0.040551979 -0.086926192 0.72279775 4292202700
-0.039394572 -0.086941227 0.72292274 4292136907
-0.038243376 -0.08697129 0.72317272 4292071114
-0.037091374 -0.087001354 0.72342271 4292136907
-0.035926152 -0.087001354 0.72342271 4292531665
-0.03476093 -0.087001354 0.72342271 4292465356
-0.033584096 -0.08697129 0.72317272 4292465356
-0.032385658 -0.086881109 0.72242284 4292465354
-0.031222045 -0.086881109 0.72242284 4292596940
-0.030022029 -0.086775884 0.7215479 4292466124
-0.028814835 -0.086640604 0.72042304 4292334538
-0.027635254 -0.086580478 0.71992308 4292531917
-0.026475664 -0.086580478 0.71992308 4292597710
-0.025294105 -0.086505324 0.71929818 4292597458
-0.024110362 -0.086415134 0.71854824 4292663251
-0.022933029 -0.086339973 0.71792328 4292729044
-0.021776663 -0.086339973 0.71792328 4292794837
-0.020602349 -0.086264819 0.71729839 4292925653
-0.019423271 -0.086159602 0.71642345 4293123032
-0.018253386 -0.086084448 0.71579856 4293581786
-0.017100444 -0.086084448 0.71579856 4293384407
-0.015933577 -0.086009286 0.7151736 4293516247
-0.014768725 -0.085934125 0.71454865 4293582040
-0.013608269 -0.085874006 0.71404874 4293385431
-0.012458145 -0.085874006 0.71404874 4293319638
-0.011304062 -0.085843943 0.71379876 4293254359
-0.010150784 -0.08581388 0.71354878 4293254359
-0.0089998888 -0.085798852 0.71342379 4293254872
-0.0078507708 -0.085798852 0.71342379 4293320665
-0.0067016543 -0.085798852 0.71342379 4293254618
-0.0055515636 -0.085783817 0.7132988 4293254618
-0.0044026477 -0.085783817 0.7132988 4293386204
-0.003253161 -0.085768782 0.71317381 4293451997
-0.0021044463 -0.085768782 0.71317381 4293649378
-0.00095573155 -0.085768782 0.71317381 4293583585
0.00019298325 -0.085768782 0.71317381 4293648863
0.001341698 -0.085768782 0.71317381 4293714656
0.0024917221 -0.08581388 0.71354878 4293846242
0.003641041 -0.08581388 0.71354878 4294109414
0.004792877 -0.085858978 0.71392375 4293912548
0.0059459205 -0.085904062 0.71429867 4293780962
0.0071026562 -0.085979223 0.71492362 4293912550
0.008254189 -0.085979223 0.71492362 4294175722
0.0094172331 -0.086084448 0.71579856 4294175209
0.010586787 -0.086219728 0.71692342 4294175209
0.011759964 -0.086355008 0.71804827 4294109416
0.012932268 -0.086460225 0.71892321 4294241002
0.014090245 -0.086460225 0.71892321 4294109414
0.015274729 -0.086610541 0.72017306 4294241000
0.01645183 -0.08670073 0.72092301 4294372588
0.017613027 -0.08670073 0.72092301 4294306795
0.018783988 -0.086745821 0.72129792 4294109929
0.019945787 -0.086745821 0.72129792 4293912550
0.021111246 -0.086760849 0.72142291 4294505719
0.022280965 -0.086790912 0.72167289 4294110961
0.02344743 -0.086805947 0.72179788 4294110961
0.024610035 -0.086805947 0.72179788 4294176754
0.025777103 -0.086820975 0.72192287 4294439413
0.026949242 -0.086851045 0.72217286 4293978862
0.028136777 -0.086926192 0.72279775 4293846504
0.029300991 -0.086926192 0.72279775 4294307055
0.030496817 -0.087016389 0.7235477 4294241515
0.031711463 -0.087151662 0.72467256 4294241515
0.032946751 -0.087332048 0.72617245 4293912550
0.034198612 -0.087542489 0.72792226 4293123034
0.035371084 -0.087542489 0.72792226 4293583585
0.036612574 -0.087707832 0.7292971 4293386206
0.037871446 -0.087903239 0.73092192 4293386206
0.039095484 -0.088008448 0.7317968 4293188827
0.040336106 -0.088143736 0.73292172 4292859862
0.041516628 -0.088143736 0.73292172 4292662483
0.04274812 -0.088248953 0.7337966 4292334286
0.043959983 -0.088309079 0.73429656 4292268493
0.045211874 -0.08844436 0.73542142 4292202954
-0.048659384 -0.085687831 0.72217286 4291742149
-0.047496177 -0.085687831 0.72217286 4291742149
-0.046332967 -0.085687831 0.72217286 4291873735
-0.045169756 -0.085687831 0.72217286 4291873735
-0.044006549 -0.085687831 0.72217286 4292071114
-0.042843338 -0.085687831 0.72217286 4292071114
-0.041680127 -0.085687831 0.72217286 4292333516
-0.040516917 -0.085687831 0.72217286 4292333516
-0.039360519 -0.085702658 0.72229785 4292267723
-0.03820372 -0.085717492 0.72242284 4292201930
-0.037052926 -0.085747153 0.72267282 4292201930
-0.03588891 -0.085747153 0.72267282 4291872965
-0.034712885 -0.085717492 0.72242284 4292465356
-0.033531856 -0.085672997 0.72204787 4292399563
-0.032368846 -0.085672997 0.72204787 4292465354
-0.03117883 -0.085598849 0.72142291 4292596940
-0.029975226 -0.085480213 0.72042304 4292596940
-0.028789839 -0.085406058 0.71979809 4292596940
-0.027611265 -0.085346743 0.71929818 4292662733
-0.026452685 -0.085346743 0.71929818 4292728526
-0.025272129 -0.085272588 0.71867323 4292531665
-0.02409778 -0.085213266 0.71817327 4292663251
-0.022917058 -0.085124291 0.71742338 4292729044
-0.021761499 -0.085124291 0.71742338 4292794837
-0.02058799 -0.085050136 0.71679842 4292925653
-0.019413104 -0.084961154 0.71604848 4293123032
-0.018243825 -0.084887013 0.71542358 4293450970
-0.017091487 -0.084887013 0.71542358 4293450970
-0.015925223 -0.084812857 0.71479863 4293450970
-0.014763558 -0.084753536 0.71429867 4292858833
-0.013605887 -0.084709048 0.71392375 4293385177
-0.012455964 -0.084709048 0.71392375 4293319384
-0.011298124 -0.084649727 0.71342379 4293188566
-0.01014545 -0.084620066 0.71317381 4293254359
-0.0089951586 -0.084605239 0.71304882 4293254872
-0.0078466451 -0.084605239 0.71304882 4293320665
-0.0066969576 -0.084590405 0.71292382 4293254618
-0.0055486453 -0.084590405 0.71292382 4293320411
-0.0043995618 -0.084575579 0.71279883 4293320413
-0.0032514506 -0.084575579 0.71279883 4293386206
-0.0021029711 -0.084560744 0.71267384 4293451486
-0.00095506158 -0.084560744 0.71267384 4293517279
0.00019284796 -0.084560744 0.71267384 4293911523
0.0013409926 -0.084575579 0.71279883 4293911523
0.0024899764 -0.084605239 0.71304882 4294174177
0.0036384899 -0.084605239 0.71304882 4294437349
0.0047895205 -0.084649727 0.71342379 4294240740
0.0059427996 -0.084709048 0.71392375 4294043361
0.0071001728 -0.084798031 0.71467364 4293977828
0.0082513029 -0.084798031 0.71467364 4294175207
0.0094155893 -0.084916674 0.71567357 4294109416
0.010586787 -0.08506497 0.71692342 4293977830
0.011759964 -0.08519844 0.71804827 4294175209
0.012936764 -0.085331909 0.71917319 4294109416
0.014095143 -0.085331909 0.71917319 4293977830
0.015272077 -0.085435718 0.72004807 4294175209
0.016446127 -0.085509874 0.72067302 4294307308
0.017606921 -0.085509874 0.72067302 4294241515
0.018777478 -0.085554361 0.721048 4293979113
0.01993542 -0.085539535 0.72092301 4293979113
0.021096617 -0.085539535 0.72092301 4294110961
0.022257814 -0.085539535 0.72092301 4294110961
0.02341901 -0.085539535 0.72092301 4294374135
0.024580207 -0.085539535 0.72092301 4293979377
0.025750326 -0.085569188 0.72117293 4294439928
0.026921256 -0.085598849 0.72142291 4293913584
0.028092988 -0.08562851 0.72167289 4293913067
0.029255392 -0.08562851 0.72167289 4294110446
0.030438868 -0.085687831 0.72217286 4294110699
0.031645831 -0.085806467 0.72317272 4294044906
0.032867361 -0.08595477 0.72442263 4293912550
0.034110531 -0.086147562 0.72604746 4293846757
0.035279982 -0.086147562 0.72604746 4293912037
0.036537278 -0.08635518 0.72779727 4293451486
0.037793733 -0.086547971 0.72942209 4293648863
0.039042071 -0.086711101 0.73079693 4293188312
0.040287953 -0.086859398 0.73204678 4293189595
0.041467067 -0.086859398 0.73204678 4292531665
0.042675309 -0.086918719 0.73254675 4292466385
0.043937534 -0.08708185 0.73392159 4292269006
0.045204189 -0.08724498 0.73529643 4292334540
0.046522588 -0.087497093 0.73742121 4292268747
0.047710355 -0.087497093 0.73742121 4292071368
-0.048634119 -0.084480733 0.72179788 4291872965
-0.047471516 -0.084480733 0.72179788 4292004551
-0.046300892 -0.0844661 0.72167289 4291873735
-0.045138486 -0.0844661 0.72167289 4292071114
-0.043960851 -0.084436841 0.72142291 4292202700
-0.042798847 -0.084436841 0.72142291 4292136907
-0.041636843 -0.084436841 0.72142291 4292333516
-0.040474843 -0.084436841 0.72142291 4292267723
-0.039319653 -0.084451474 0.7215479 4292201930
-0.038164061 -0.0844661 0.72167289 4292201930
-0.037014473 -0.084495358 0.72192287 4292201930
-0.035851669 -0.084495358 0.72192287 4292136137
-0.03467685 -0.0844661 0.72167289 4292333770
-0.033491224 -0.084407583 0.72117293 4292465356
-0.032329626 -0.084407583 0.72117293 4292465356
-0.031135617 -0.084319815 0.72042304 4292596942
-0.029954424 -0.084261298 0.71992308 4292530636
-0.028769845 -0.084188163 0.71929818 4292728015
-0.027611265 -0.084188163 0.71929818 4292596942
-0.026438894 -0.084144272 0.71892321 4292596942
-0.025263337 -0.084085755 0.71842325 4292597712
-0.024085198 -0.084012613 0.71779829 4292663505
-0.022909073 -0.08393947 0.7171734 4292663251
-0.021753917 -0.08393947 0.7171734 4292729044
-0.02057722 -0.083851695 0.71642345 4292794837
-0.01940294 -0.083763927 0.71567357 4292992216
-0.018234262 -0.083690785 0.71504861 4293123032
-0.017082529 -0.083690785 0.71504861 4293057239
-0.015916869 -0.083617635 0.71442366 4293319898
-0.014753226 -0.0835445 0.71379876 4293122519
-0.013593977 -0.083485983 0.7132988 4293188312
-0.01244506 -0.083485983 0.7132988 4293254105
-0.011288227 -0.083427466 0.71279883 4294372840
-0.01013656 -0.083398208 0.71254885 4293451738
-0.0089856982 -0.08336895 0.71229893 4293320152
-0.0078383926 -0.08336895 0.71229893 4293320152
-0.0066899136 -0.083354324 0.71217394 4293320411
-0.0055428087 -0.083354324 0.71217394 4293254618
-0.0043941615 -0.083325066 0.71192396 4293386204
-0.0032474599 -0.083325066 0.71192396 4293386204
-0.0021007583 -0.083325066 0.71192396 4293385693
-0.00095405662 -0.083325066 0.71192396 4293385693
0.00019264505 -0.083325066 0.71192396 4293976546
0.0013395818 -0.083339699 0.71204895 4294042339
0.002487794 -0.083383575 0.71242386 4294371556
0.0036353008 -0.083383575 0.71242386 4294437349
0.004786164 -0.083442092 0.71292382 4294239970
0.0059396783 -0.083515242 0.71354878 4294174177
0.0070976894 -0.083617635 0.71442366 4294108900
0.0082484167 -0.083617635 0.71442366 4294306279
0.0094155893 -0.083763927 0.71567357 4293912037
0.010584941 -0.083895586 0.71679842 4293912037
0.011759964 -0.084041871 0.71804827 4294175209
0.012939014 -0.084188163 0.71929818 4294109416
0.014097594 -0.084188163 0.71929818 4293911784
0.015258823 -0.084202781 0.71942312 4294109163
0.016429013 -0.084261298 0.71992308 4293912297
0.017600814 -0.084319815 0.72042304 4294307055
0.018761205 -0.084319815 0.72042304 4293979113
0.019914683 -0.084290557 0.72017306 4294044906
0.021071015 -0.084275931 0.72004807 4294110446
0.022226943 -0.084261298 0.71992308 4294110446
0.023386527 -0.084261298 0.71992308 4293716205
0.024546113 -0.084261298 0.71992308 4294110963
0.025714625 -0.084290557 0.72017306 4294110196
0.026883943 -0.084319815 0.72042304 4293978610
0.028054066 -0.084349073 0.72067302 4293913069
0.029214859 -0.084349073 0.72067302 4293978862
0.030407259 -0.084436841 0.72142291 4294044653
0.031602077 -0.084524617 0.72217286 4294044653
0.032810651 -0.084641643 0.72317272 4294109676
0.034028322 -0.08477331 0.72429764 4294109676
0.035194956 -0.08477331 0.72429764 4294372074
0.036449432 -0.084978111 0.72604746 4293911523
0.037703071 -0.08516828 0.72767228 4293845728
0.038955264 -0.085343823 0.72917211 4293845728
0.040205412 -0.08550474 0.73054695 4293123802
0.041382108 -0.08550474 0.73054695 4292465872
0.042660747 -0.085709542 0.73229676 4292598225
0.04392257 -0.085870452 0.73367161 4292532432
0.045196507 -0.086046003 0.73517144 4292334538
0.046522588 -0.086309321 0.73742121 4292268745
0.047710355 -0.086309321 0.73742121 4292137159
0.049121898 -0.086704291 0.74079585 4292137159
-0.048634119 -0.083318129 0.72179788 4291938758
-0.047471516 -0.083318129 0.72179788 4292004551
-0.046300892 -0.083303697 0.72167289 4292004551
-0.045138486 -0.083303697 0.72167289 4292267723
-0.043960851 -0.083274841 0.72142291 4292267723
-0.042798847 -0.083274841 0.72142291 4292267723
-0.041636843 -0.083274841 0.72142291 4292267723
-0.040474843 -0.083274841 0.72142291 4292267723
-0.039319653 -0.083289273 0.7215479 4292201930
-0.038164061 -0.083303697 0.72167289 4292201930
-0.037014473 -0.083332554 0.72192287 4292201930
-0.035851669 -0.083332554 0.72192287 4292201930
-0.03467685 -0.083303697 0.72167289 4292333516
-0.033491224 -0.083245985 0.72117293 4292399309
-0.032329626 -0.083245985 0.72117293 4292464843
-0.031135617 -0.083159432 0.72042304 4292530636
-0.029954424 -0.08310172 0.71992308 4292530636
-0.028769845 -0.083029583 0.71929818 4292728015
-0.027611265 -0.083029583 0.71929818 4292728528
-0.026438894 -0.082986303 0.71892321 4292662735
-0.025263337 -0.08292859 0.71842325 4292662735
-0.024085198 -0.082856447 0.71779829 4292728528
-0.022909073 -0.082784317 0.7171734 4292794067
-0.021753917 -0.082784317 0.7171734 4292794067
-0.02057722 -0.082697749 0.71642345 4292859860
-0.01940294 -0.082611188 0.71567357 4293123032
-0.018234262 -0.082539052 0.71504861 4293057239
-0.017082529 -0.082539052 0.71504861 4293057239
-0.015916869 -0.082466908 0.71442366 4293123032
-0.014753226 -0.082394779 0.71379876 4293123032
-0.013593977 -0.082337067 0.7132988 4293057239
-0.01244506 -0.082337067 0.7132988 4293123032
-0.011288227 -0.082279354 0.71279883 4292662481
-0.01013656 -0.082250498 0.71254885 4293123032
-0.0089856982 -0.08222165 0.71229893 4293188825
-0.0078383926 -0.08222165 0.71229893 4293254618
-0.0066899136 -0.082207225 0.71217394 4293386204
-0.0055428087 -0.082207225 0.71217394 4293320411
-0.0043941615 -0.082178369 0.71192396 4293254618
-0.0032474599 -0.082178369 0.71192396 4292925653
-0.0021007583 -0.082178369 0.71192396 4293451484
-0.00095405662 -0.082178369 0.71192396 4293451484
0.00019264505 -0.082178369 0.71192396 4293779935
0.0013395818 -0.082192793 0.71204895 4293845728
0.002487794 -0.082236074 0.71242386 4293911521
0.0036353008 -0.082236074 0.71242386 4293911521
0.004786164 -0.082293786 0.71292382 4294043107
0.0059396783 -0.082365923 0.71354878 4293911521
0.0070976894 -0.082466908 0.71442366 4293977577
0.0082484167 -0.082466908 0.71442366 4294109163
0.0094155893 -0.082611188 0.71567357 4293845993
0.010584941 -0.082741037 0.71679842 4293845993
0.011759964 -0.082885303 0.71804827 4293912299
0.012941261 -0.083044007 0.71942312 4293912299
0.014100042 -0.083044007 0.71942312 4293846506
0.015258823 -0.083044007 0.71942312 4293912299
0.016429013 -0.08310172 0.71992308 4293780711
0.017600814 -0.083159432 0.72042304 4294109676
0.018761205 -0.083159432 0.72042304 4293978860
0.019914683 -0.083130576 0.72017306 4293978860
0.021071015 -0.083116144 0.72004807 4294176239
0.022226943 -0.08310172 0.71992308 4294110446
0.023386527 -0.08310172 0.71992308 4294110196
0.024546113 -0.08310172 0.71992308 4294439161
0.025714625 -0.083130576 0.72017306 4294175219
0.026883943 -0.083159432 0.72042304 4294043633
0.028054066 -0.08318828 0.72067302 4293846508
0.029214859 -0.08318828 0.72067302 4294043887
0.030407259 -0.083274841 0.72142291 4294043887
0.031602077 -0.08336141 0.72217286 4294175473
0.032810651 -0.083476827 0.72317272 4294109678
0.034028322 -0.083606675 0.72429764 4294109678
0.035194956 -0.083606675 0.72429764 4294174956
0.036449432 -0.083808661 0.72604746 4293977577
0.037703071 -0.083996221 0.72767228 4293780451
0.038955264 -0.084169343 0.72917211 4293648865
0.040205412 -0.084328048 0.73054695 4292794837
0.041382108 -0.084328048 0.73054695 4293715939
0.042660747 -0.084530026 0.73229676 4292927190
0.04392257 -0.084688731 0.73367161 4292664018
0.045196507 -0.084861852 0.73517144 4292466639
0.046546247 -0.085164838 0.73779619 4292203467
0.047734614 -0.085164838 0.73779619 4292137159
0.049121898 -0.085511088 0.74079585 4292466124
-0.048592012 -0.082084388 0.72117293 4291938758
-0.047430415 -0.082084388 0.72117293 4291938758
-0.0462608 -0.082070164 0.721048 4292136137
-0.045091581 -0.082055941 0.72092301 4292267723
-0.043915153 -0.082027487 0.72067302 4292201930
-0.042746946 -0.082013264 0.72054803 4292333516
-0.041586351 -0.082013264 0.72054803 4292267723
-0.040425759 -0.082013264 0.72054803 4292201930
-0.039271977 -0.082027487 0.72067302 4292201930
-0.038124405 -0.082055941 0.72092301 4292201930
-0.036976021 -0.082084388 0.72117293 4292267723
-0.035814423 -0.082084388 0.72117293 4292201930
-0.03464682 -0.082070164 0.721048 4292333516
-0.0334564 -0.081999034 0.72042304 4292267723
-0.032296009 -0.081999034 0.72042304 4292399309
-0.03111401 -0.081942126 0.71992308 4292465102
-0.029944023 -0.081913672 0.7196731 4292530382
-0.028764846 -0.08185678 0.71917319 4292661968
-0.027606469 -0.08185678 0.71917319 4292662481
-0.026429702 -0.081799872 0.71867323 4292662481
-0.025250152 -0.081728734 0.71804827 4292662481
-0.024072619 -0.081657611 0.71742338 4292794067
-0.022893103 -0.08157225 0.71667343 4292859860
-0.021738753 -0.08157225 0.71667343 4292859860
-0.020562859 -0.081486896 0.71592349 4292925655
-0.019389385 -0.081401542 0.7151736 4293057241
-0.018218325 -0.081316181 0.71442366 4293057239
-0.017067598 -0.081316181 0.71442366 4293123032
-0.015902948 -0.081245057 0.71379876 4293188827
-0.01474031 -0.081173919 0.71317381 4293188827
-0.013579684 -0.081102788 0.71254885 4293188825
-0.012431975 -0.081102788 0.71254885 4293057239
-0.011274371 -0.081031665 0.71192396 4292925653
-0.010124113 -0.081003211 0.71167397 4293188825
-0.0089730844 -0.080960527 0.711299 4293188825
-0.0078273891 -0.080960527 0.711299 4293188825
0.0059323953 -0.081117019 0.71267384 4293648863
0.0070889974 -0.081216604 0.71354878 4293977579
0.0082383156 -0.081216604 0.71354878 4294174958
0.0093991449 -0.081316181 0.71442366 4294372337
0.010570176 -0.081472673 0.71579856 4293977579
0.011743588 -0.081614934 0.71704841 4293977579
0.012918778 -0.081742965 0.71817327 4294109165
0.014075546 -0.081742965 0.71817327 4293977577
0.015253522 -0.08185678 0.71917319 4293977577
0.016417602 -0.081885226 0.71942312 4294109676
0.017579438 -0.081899449 0.71954811 4294241262
0.018735165 -0.081885226 0.71942312 4294044906
0.019890489 -0.081871003 0.71929818 4294044906
0.021041755 -0.081842549 0.7190482 4294242032
0.022199931 -0.081842549 0.7190482 4294242032
0.023362167 -0.08185678 0.71917319 4294044403
0.024520544 -0.08185678 0.71917319 4294175989
0.025683386 -0.081871003 0.71929818 4294306805
0.026865287 -0.081942126 0.71992308 4294109426
0.028039468 -0.081984811 0.72029805 4294043633
0.029199658 -0.081984811 0.72029805 4294175219
0.030380921 -0.082041718 0.72079802 4294175473
0.03155832 -0.082084388 0.72117293 4294175473
0.032765288 -0.082198203 0.72217286 4294174960
0.033987217 -0.082340457 0.72342271 4294109167
0.035152443 -0.082340457 0.72342271 4293977579
0.036405507 -0.082539625 0.72517252 4293845993
0.037664212 -0.082738787 0.72692233 4293649125
0.038941909 -0.08296641 0.72892213 4293649125
0.040205412 -0.083151348 0.73054695 4293451746
0.041382108 -0.083151348 0.73054695 4293583332
0.042653464 -0.083336286 0.73217177 4292992731
0.04392257 -0.083506994 0.73367161 4292729559
0.04518114 -0.083649263 0.73492151 4292466385
0.046546247 -0.083976455 0.73779619 4292400592
0.047734614 -0.083976455 0.73779619 4292268747
0.049121898 -0.084317878 0.74079585 4292334540
0.050798982 -0.085128769 0.7479201 4292202952
-0.048566751 -0.080880724 0.72079802 4291938758
-0.047405757 -0.080880724 0.72079802 4291938758
-0.046236742 -0.080866694 0.72067302 4291807172
-0.045036856 -0.08079657 0.72004807 4292201930
-0.043831378 -0.080712423 0.71929818 4292202184
-0.042672798 -0.080712423 0.71929818 4292202184
-0.041514218 -0.080712423 0.71929818 4292202184
-0.040355638 -0.080712423 0.71929818 4292202184
-0.039203867 -0.080726445 0.71942312 4292201930
-0.038058307 -0.080754496 0.7196731 4292136137
-0.036911938 -0.080782548 0.71992308 4292136137
-0.035752356 -0.080782548 0.71992308 4292267723
-0.03460478 -0.080810599 0.72017306 4292333516
-0.03343318 -0.080782548 0.71992308 4292267723
-0.032273594 -0.080782548 0.71992308 4292399309
-0.031092402 -0.080726445 0.71942312 4292465102
-0.029923223 -0.080698401 0.71917319 4292465102
-0.028749848 -0.080656327 0.71879822 4292596688
-0.027592074 -0.080656327 0.71879822 4292662481
-0.026415911 -0.080600224 0.71829826 4292662481
-0.025236966 -0.0805301 0.7176733 4292728276
-0.024055842 -0.080445953 0.71692342 4292859862
-0.022893103 -0.080417901 0.71667343 4292859862
-0.021723587 -0.080361806 0.71617347 4292925655
-0.020544911 -0.08026363 0.71529859 4292925655
-0.019369053 -0.080165453 0.71442366 4293057241
-0.018199204 -0.080081314 0.71367377 4293385691
-0.017049683 -0.080081314 0.71367377 4293254105
-0.015883455 -0.07999716 0.71292382 4293319900
-0.014722227 -0.079927042 0.71229893 4293254107
-0.013563011 -0.079856917 0.71167397 4293254107
-0.012416711 -0.079856917 0.71167397 4293188314
0.00938599 -0.080053262 0.71342379 4293188574
0.010551719 -0.080179483 0.71454865 4294372848
0.011725164 -0.080333754 0.71592349 4293846244
0.012896295 -0.080445953 0.71692342 4294109416
0.01405105 -0.080445953 0.71692342 4294109416
0.015221709 -0.0805301 0.7176733 4293977830
0.016386228 -0.080572173 0.71804827 4293846755
0.017548902 -0.080600224 0.71829826 4294044134
0.018705871 -0.080600224 0.71829826 4293781734
0.019859383 -0.080586202 0.71817327 4293650148
0.021016151 -0.080586202 0.71817327 4294044653
0.022172919 -0.080586202 0.71817327 4293913067
0.023333745 -0.080600224 0.71829826 4293978610
0.024490714 -0.080600224 0.71829826 4294175989
0.025661072 -0.080642298 0.71867323 4294439161
0.026837302 -0.080698401 0.71917319 4294965503
0.028020006 -0.080768518 0.71979809 4293648875
0.029179391 -0.080768518 0.71979809 4294175219
0.030365117 -0.08083865 0.72042304 4294240753
0.031547386 -0.080894746 0.72092301 4294174960
0.032753944 -0.081006944 0.72192287 4294174960
0.033975471 -0.081147186 0.72317272 4293977581
0.035140295 -0.081147186 0.72317272 4293977579
0.036399234 -0.081357561 0.72504753 4293911786
0.037651259 -0.081539884 0.72667235 4293845993
0.038921878 -0.081750251 0.72854716 4293780200
0.040205412 -0.081974648 0.73054695 4293649127
0.041382108 -0.081974648 0.73054695 4293649127
0.042646185 -0.082142949 0.73204678 4293255139
0.043907605 -0.082297221 0.73342162 4293057760
0.045173455 -0.082451493 0.73479652 4293058271
0.04653836 -0.082774058 0.7376712 4292466134
0.047726531 -0.082774058 0.7376712 4292203213
0.049179915 -0.083222859 0.74167079 4292203213
0.050782003 -0.083896041 0.74767011 4292137674
0.052021049 -0.083952144 0.74817008 4291808709
-0.048541486 -0.079678252 0.72042304 4292004551
-0.047381096 -0.079678252 0.72042304 4291938758
-0.046164569 -0.079581484 0.71954811 4291938758
-0.044943046 -0.079470903 0.71854824 4292136137
-0.043732364 -0.079374135 0.7176733 4292136391
-0.042576402 -0.079374135 0.7176733 4292202184
-0.041420437 -0.079374135 0.7176733 4292202184
-0.040264476 -0.079374135 0.7176733 4292202184
-0.039115325 -0.079387955 0.71779829 4292201930
-0.037985601 -0.079443254 0.71829826 4292201930
-0.036860675 -0.079512373 0.71892321 4292201930
-0.035702698 -0.079512373 0.71892321 4292267723
-0.03455073 -0.079526193 0.7190482 4292267723
-0.033398356 -0.079540022 0.71917319 4292333516
-0.032239977 -0.079540022 0.71917319 4292465102
-0.031070797 -0.079512373 0.71892321 4292465102
-0.029907621 -0.079498552 0.71879822 4292465102
-0.02873485 -0.079457074 0.71842325 4292596688
-0.02757768 -0.079457074 0.71842325 4292662483
-0.026402121 -0.079401784 0.71792328 4292662483
-0.025223782 -0.079332672 0.71729839 4292728276
-0.024047455 -0.079263553 0.71667343 4292728276
-0.022893103 -0.079263553 0.71667343 4292859862
-0.021712214 -0.079166785 0.71579856 4292859862
-0.020530552 -0.079056196 0.71479863 4293057241
-0.019348724 -0.078931786 0.71367377 4292925655
-0.018186454 -0.078876495 0.71317381 4293122521
-0.01703774 -0.078876495 0.71317381 4293254107
-0.015869532 -0.078779735 0.71229893 4293254107
-0.014704143 -0.078682967 0.71142399 4293122521
0.011692413 -0.078959435 0.71392375 4293912035
0.012860321 -0.079070024 0.71492362 4293977828
0.014011856 -0.079070024 0.71492362 4293977828
0.015184596 -0.079180606 0.71592349 4293977828
0.016352002 -0.079249725 0.71654844 4293780449
0.017515313 -0.079291195 0.71692342 4294241000
0.018670067 -0.079291195 0.71692342 4294307308
0.019831734 -0.079318844 0.7171734 4294109929
0.020986892 -0.079318844 0.7171734 4293978862
0.022142049 -0.079318844 0.7171734 4293913069
0.023305325 -0.079346493 0.71742338 4294044657
0.024460884 -0.079346493 0.71742338 4294110450
0.025634293 -0.079401784 0.71792328 4294504184
0.026813982 -0.079470903 0.71854824 4294964735
0.027995681 -0.079540022 0.71917319 4294241012
0.029154059 -0.079540022 0.71917319 4294109426
0.030344043 -0.079622954 0.71992308 4294109167
0.031536445 -0.079705901 0.72067302 4294174960
0.032748275 -0.079830311 0.72179788 4294240753
0.0339696 -0.079968542 0.72304773 4294240753
