# .PCD v0.7 - Point Cloud Data file format
VERSION 0.7
FIELDS x y z rgba
SIZE 4 4 4 4
TYPE F F F U
COUNT 1 1 1 1
WIDTH 1015
HEIGHT 1
VIEWPOINT 0 0 0 1 0 0 0
POINTS 1015
DATA ascii
0.077849403 -0.051610015 0.40220702 4292006861
0.078643613 -0.051706247 0.40295696 4292072654
0.079464816 -0.051818512 0.40383187 4292006861
0.080338426 -0.051962849 0.40495673 4291941068
0.080990694 -0.051962849 0.40495673 4291875275
0.081920147 -0.052139271 0.4063316 4291941068
0.082879432 -0.052331723 0.40783143 4291941068
0.083843537 -0.052524175 0.40933126 4291941068
0.084812477 -0.052716635 0.41083112 4291941068
0.085812256 -0.052925128 0.41245595 4291875275
0.086843476 -0.053149659 0.41420576 4291809482
0.087510638 -0.053149659 0.41420576 4291743689
0.088417269 -0.053293996 0.41533062 4291743689
0.089381143 -0.053470418 0.41670549 4291480517
0.090133369 -0.053518526 0.41708043 4291414724
0.090832375 -0.053534567 0.41720542 4291151552
0.091504373 -0.053534567 0.41720542 4290889150
0.092231601 -0.053566642 0.4174554 4291020736
0.092959628 -0.053598721 0.41770539 4288717211
-0.034716126 -0.052688368 0.41583058 4290360498
-0.033944007 -0.052530002 0.4145807 4290426291
-0.033276241 -0.052530002 0.4145807 4290624183
-0.032736268 -0.052735876 0.41620553 4290821562
-0.032152552 -0.052878406 0.41733041 4291084734
-0.031555776 -0.053005099 0.41833031 4291084734
-0.030881971 -0.053005099 0.41833031 4291018939
-0.030199135 -0.052989263 0.41820532 4290821560
-0.02944611 -0.052846733 0.41708043 4291150525
-0.028774317 -0.052846733 0.41708043 4291282111
-0.027942512 -0.052545838 0.41470569 4291347391
-0.027093701 -0.05219743 0.41195598 4291347391
-0.026430158 -0.05219743 0.41195598 4291347391
-0.025633719 -0.051928211 0.40983123 4291413184
-0.024912672 -0.051801518 0.40883133 4291413184
-0.024217092 -0.051722337 0.4082064 4291413184
-0.023559587 -0.051722337 0.4082064 4291347391
-0.02288105 -0.051674824 0.40783143 4291413184
-0.022203719 -0.051627312 0.40745646 4291545283
-0.021540817 -0.051611479 0.4073315 4291479490
-0.020884724 -0.051611479 0.4073315 4291479490
-0.020178977 -0.051484786 0.4063316 4291545283
-0.019434409 -0.051247235 0.40445679 4291545283
-0.018782947 -0.051247235 0.40445679 4291479490
-0.018053042 -0.051025525 0.40270698 4291545285
-0.017350381 -0.050867155 0.4014571 4291479492
-0.016703751 -0.050867155 0.4014571 4291348676
-0.016032126 -0.050787974 0.40083218 4291414469
-0.015362514 -0.050708793 0.40020725 4291414469
-0.014708702 -0.050677117 0.39995727 4291480262
-0.014064489 -0.050677117 0.39995727 4291676869
-0.013403499 -0.050613772 0.39945734 4291676869
-0.012720165 -0.050455406 0.39820746 4291808196
-0.01207877 -0.050455406 0.39820746 4291808196
-0.011379935 -0.05020202 0.39620766 4291808196
-0.010701098 -0.050011981 0.39470783 4291808196
-0.010055777 -0.049964473 0.39433289 4291808196
-0.0094206221 -0.049964473 0.39433289 4291808196
-0.0087798974 -0.0499328 0.3940829 4291742916
-0.0081425617 -0.04991696 0.39395791 4291808709
-0.0075056283 -0.049901124 0.39383292 4291808709
-0.0068712779 -0.049901124 0.39383292 4291742916
-0.006234949 -0.049885288 0.39370793 4291742662
-0.0056008003 -0.049885288 0.39370793 4291742662
-0.0049650753 -0.049869452 0.39358294 4291940041
-0.0043297526 -0.049853615 0.39345798 4291940041
-0.003696007 -0.049853615 0.39345798 4291940041
-0.003061288 -0.049837779 0.39333299 4291940041
-0.0024262005 -0.049806107 0.39308301 4292071627
-0.0017902078 -0.049726922 0.39245808 4292005834
-0.0011580725 -0.049726922 0.39245808 4291940041
-0.00052442966 -0.049584392 0.39133319 4292005834
0.00010565715 -0.049473539 0.39045829 4292005836
0.00073457143 -0.049473539 0.39045829 4292071629
0.0013617399 -0.049410194 0.38995835 4292071629
0.0019885735 -0.049378518 0.38970837 4292137422
0.0026146015 -0.049346846 0.38945839 4292071627
0.0032419052 -0.049346846 0.38945839 4292203213
0.0038692092 -0.049346846 0.38945839 4292137420
0.0044950699 -0.049331006 0.3893334 4292071627
0.0051188837 -0.049299337 0.38908345 4292203213
0.0057437383 -0.049283501 0.38895845 4292269006
0.0063702362 -0.049283501 0.38895845 4292203213
0.0069922381 -0.049251825 0.38870847 4292137420
0.0076134349 -0.049220152 0.38845849 4292203213
0.0082285246 -0.049156807 0.38795856 4292203213
0.0088534122 -0.049156807 0.38795856 4292334286
0.0094660856 -0.049093459 0.38745859 4292465872
0.010080404 -0.04904595 0.38708365 4292465874
0.01069697 -0.049014274 0.38683367 4292531667
0.011320046 -0.049014274 0.38683367 4292597460
0.011939264 -0.048998438 0.38670868 4292597460
0.012541837 -0.048919257 0.38608375 4292597207
0.01314666 -0.048855912 0.38558382 4292597207
0.013767723 -0.048855912 0.38558382 4292859860
0.014356138 -0.048745055 0.38470891 4292859860
0.014951464 -0.04866587 0.38408396 4292728274
0.015570111 -0.04866587 0.38408396 4292728274
0.01618349 -0.048650037 0.383959 4292597458
0.016790997 -0.048618361 0.38370901 4292465872
0.01740337 -0.048602525 0.38358402 4292466385
0.018015338 -0.048586689 0.38345903 4292269006
0.01863298 -0.048586689 0.38345903 4292400592
0.019244345 -0.048570849 0.38333404 4292532178
0.019855309 -0.048555013 0.38320905 4292531665
0.020472547 -0.048555013 0.38320905 4292531665
0.021089785 -0.048555013 0.38320905 4292597458
0.021707023 -0.048555013 0.38320905 4292597458
0.02232426 -0.048555013 0.38320905 4292794067
0.022926535 -0.048523344 0.3829591 4292728274
0.023543369 -0.048523344 0.3829591 4292728274
0.024160206 -0.048523344 0.3829591 4292728274
0.02477704 -0.048523344 0.3829591 4292859347
0.025393877 -0.048523344 0.3829591 4292925140
0.026010711 -0.048523344 0.3829591 4292990933
0.026636237 -0.04853918 0.38308409 4292990933
0.027253272 -0.04853918 0.38308409 4292794067
0.027861217 -0.048523344 0.3829591 4292794067
0.028478052 -0.048523344 0.3829591 4292729044
0.029094886 -0.048523344 0.3829591 4292663251
0.029711723 -0.048523344 0.3829591 4292729557
0.030328557 -0.048523344 0.3829591 4292663764
0.030945394 -0.048523344 0.3829591 4292729811
0.031562228 -0.048523344 0.3829591 4292664018
0.032179065 -0.048523344 0.3829591 4292598225
0.032785196 -0.048507504 0.38283411 4292664018
0.033401828 -0.048507504 0.38283411 4292597971
0.034029569 -0.048523344 0.3829591 4292597971
0.034646403 -0.048523344 0.3829591 4292467155
0.03526324 -0.048523344 0.3829591 4292401362
0.035880074 -0.048523344 0.3829591 4292992729
0.036508821 -0.04853918 0.38308409 4292861143
0.037150085 -0.048570849 0.38333404 4292663764
0.037767522 -0.048570849 0.38333404 4292663764
0.038409993 -0.048602525 0.38358402 4292729557
0.039065987 -0.048650037 0.383959 4292663764
0.039736103 -0.048713382 0.38445893 4292663764
0.040407833 -0.048776727 0.38495886 4292663764
0.041027889 -0.048776727 0.38495886 4292663766
0.04167499 -0.0488084 0.38520885 4292663766
0.04233662 -0.048855912 0.38558382 4292663766
0.042985529 -0.048887581 0.38583377 4292597973
0.043621119 -0.048903421 0.38595876 4292729559
0.044242788 -0.048903421 0.38595876 4292861145
0.044893514 -0.048935093 0.38620874 4292729559
0.045530312 -0.048950929 0.38633373 4292729559
0.046167519 -0.048966769 0.38645872 4292729559
0.046789989 -0.048966769 0.38645872 4292729559
0.047443125 -0.048998438 0.38670868 4292729046
0.048066001 -0.048998438 0.38670868 4292729046
0.048704613 -0.049014274 0.38683367 4292729044
0.049343627 -0.049030114 0.38695866 4292663251
0.049966905 -0.049030114 0.38695866 4292794837
0.05059018 -0.049030114 0.38695866 4292729044
0.051246542 -0.049061786 0.38720864 4292729044
0.051886968 -0.049077623 0.38733363 4292729044
0.05251085 -0.049077623 0.38733363 4292794067
0.053151876 -0.049093459 0.38745859 4292925653
0.0537933 -0.049109295 0.38758358 4292794069
0.054435138 -0.049125131 0.38770857 4292859862
0.055077374 -0.049140967 0.38783357 4292597460
0.05570206 -0.049140967 0.38783357 4292531667
0.05636305 -0.049172644 0.38808355 4292465874
0.057024844 -0.049204312 0.3883335 4292465874
0.057706002 -0.049251825 0.38870847 4292466387
0.058407124 -0.049315169 0.38920841 4292597973
0.059034027 -0.049315169 0.38920841 4292335571
0.059737559 -0.049378518 0.38970837 4292335571
0.060442708 -0.049441863 0.3902083 4292269778
0.061149471 -0.049505211 0.39070827 4292138192
0.061857838 -0.049568556 0.3912082 4292335569
0.06248796 -0.049568556 0.3912082 4292269776
0.063198745 -0.049631905 0.39170817 4292335569
0.063931502 -0.049711086 0.39233309 4292138190
0.064625144 -0.049758594 0.39270803 4292138190
0.065257683 -0.049758594 0.39270803 4292138190
0.065995075 -0.049837779 0.39333299 4292335826
0.066755652 -0.0499328 0.3940829 4292204240
0.067518644 -0.050027817 0.39483282 4292270033
0.06828405 -0.050122838 0.39558274 4292270033
0.069051877 -0.050217856 0.39633265 4292270033
0.06969025 -0.050217856 0.39633265 4292270033
0.070461698 -0.050312877 0.39708257 4292204242
0.071235567 -0.050407898 0.39783251 4292270035
0.071989268 -0.050487079 0.39845744 4292335569
0.07274498 -0.050566263 0.39908236 4292269776
0.073387779 -0.050566263 0.39908236 4292269776
0.074146509 -0.050645445 0.39970729 4292072397
0.074907258 -0.050724629 0.40033224 4292006604
0.07564643 -0.050787974 0.40083218 4292072397
0.076411001 -0.050867155 0.4014571 4292072397
0.077057622 -0.050867155 0.4014571 4292138190
0.077849403 -0.050962176 0.40220702 4292138190
0.078643613 -0.051057197 0.40295696 4292138190
0.079464816 -0.051168054 0.40383187 4292072397
0.080338426 -0.05131058 0.40495673 4292072397
0.080990694 -0.05131058 0.40495673 4292006604
0.081920147 -0.051484786 0.4063316 4292006604
0.082879432 -0.051674824 0.40783143 4291875275
0.083843537 -0.051864862 0.40933126 4291875275
0.084812477 -0.052054904 0.41083112 4291941068
0.085812256 -0.052260779 0.41245595 4291875275
0.086843476 -0.052482493 0.41420576 4291875275
0.087510638 -0.052482493 0.41420576 4291743689
0.088417269 -0.052625019 0.41533062 4291743689
0.089381143 -0.052799225 0.41670549 4291546310
0.090133369 -0.052846733 0.41708043 4291480517
0.090832375 -0.05286257 0.41720542 4291151552
0.091504373 -0.05286257 0.41720542 4290889404
0.092231601 -0.052894242 0.4174554 4290889404
0.092959628 -0.052925918 0.41770539 4290297267
-0.034048304 -0.051017933 0.40783143 4290426291
-0.033391405 -0.051017933 0.40783143 4290623670
-0.033175919 -0.051705886 0.41333085 4290755769
-0.032637965 -0.051909145 0.41495568 4290821562
-0.032123663 -0.052159306 0.41695544 4291018941
-0.031518064 -0.052268755 0.41783035 4291018941
-0.030845063 -0.052268755 0.41783035 4291084732
-0.030172057 -0.052268755 0.41783035 4291084732
-0.02940199 -0.052096765 0.41645551 4291150525
-0.028731203 -0.052096765 0.41645551 4291216318
-0.02787514 -0.051752791 0.4137058 4291347393
-0.027027939 -0.051408812 0.41095608 4291413186
-0.026366007 -0.051408812 0.41095608 4291347393
-0.025578996 -0.051158652 0.40895632 4291413186
-0.024874592 -0.051064838 0.4082064 4291544772
-0.024217092 -0.051064838 0.4082064 4291413186
-0.023523519 -0.050986659 0.40758145 4291347393
-0.022867024 -0.050986659 0.40758145 4291413186
-0.022203719 -0.050971024 0.40745646 4291610565
-0.021547426 -0.050971024 0.40745646 4291413186
-0.020891132 -0.050971024 0.40745646 4291544772
-0.020185184 -0.050845947 0.40645659 4291610565
-0.019428404 -0.050580144 0.4043318 4291610565
-0.018777143 -0.050580144 0.4043318 4291413186
-0.018036233 -0.05032998 0.40233201 4291545285
-0.017334176 -0.050173629 0.40108216 4291545285
-0.016688151 -0.050173629 0.40108216 4291545285
-0.016017128 -0.05009545 0.4004572 4291545285
-0.015348121 -0.050017271 0.39983228 4291611076
-0.014685721 -0.049954735 0.39933234 4291676869
-0.014042513 -0.049954735 0.39933234 4291807942
-0.013378337 -0.04987656 0.39870742 4291742149
-0.01271218 -0.049782742 0.39795747 4291808196
-0.012071187 -0.049782742 0.39795747 4291808196
-0.011369165 -0.049516946 0.39583272 4291808196
-0.01069432 -0.049344957 0.39445785 4291873989
-0.010049403 -0.049298052 0.3940829 4291808196
-0.0094146505 -0.049298052 0.3940829 4291808196
-0.008774328 -0.049266778 0.39383292 4291808196
-0.0081399782 -0.049266778 0.39383292 4292005575
-0.0075032464 -0.049251143 0.39370793 4292005575
-0.0068690972 -0.049251143 0.39370793 4291808196
-0.006234949 -0.049251143 0.39370793 4291873989
-0.0055990219 -0.049235508 0.39358294 4291873989
-0.0049634986 -0.049219877 0.39345798 4292005575
-0.0043283771 -0.049204241 0.39333299 4292071368
-0.0036948328 -0.049204241 0.39333299 4292071114
-0.0030603153 -0.049188603 0.393208 4292071114
-0.0024254292 -0.049157333 0.39295802 4292136907
-0.0017890675 -0.049063522 0.3922081 4292136907
-0.0011573348 -0.049063522 0.3922081 4292137420
-0.00052409462 -0.048922803 0.39108321 4292005834
0.0001055895 -0.048813354 0.3902083 4292268493
0.00073410117 -0.048813354 0.3902083 4292202700
0.0013608671 -0.048750818 0.38970837 4292136907
0.0019872978 -0.048719544 0.38945839 4292136907
0.0026137624 -0.048703909 0.3893334 4292202700
0.003240865 -0.048703909 0.3893334 4292268493
0.0038667256 -0.048688274 0.38920841 4292268493
0.0044921837 -0.048672643 0.38908345 4292202700
0.0051172394 -0.048657004 0.38895845 4292268493
0.0057437383 -0.048657004 0.38895845 4292268493
0.0063661421 -0.048625734 0.38870847 4292268493
0.0069877412 -0.048594464 0.38845849 4292268493
0.0076060863 -0.048547558 0.38808355 4292268493
0.0082285246 -0.048531923 0.38795856 4292268493
0.0088448552 -0.048485015 0.38758358 4292465102
0.0094569251 -0.048422474 0.38708365 4292465102
0.010070639 -0.048375569 0.38670868 4292334288
0.010693514 -0.048375569 0.38670868 4292531667
0.01130176 -0.048313029 0.38620874 4292597207
0.01191997 -0.048297394 0.38608375 4292597207
0.012525598 -0.048234854 0.38558382 4292597207
0.01314666 -0.048234854 0.38558382 4292531414
0.013745408 -0.048156675 0.38495886 4292728276
0.01434681 -0.048094135 0.38445893 4292728276
0.014946599 -0.048031595 0.383959 4292728274
0.015565045 -0.048031595 0.383959 4292728274
0.016172955 -0.048000325 0.38370901 4292729044
0.016780058 -0.047969051 0.38345903 4292465872
0.017392028 -0.047953416 0.38333404 4292334286
0.018003594 -0.047937781 0.38320905 4292334286
0.018620834 -0.047937781 0.38320905 4292531665
0.019225523 -0.047906511 0.3829591 4292531665
0.019842358 -0.047906511 0.3829591 4292597458
0.020459194 -0.047906511 0.3829591 4292597458
0.021076027 -0.047906511 0.3829591 4292663251
0.021685783 -0.047890875 0.38283411 4292597458
0.022302419 -0.047890875 0.38283411 4292728274
0.022911569 -0.04787524 0.38270912 4292794067
0.023528002 -0.04787524 0.38270912 4292728274
0.024144435 -0.04787524 0.38270912 4292728274
0.024760867 -0.04787524 0.38270912 4292794067
0.0253773 -0.04787524 0.38270912 4292859860
0.026002221 -0.047890875 0.38283411 4292859860
0.026627546 -0.047906511 0.3829591 4292859860
0.02724438 -0.047906511 0.3829591 4292794067
0.027852124 -0.047890875 0.38283411 4292859860
0.028468758 -0.047890875 0.38283411 4292729046
0.02908539 -0.047890875 0.38283411 4292663253
0.029702026 -0.047890875 0.38283411 4292663764
0.030318659 -0.047890875 0.38283411 4292663764
0.030935293 -0.047890875 0.38283411 4292729557
0.031551927 -0.047890875 0.38283411 4292532178
0.03216856 -0.047890875 0.38283411 4292729557
0.032785196 -0.047890875 0.38283411 4292597971
0.033401828 -0.047890875 0.38283411 4292467155
0.034018464 -0.047890875 0.38283411 4292467155
0.034635097 -0.047890875 0.38283411 4292598741
0.035251733 -0.047890875 0.38283411 4292467155
0.035880074 -0.047906511 0.3829591 4292532948
0.036496911 -0.047906511 0.3829591 4292532948
0.03713797 -0.047937781 0.38320905 4292597971
0.037755206 -0.047937781 0.38320905 4292663764
0.03839748 -0.047969051 0.38345903 4292598743
0.039053269 -0.04801596 0.383834 4292401364
0.039723184 -0.0480785 0.38433394 4292532950
0.040394712 -0.048141036 0.38483387 4292730329
0.041014567 -0.048141036 0.38483387 4292532180
0.041661467 -0.04817231 0.38508385 4292861145
0.042322896 -0.048219215 0.38545883 4292861145
0.042957682 -0.048234854 0.38558382 4292729559
0.043606993 -0.04826612 0.38583377 4292860892
0.044228461 -0.04826612 0.38583377 4292860892
0.044864457 -0.048281755 0.38595876 4292861145
0.045515582 -0.048313029 0.38620874 4292992731
0.046152584 -0.048328664 0.38633373 4292729046
0.046774853 -0.048328664 0.38633373 4292663253
0.047412463 -0.048344299 0.38645872 4292794839
0.048050463 -0.048359931 0.38658369 4292926425
0.048673138 -0.048359931 0.38658369 4293057239
0.049311753 -0.048375569 0.38670868 4292925653
0.049934629 -0.048375569 0.38670868 4292926423
0.050573841 -0.048391204 0.38683367 4292729044
0.051213458 -0.048406839 0.38695866 4292729044
0.051853482 -0.048422474 0.38708365 4292729044
0.052476961 -0.048422474 0.38708365 4292794067
0.053117588 -0.048438109 0.38720864 4292925653
0.05375861 -0.048453748 0.38733363 4292859862
0.054400038 -0.04846938 0.38745859 4293057241
0.055041872 -0.048485015 0.38758358 4292859862
0.055666156 -0.048485015 0.38758358 4292728276
0.05630859 -0.04850065 0.38770857 4292597458
0.056969784 -0.048531923 0.38795856 4292531665
0.057650335 -0.048578825 0.3883335 4292466385
0.05827583 -0.048578825 0.3883335 4292466385
0.058958199 -0.048625734 0.38870847 4292269778
0.059660923 -0.048688274 0.38920841 4292269778
0.060365267 -0.048750818 0.38970837 4292138192
0.061090782 -0.048828993 0.39033329 4292138192
0.061719496 -0.048828993 0.39033329 4292269776
0.062428072 -0.048891533 0.39083326 4292269776
0.063138247 -0.048954073 0.39133319 4292269776
0.0638704 -0.049032249 0.39195812 4292269776
0.064584009 -0.049094792 0.39245808 4292138190
0.065216146 -0.049094792 0.39245808 4292138190
0.065974101 -0.049188603 0.393208 4292270033
0.066713303 -0.049266778 0.39383292 4292072654
0.067475893 -0.049360592 0.39458284 4292204242
0.068240903 -0.049454402 0.39533275 4292072656
0.069008328 -0.049548216 0.3960827 4292139219
0.069646299 -0.049548216 0.3960827 4292205012
0.070417345 -0.049642026 0.39683262 4292270035
0.071190804 -0.04973584 0.39758253 4292270035
0.071966685 -0.049829651 0.39833245 4292270035
0.072722197 -0.049907826 0.39895737 4292204242
0.073364794 -0.049907826 0.39895737 4292204242
0.074123323 -0.049986001 0.3995823 4292072656
0.074883871 -0.05006418 0.40020725 4291941068
0.075622842 -0.05012672 0.40070719 4292072654
0.076411001 -0.05022053 0.4014571 4292006861
0.077057622 -0.05022053 0.4014571 4292072654
0.077801026 -0.050283074 0.40195706 4292138190
0.078594819 -0.050376885 0.40270698 4292138190
0.079415627 -0.050486334 0.40358189 4292006604
0.080288842 -0.050627053 0.40470678 4292072397
0.080940709 -0.050627053 0.40470678 4292006604
0.081844553 -0.050783403 0.40595663 4292006604
0.082777835 -0.050955392 0.4073315 4291941070
0.083715536 -0.051127378 0.40870634 4291875277
0.084657662 -0.051299367 0.41008118 4291744461
0.085604228 -0.051471356 0.41145605 4291744461
0.086266965 -0.051471356 0.41145605 4291810254
0.087193757 -0.051627707 0.4127059 4291612875
0.088177808 -0.051815331 0.41420576 4291481287
0.089113057 -0.051971685 0.41545561 4291481287
0.090025328 -0.052112401 0.4165805 4291546310
0.090832375 -0.052190576 0.41720542 4291348931
0.091504373 -0.052190576 0.41720542 4291283392
0.09217637 -0.052190576 0.41720542 4291020220
0.092959628 -0.05225312 0.41770539 4291349185
-0.033975262 -0.050252996 0.40695652 4290558390
-0.033319771 -0.050252996 0.40695652 4290689976
-0.033145823 -0.050993826 0.41295588 4290821560
-0.032618303 -0.051209901 0.41470569 4290821560
-0.032085143 -0.051425979 0.41645551 4290755767
-0.031508636 -0.051580317 0.41770539 4290887353
-0.030835837 -0.051580317 0.41770539 4291084732
-0.030154008 -0.051564883 0.4175804 4291150525
-0.029384341 -0.051395107 0.41620553 4291150525
-0.028713956 -0.051395107 0.41620553 4291282111
-0.027866719 -0.051070996 0.41358081 4291282113
-0.026995059 -0.050685145 0.41045615 4291216320
-0.026333932 -0.050685145 0.41045615 4291282113
-0.025539907 -0.050422769 0.40833136 4291479492
-0.024836509 -0.050330166 0.40758145 4291479492
-0.024180016 -0.050330166 0.40758145 4291479492
-0.023494665 -0.05026843 0.40708151 4291544772
-0.022838976 -0.05026843 0.40708151 4291544772
-0.022183286 -0.05026843 0.40708151 4291610565
-0.021527598 -0.05026843 0.40708151 4291544772
-0.0208655 -0.050252996 0.40695652 4291610565
-0.020185184 -0.050191261 0.40645659 4291676358
-0.019392371 -0.049836278 0.40358189 4291676358
-0.018742317 -0.049836278 0.40358189 4291610565
-0.018019425 -0.049635638 0.40195706 4291610565
-0.01731257 -0.049465861 0.40058219 4291742151
-0.016667349 -0.049465861 0.40058219 4291610565
-0.015997132 -0.049388692 0.39995727 4291676358
-0.015333728 -0.04932696 0.39945734 4291742149
-0.014671931 -0.049265221 0.39895737 4291742149
-0.014029328 -0.049265221 0.39895737 4291742149
-0.013357366 -0.049157184 0.39808246 4291742149
-0.01269621 -0.049080014 0.39745754 4291808196
-0.012056022 -0.049080014 0.39745754 4291808196
-0.011358395 -0.048833068 0.39545774 4291873989
-0.010687543 -0.048678733 0.39420789 4291873989
-0.010046215 -0.048647862 0.39395791 4291808196
-0.0094116637 -0.048647862 0.39395791 4291742403
-0.0087715425 -0.048616994 0.39370793 4291873989
-0.0081373947 -0.048616994 0.39370793 4292005575
-0.0075008641 -0.04860156 0.39358294 4291873989
-0.0068669165 -0.04860156 0.39358294 4291873989
-0.0062309904 -0.04858613 0.39345798 4292136391
-0.0055954666 -0.048570693 0.39333299 4292004805
-0.0049603451 -0.048555259 0.393208 4292202184
-0.004327002 -0.048555259 0.393208 4292202184
-0.0036936586 -0.048555259 0.393208 4292071368
-0.0030583697 -0.048524391 0.39295802 4292071368
-0.0024238862 -0.048493523 0.39270803 4292136907
-0.0017890675 -0.048431788 0.3922081 4292136907
-0.0011565972 -0.04840092 0.39195812 4292268493
-0.00052392716 -0.048277445 0.39095822 4292136907
0.00010552187 -0.048153978 0.38995835 4292334286
0.00073363091 -0.048153978 0.38995835 4292202700
0.0013599941 -0.048092239 0.38945839 4292268493
0.0019866601 -0.048076805 0.3893334 4292268493
0.0026129233 -0.048061371 0.38920841 4292268493
0.0032398244 -0.048061371 0.38920841 4291873735
0.0038642425 -0.048030507 0.38895845 4292202954
0.0044907406 -0.048030507 0.38895845 4292268747
0.0051155952 -0.048015069 0.38883346 4292268493
0.0057418924 -0.048015069 0.38883346 4292268493
0.006364095 -0.047984201 0.38858348 4292268493
0.0069854925 -0.047953334 0.3883335 4292268493
0.0076036365 -0.047907032 0.38795856 4292268493
0.0082285246 -0.047907032 0.38795856 4292334286
0.0088362982 -0.047814429 0.38720864 4292465872
0.0094477646 -0.047752693 0.38670868 4292465872
0.01005762 -0.047690958 0.38620874 4292334288
0.010679689 -0.047690958 0.38620874 4292531667
0.011294444 -0.04766009 0.38595876 4292531667
0.011908392 -0.047629219 0.38570878 4292597460
0.012513417 -0.047567487 0.38520885 4292531667
0.013133875 -0.047567487 0.38520885 4292465874
0.013736484 -0.047505751 0.38470891 4292531667
0.014337481 -0.047444012 0.38420895 4292597460
0.014936868 -0.04738228 0.38370901 4292597460
0.015554911 -0.04738228 0.38370901 4292597460
0.016162418 -0.047351409 0.38345903 4292729044
0.016774589 -0.047335975 0.38333404 4292663251
0.017386356 -0.047320541 0.38320905 4292729044
0.018003594 -0.047320541 0.38320905 4292531665
0.018608687 -0.047289677 0.3829591 4292597458
0.019219248 -0.047274239 0.38283411 4292531665
0.019829405 -0.047258805 0.38270912 4292597460
0.020445839 -0.047258805 0.38270912 4292663253
0.02106227 -0.047258805 0.38270912 4292729046
0.021678703 -0.047258805 0.38270912 4292663253
0.022287855 -0.047243372 0.38258412 4292663251
0.022904087 -0.047243372 0.38258412 4292729044
0.023520317 -0.047243372 0.38258412 4292597458
0.024136551 -0.047243372 0.38258412 4292729044
0.024752779 -0.047243372 0.38258412 4292729044
0.0253773 -0.047258805 0.38270912 4292729044
0.025993731 -0.047258805 0.38270912 4292925653
0.026610166 -0.047258805 0.38270912 4292925653
0.027226595 -0.047258805 0.38270912 4292663251
0.02784303 -0.047258805 0.38270912 4292663251
0.028459463 -0.047258805 0.38270912 4292663253
0.029075895 -0.047258805 0.38270912 4292597460
0.029692329 -0.047258805 0.38270912 4292729559
0.030308759 -0.047258805 0.38270912 4292597973
0.030925194 -0.047258805 0.38270912 4292663764
0.031541623 -0.047258805 0.38270912 4292597971
0.032158058 -0.047258805 0.38270912 4292729559
0.032774493 -0.047258805 0.38270912 4292663766
0.033390924 -0.047258805 0.38270912 4292467157
0.034007356 -0.047258805 0.38270912 4292467157
0.034623787 -0.047258805 0.38270912 4292467157
0.035240222 -0.047258805 0.38270912 4292401364
0.035868365 -0.047274239 0.38283411 4292993501
0.036496911 -0.047289677 0.3829591 4292532950
0.037125859 -0.047305111 0.38308409 4292532950
0.037742894 -0.047305111 0.38308409 4292532950
0.038384963 -0.047335975 0.38333404 4292532950
0.039040551 -0.04738228 0.38370901 4292401364
0.039710268 -0.047444012 0.38420895 4292598743
0.040381595 -0.047505751 0.38470891 4293059294
0.041001249 -0.047505751 0.38470891 4292796122
0.041647945 -0.047536615 0.38495886 4292796122
0.042295448 -0.047567487 0.38520885 4292861145
0.042943757 -0.047598355 0.38545883 4292926938
0.043592867 -0.047629219 0.38570878 4292926685
0.044214133 -0.047629219 0.38570878 4292926685
0.044849928 -0.047644652 0.38583377 4292926938
0.045486122 -0.04766009 0.38595876 4293124317
0.046137653 -0.047690958 0.38620874 4293254618
0.046759721 -0.047690958 0.38620874 4292925653
0.047397126 -0.047706392 0.38633373 4293057239
0.048019394 -0.047706392 0.38633373 4293188825
0.048657406 -0.047721826 0.38645872 4293188825
0.04927988 -0.047721826 0.38645872 4293057239
0.049902353 -0.047721826 0.38645872 4293057239
0.050541155 -0.047737256 0.38658369 4292925653
0.051180374 -0.047752693 0.38670868 4292925653
0.051819995 -0.047768127 0.38683367 4292925653
0.052443072 -0.047768127 0.38683367 4292925653
0.053083293 -0.047783561 0.38695866 4292925653
0.053723916 -0.047798995 0.38708365 4292859862
0.054364946 -0.047814429 0.38720864 4293057241
0.055024121 -0.047845297 0.38745859 4292859862
0.055648204 -0.047845297 0.38745859 4292859862
0.056290437 -0.04786073 0.38758358 4292729044
0.056933075 -0.047876164 0.38770857 4292663251
0.057613231 -0.047922466 0.38808355 4292532178
0.05823832 -0.047922466 0.38808355 4292400592
0.058920283 -0.047968768 0.38845849 4292335569
0.059603449 -0.048015069 0.38883346 4292269776
0.060307186 -0.048076805 0.3893334 4292269776
0.06101254 -0.048138544 0.38983336 4292138190
0.061640449 -0.048138544 0.38983336 4292335569
0.062368177 -0.048215713 0.39045829 4292335569
0.063077748 -0.048277445 0.39095822 4292269776
0.063809305 -0.048354618 0.39158317 4292269776
0.064542875 -0.048431788 0.3922081 4292401362
0.065174602 -0.048431788 0.3922081 4292269776
0.065911189 -0.048508957 0.39283302 4292335569
0.066670962 -0.04860156 0.39358294 4292138190
0.067433149 -0.048694167 0.39433289 4292204240
0.068197757 -0.048786771 0.3950828 4291941068
0.068964779 -0.048879374 0.39583272 4291876047
0.06960234 -0.048879374 0.39583272 4292073426
0.070372984 -0.048971977 0.39658263 4291941840
0.071146049 -0.04906458 0.39733255 4292073426
0.07192152 -0.049157184 0.39808246 4292203989
0.072676636 -0.049234357 0.39870742 4292072403
0.073318832 -0.049234357 0.39870742 4292072403
0.074100144 -0.04932696 0.39945734 4292203989
0.074860483 -0.049404129 0.40008226 4292006863
0.075622842 -0.049481295 0.40070719 4292072656
0.076387212 -0.049558464 0.40133211 4291941070
0.077033632 -0.049558464 0.40133211 4292006863
0.077801026 -0.049635638 0.40195706 4292006863
0.078570426 -0.049712807 0.40258199 4292006863
0.079391032 -0.049820844 0.4034569 4292006863
0.080239244 -0.049944315 0.40445679 4291941070
0.080890708 -0.049944315 0.40445679 4291941070
0.08179415 -0.050098654 0.40570664 4291875277
0.082701631 -0.050252996 0.40695652 4291941070
0.083613135 -0.050407335 0.4082064 4291743691
0.084528647 -0.050561674 0.40945625 4291744461
0.085396193 -0.050685145 0.41045615 4291744461
0.08605732 -0.050685145 0.41045615 4291810254
0.086956106 -0.050824054 0.41158104 4291744461
0.087911725 -0.050993826 0.41295588 4291481287
0.08884497 -0.051148169 0.41420576 4291481287
0.089782231 -0.051302504 0.41545561 4291546310
0.09069632 -0.051441412 0.4165805 4291348931
0.091367312 -0.051441412 0.4165805 4291151806
0.092148751 -0.051503144 0.41708043 4290954427
0.092931807 -0.051564883 0.4175804 4291348931
-0.033975262 -0.049597505 0.40695652 4290558388
-0.033319771 -0.049597505 0.40695652 4290689974
-0.033145823 -0.050328672 0.41295588 4290821814
-0.032618303 -0.05054193 0.41470569 4290821814
-0.032085143 -0.050755188 0.41645551 4290887607
-0.031508636 -0.050907515 0.41770539 4291019193
-0.030835837 -0.050907515 0.41770539 4291084986
-0.030154008 -0.050892282 0.4175804 4291150779
-0.029384341 -0.050724722 0.41620553 4291150525
-0.028713956 -0.050724722 0.41620553 4291216318
-0.027866719 -0.050404835 0.41358081 4291282113
-0.026995059 -0.050024021 0.41045615 4291216320
-0.026333932 -0.050024021 0.41045615 4291084734
-0.025539907 -0.049765065 0.40833136 4291282113
-0.024836509 -0.049673669 0.40758145 4291479492
-0.024180016 -0.049673669 0.40758145 4291347906
-0.023494665 -0.049612738 0.40708151 4291347906
-0.022838976 -0.049612738 0.40708151 4291479492
-0.022183286 -0.049612738 0.40708151 4291544772
-0.021527598 -0.049612738 0.40708151 4291544772
-0.0208655 -0.049597505 0.40695652 4291676358
-0.020203805 -0.049582273 0.40683153 4291676358
-0.019392371 -0.049186226 0.40358189 4291676358
-0.018742317 -0.049186226 0.40358189 4291610565
-0.018019425 -0.048988201 0.40195706 4291872965
-0.01731257 -0.048820641 0.40058219 4291938758
-0.016667349 -0.048820641 0.40058219 4291807172
-0.015997132 -0.048744477 0.39995727 4291807172
-0.015333728 -0.04868355 0.39945734 4291872965
-0.014671931 -0.048622616 0.39895737 4291872965
-0.014029328 -0.048622616 0.39895737 4291872965
-0.013357366 -0.048515987 0.39808246 4291872965
-0.01269621 -0.048439827 0.39745754 4292004551
-0.012056022 -0.048439827 0.39745754 4292004551
-0.011358395 -0.0481961 0.39545774 4291939012
-0.010687543 -0.048043776 0.39420789 4291939012
-0.010046215 -0.048013311 0.39395791 4291742149
-0.0094116637 -0.048013311 0.39395791 4291742149
-0.0087715425 -0.047982845 0.39370793 4291807942
-0.0081373947 -0.047982845 0.39370793 4291873735
-0.0075008641 -0.047967613 0.39358294 4292005321
-0.0068669165 -0.047967613 0.39358294 4291873735
-0.0062309904 -0.04795238 0.39345798 4292071114
-0.0055954666 -0.047937147 0.39333299 4292005321
-0.0049603451 -0.047921915 0.393208 4291873989
-0.004327002 -0.047921915 0.393208 4291873989
-0.0036936586 -0.047921915 0.393208 4292005575
-0.0030583697 -0.047891449 0.39295802 4292005575
-0.0024238862 -0.047860984 0.39270803 4292071368
-0.001791348 -0.047860984 0.39270803 4292137161
-0.0011565972 -0.047769587 0.39195812 4292334286
-0.00052392716 -0.047647726 0.39095822 4292071114
0.00010552187 -0.047525868 0.38995835 4292203213
0.00073363091 -0.047525868 0.38995835 4292137420
0.0013599941 -0.047464933 0.38945839 4292137420
0.0019866601 -0.047449701 0.3893334 4292137420
0.0026129233 -0.047434468 0.38920841 4292268493
0.0032398244 -0.047434468 0.38920841 4292202700
0.0038642425 -0.047404006 0.38895845 4292268747
0.0044907406 -0.047404006 0.38895845 4292202954
0.0051155952 -0.047388773 0.38883346 4292399563
0.0057418924 -0.047388773 0.38883346 4292465356
0.006364095 -0.047358304 0.38858348 4292399309
0.0069854925 -0.047327839 0.3883335 4292399309
0.0076036365 -0.047282144 0.38795856 4292202700
0.0082285246 -0.047282144 0.38795856 4292268493
0.0088362982 -0.047190748 0.38720864 4292465872
0.0094477646 -0.047129817 0.38670868 4292334286
0.01005762 -0.047068886 0.38620874 4292334288
0.010679689 -0.047068886 0.38620874 4292334288
0.011294444 -0.047038421 0.38595876 4292465874
0.011908392 -0.047007956 0.38570878 4292597460
0.012513417 -0.046947025 0.38520885 4292531667
0.013133875 -0.046947025 0.38520885 4292465874
0.013736484 -0.046886098 0.38470891 4292531667
0.014337481 -0.046825163 0.38420895 4292597460
0.014936868 -0.046764236 0.38370901 4292663253
0.015554911 -0.046764236 0.38370901 4292531667
0.016162418 -0.046733767 0.38345903 4292597460
0.016774589 -0.046718534 0.38333404 4292729046
0.017386356 -0.046703301 0.38320905 4292729046
0.018003594 -0.046703301 0.38320905 4292597460
0.018608687 -0.04667284 0.3829591 4292597460
0.019219248 -0.046657607 0.38283411 4292663253
0.019829405 -0.046642371 0.38270912 4292597460
0.020445839 -0.046642371 0.38270912 4292663253
0.02106227 -0.046642371 0.38270912 4292729046
0.021678703 -0.046642371 0.38270912 4292597460
0.022287855 -0.046627138 0.38258412 4292663251
0.022904087 -0.046627138 0.38258412 4292531665
0.023520317 -0.046627138 0.38258412 4292729298
0.024136551 -0.046627138 0.38258412 4292729298
0.024752779 -0.046627138 0.38258412 4292794837
0.0253773 -0.046642371 0.38270912 4292597458
0.025993731 -0.046642371 0.38270912 4293057239
0.026610166 -0.046642371 0.38270912 4292925653
0.027226595 -0.046642371 0.38270912 4292859860
0.02784303 -0.046642371 0.38270912 4292859860
0.028459463 -0.046642371 0.38270912 4292729044
0.029075895 -0.046642371 0.38270912 4292597458
0.029692329 -0.046642371 0.38270912 4292729559
0.030308759 -0.046642371 0.38270912 4292597973
0.030925194 -0.046642371 0.38270912 4292597971
0.031541623 -0.046642371 0.38270912 4292597971
0.032158058 -0.046642371 0.38270912 4292729557
0.032774493 -0.046642371 0.38270912 4292729557
0.033390924 -0.046642371 0.38270912 4292532950
0.034007356 -0.046642371 0.38270912 4292532950
0.034623787 -0.046642371 0.38270912 4292467157
0.035240222 -0.046642371 0.38270912 4292467157
0.035868365 -0.046657607 0.38283411 4292730329
0.036496911 -0.04667284 0.3829591 4292598743
0.037125859 -0.046688072 0.38308409 4292401364
0.037742894 -0.046688072 0.38308409 4292138192
0.038372446 -0.046703301 0.38320905 4292796122
0.039040551 -0.046764236 0.38370901 4293717224
0.039697349 -0.04680993 0.38408396 4292598743
0.040368475 -0.046870861 0.38458392 4292861915
0.040987927 -0.046870861 0.38458392 4292861145
0.041634422 -0.046901327 0.38483387 4292926938
0.042281725 -0.046931792 0.38508385 4292926685
0.042929832 -0.046962257 0.38533384 4292992478
0.043578744 -0.046992723 0.38558382 4292926685
0.044199809 -0.046992723 0.38558382 4292860892
0.0448354 -0.047007956 0.38570878 4292926425
0.045486122 -0.047038421 0.38595876 4293058011
0.046107791 -0.047038421 0.38595876 4293188825
0.046729457 -0.047038421 0.38595876 4293188825
0.047381792 -0.047068886 0.38620874 4293057239
0.04800386 -0.047068886 0.38620874 4293123032
0.048641667 -0.047084119 0.38633373 4293123032
0.049263939 -0.047084119 0.38633373 4293188825
0.049886212 -0.047084119 0.38633373 4293123032
0.05052482 -0.047099352 0.38645872 4292925653
0.05116383 -0.047114581 0.38658369 4292925653
0.05180325 -0.047129817 0.38670868 4293057239
0.052426126 -0.047129817 0.38670868 4293057239
0.053066149 -0.04714505 0.38683367 4292925653
0.053706568 -0.047160283 0.38695866 4292859862
0.054347396 -0.047175515 0.38708365 4293057241
0.054988626 -0.047190748 0.38720864 4292925655
0.055612307 -0.047190748 0.38720864 4292925655
0.056254134 -0.047205981 0.38733363 4292729046
0.056914721 -0.047236443 0.38758358 4292729046
0.05757612 -0.047266912 0.38783357 4292597458
0.058200806 -0.047266912 0.38783357 4292465872
0.058882371 -0.04731261 0.38820854 4292466385
0.059565131 -0.047358304 0.38858348 4292466385
0.060249109 -0.047404006 0.38895845 4292466385
0.060953852 -0.047464933 0.38945839 4292400592
0.061581157 -0.047464933 0.38945839 4292466385
0.062288322 -0.047525868 0.38995835 4292466385
0.063017249 -0.047602031 0.39058328 4292466385
0.063748203 -0.047678191 0.3912082 4292466385
0.064481162 -0.047754355 0.39183313 4292532178
0.065112293 -0.047754355 0.39183313 4292400592
0.065848276 -0.047830518 0.39245808 4292269776
0.066607445 -0.047921915 0.393208 4292138190
0.067369029 -0.048013311 0.39395791 4292269776
0.068133026 -0.048104707 0.39470783 4292138190
0.068768792 -0.048104707 0.39470783 4292006861
0.069558389 -0.048211336 0.39558274 4292072654
0.070328631 -0.048302729 0.39633265 4291941840
0.071101286 -0.048394125 0.39708257 4291941840
0.071876362 -0.048485525 0.39783251 4292204242
0.072631069 -0.048561689 0.39845744 4292072656
0.073272862 -0.048561689 0.39845744 4292203989
0.074053772 -0.048653081 0.39920735 4292203989
0.074813709 -0.048729245 0.39983228 4292072656
0.075575665 -0.048805408 0.4004572 4292072656
0.076363422 -0.048896804 0.40120715 4292006606
0.077009648 -0.048896804 0.40120715 4292006606
0.077752642 -0.048957735 0.40170708 4291941070
0.078546032 -0.049049132 0.402457 4291941070
0.079341844 -0.049140524 0.40320691 4291941070
0.080189653 -0.049262386 0.40420681 4291941070
0.080840714 -0.049262386 0.40420681 4291941070
0.081718564 -0.049399484 0.4053317 4291875277
0.082625426 -0.049551807 0.40658155 4291810254
0.083510727 -0.049688902 0.40770644 4291744461
0.084373839 -0.049810763 0.40870634 4291744461
0.085240178 -0.049932625 0.40970623 4291810254
0.085900091 -0.049932625 0.40970623 4291744461
0.086771265 -0.050054487 0.41070613 4291744461
0.087672256 -0.050191578 0.41183099 4291743689
0.088603683 -0.050343905 0.41308087 4291612103
0.089566149 -0.050511464 0.41445571 4291612103
0.090478621 -0.050648559 0.4155806 4291612103
0.091148004 -0.050648559 0.4155806 4291217342
0.092010684 -0.050755188 0.41645551 4291085756
0.092792727 -0.050816115 0.41695544 4290888380
-0.0341415 -0.048250578 0.40120715 4290295986
-0.03349527 -0.048250578 0.40120715 4290559158
-0.03284904 -0.048250578 0.40120715 4290559158
-0.03238339 -0.048521142 0.4034569 4290690998
-0.032598641 -0.0498439 0.41445571 4290756791
-0.032065887 -0.050054338 0.41620553 4291019193
-0.031452067 -0.050144523 0.41695544 4291084986
-0.030780476 -0.050144523 0.41695544 4291150779
-0.030126931 -0.05017459 0.41720542 4291150779
-0.029366694 -0.050024278 0.41595557 4291150779
-0.028696712 -0.050024278 0.41595557 4291216572
-0.027841456 -0.049693588 0.41320586 4291282111
-0.02696218 -0.049302772 0.40995622 4291216318
-0.026301857 -0.049302772 0.40995622 4291216318
-0.025500821 -0.049032208 0.40770644 4291282111
-0.024806045 -0.04895705 0.40708151 4291347904
-0.024150357 -0.04895705 0.40708151 4291479490
-0.02346581 -0.048896924 0.40658155 4291347904
-0.022782877 -0.048836801 0.40608162 4291479490
-0.022128798 -0.048836801 0.40608162 4291544772
-0.021494549 -0.048881896 0.40645659 4291544772
-0.020839866 -0.048881896 0.40645659 4291676358
-0.020154148 -0.048806738 0.40583163 4291676358
-0.019362342 -0.04846102 0.40295696 4291676358
-0.018713295 -0.04846102 0.40295696 4291676358
-0.017997012 -0.048280641 0.4014571 4291807172
-0.017296365 -0.04813033 0.40020725 4291938758
-0.016651748 -0.04813033 0.40020725 4291807172
-0.015977137 -0.04804014 0.39945734 4291872965
-0.015314536 -0.047980014 0.39895737 4291872965
-0.014653546 -0.047919888 0.39845744 4291872965
-0.014011747 -0.047919888 0.39845744 4291938758
-0.013340592 -0.047814671 0.39758253 4291938758
-0.012672255 -0.04770945 0.39670762 4291938758
-0.012033275 -0.04770945 0.39670762 4292004551
-0.011347626 -0.047514044 0.3950828 4291938758
-0.010680766 -0.04737876 0.39395791 4291938758
-0.01003984 -0.047348697 0.39370793 4291938758
-0.0094056921 -0.047348697 0.39370793 4291872965
-0.0087687578 -0.047333665 0.39358294 4291742149
-0.0081322286 -0.047318637 0.39345798 4291873735
-0.0074984827 -0.047318637 0.39345798 4292071114
-0.0068647363 -0.047318637 0.39345798 4291873735
-0.0062290113 -0.047303606 0.39333299 4292005321
-0.0055936882 -0.047288574 0.393208 4292005321
-0.0049587684 -0.047273543 0.39308301 4292005321
-0.0043256264 -0.047273543 0.39308301 4291873735
-0.0036913105 -0.047258511 0.39295802 4292005575
-0.0030564242 -0.047228448 0.39270803 4292005575
-0.0024208005 -0.047168322 0.3922081 4292071114
-0.0017890675 -0.047168322 0.3922081 4292136907
-0.0011562284 -0.047123227 0.39183313 4292268493
-0.00052375969 -0.047002979 0.39083326 4292071114
0.00010552187 -0.046897762 0.38995835 4292203213
0.00073363091 -0.046897762 0.38995835 4292137420
0.0013599941 -0.046837632 0.38945839 4292071629
0.0019860223 -0.046807569 0.38920841 4292137422
0.0026120844 -0.046792541 0.38908345 4292203213
0.0032387841 -0.046792541 0.38908345 4292269006
0.0038642425 -0.046777509 0.38895845 4292268493
0.0044907406 -0.046777509 0.38895845 4292202700
0.0051139505 -0.046747446 0.38870847 4292399309
0.0057400465 -0.046747446 0.38870847 4292662481
0.006362048 -0.046717383 0.38845849 4292662481
0.0069809966 -0.046672288 0.38808355 4292399309
0.0075987373 -0.046627194 0.38770857 4292399309
0.0082232226 -0.046627194 0.38770857 4292399309
0.0088305939 -0.046537008 0.38695866 4292334286
0.0094386041 -0.04646185 0.38633373 4292334286
0.010047855 -0.046401724 0.38583377 4292334288
0.01066932 -0.046401724 0.38583377 4292334288
0.011283472 -0.046371665 0.38558382 4292465874
0.011896817 -0.046341598 0.38533384 4292531667
0.012505296 -0.046296503 0.38495886 4292597460
0.013125352 -0.046296503 0.38495886 4292531667
0.013727557 -0.046236381 0.38445893 4292531667
0.014328154 -0.046176255 0.383959 4292597460
0.014936868 -0.046146192 0.38370901 4292663000
0.015554911 -0.046146192 0.38370901 4292728793
0.016157148 -0.046101097 0.38333404 4292531667
0.01676365 -0.046071038 0.38308409 4292597460
0.017375017 -0.046056006 0.3829591 4292663253
0.01799185 -0.046056006 0.3829591 4292597460
0.018596541 -0.046025943 0.38270912 4292531667
0.019212972 -0.046025943 0.38270912 4292663253
0.019822929 -0.046010908 0.38258412 4292663253
0.020432483 -0.045995876 0.38245913 4292729046
0.021048512 -0.045995876 0.38245913 4292729046
0.021664543 -0.045995876 0.38245913 4292663253
0.022280574 -0.045995876 0.38245913 4292597458
0.022896603 -0.045995876 0.38245913 4292531665
0.023512634 -0.045995876 0.38245913 4292663505
0.024128664 -0.045995876 0.38245913 4292795091
0.024744693 -0.045995876 0.38245913 4292795091
0.025369013 -0.046010908 0.38258412 4292597712
0.025985241 -0.046010908 0.38258412 4293057239
0.026601475 -0.046010908 0.38258412 4292925653
0.027226595 -0.046025943 0.38270912 4292992216
0.02784303 -0.046025943 0.38270912 4292794837
0.028459463 -0.046025943 0.38270912 4292729044
0.029075895 -0.046025943 0.38270912 4292663251
0.029692329 -0.046025943 0.38270912 4292597971
0.030308759 -0.046025943 0.38270912 4292597971
0.030925194 -0.046025943 0.38270912 4292597973
0.031541623 -0.046025943 0.38270912 4292663766
0.032158058 -0.046025943 0.38270912 4292861145
0.032774493 -0.046025943 0.38270912 4292729559
0.033390924 -0.046025943 0.38270912 4292729559
0.034007356 -0.046025943 0.38270912 4292663766
0.034623787 -0.046025943 0.38270912 4292663766
0.035240222 -0.046025943 0.38270912 4292729559
0.035856653 -0.046025943 0.38270912 4292729557
0.036484998 -0.046040975 0.38283411 4292861143
0.037113748 -0.046056006 0.3829591 4292663764
0.037730582 -0.046056006 0.3829591 4292663764
0.038372446 -0.046086065 0.38320905 4292861397
0.039040551 -0.046146192 0.38370901 4293124569
0.039697349 -0.046191286 0.38408396 4292729557
0.040368475 -0.046251412 0.38458392 4292861143
0.040987927 -0.046251412 0.38458392 4292926425
0.041634422 -0.046281472 0.38483387 4292992218
0.042281725 -0.046311535 0.38508385 4293123034
0.042929832 -0.046341598 0.38533384 4293188827
0.043578744 -0.046371665 0.38558382 4292992218
0.044199809 -0.046371665 0.38558382 4292926425
0.0448354 -0.046386693 0.38570878 4292926425
0.045486122 -0.046416756 0.38595876 4293058011
0.046107791 -0.046416756 0.38595876 4293058009
0.046729457 -0.046416756 0.38595876 4292992216
0.047381792 -0.046446819 0.38620874 4293188825
0.04800386 -0.046446819 0.38620874 4293057239
0.048641667 -0.04646185 0.38633373 4293057239
0.049263939 -0.04646185 0.38633373 4293188825
0.049886212 -0.04646185 0.38633373 4293123032
0.05052482 -0.046476882 0.38645872 4293057239
0.05116383 -0.04649191 0.38658369 4292925653
0.05180325 -0.046506941 0.38670868 4293057239
0.052426126 -0.046506941 0.38670868 4293123032
0.053066149 -0.046521973 0.38683367 4293123032
0.053706568 -0.046537008 0.38695866 4292925653
0.054347396 -0.04655204 0.38708365 4293057239
0.054988626 -0.046567071 0.38720864 4293057241
0.055612307 -0.046567071 0.38720864 4293057241
0.056254134 -0.046582103 0.38733363 4292926425
0.056914721 -0.046612162 0.38758358 4292729046
0.05757612 -0.046642225 0.38783357 4292597460
0.058200806 -0.046642225 0.38783357 4292531667
0.058882371 -0.04668732 0.38820854 4292466387
0.059565131 -0.046732415 0.38858348 4292466387
0.060249109 -0.046777509 0.38895845 4292466385
0.060953852 -0.046837632 0.38945839 4292400592
0.061581157 -0.046837632 0.38945839 4292466385
0.062288322 -0.046897762 0.38995835 4292466385
0.063017249 -0.046972916 0.39058328 4292532178
0.063748203 -0.04704807 0.3912082 4292269006
0.064481162 -0.047123227 0.39183313 4292400592
0.065112293 -0.047123227 0.39183313 4292400592
0.065848276 -0.047198385 0.39245808 4292269776
0.066607445 -0.047288574 0.393208 4292138190
0.067369029 -0.04737876 0.39395791 4292269776
0.068133026 -0.047468949 0.39470783 4292138190
0.068768792 -0.047468949 0.39470783 4292072654
0.069558389 -0.047574166 0.39558274 4292204240
0.070328631 -0.047664355 0.39633265 4292006861
0.071101286 -0.047754545 0.39708257 4292006861
0.071876362 -0.047844734 0.39783251 4292204240
0.072631069 -0.047919888 0.39845744 4292204240
0.073272862 -0.047919888 0.39845744 4292072656
0.074053772 -0.048010077 0.39920735 4292204242
0.074813709 -0.048085231 0.39983228 4292269776
0.075575665 -0.048160389 0.4004572 4292138190
0.076363422 -0.048250578 0.40120715 4292072397
0.077009648 -0.048250578 0.40120715 4292006604
0.077752642 -0.048310705 0.40170708 4291941068
0.078546032 -0.04840089 0.402457 4292006861
0.079341844 -0.048491079 0.40320691 4291941068
0.080189653 -0.048611328 0.40420681 4291809482
0.080840714 -0.048611328 0.40420681 4292006861
0.081718564 -0.048746612 0.4053317 4291941068
0.082625426 -0.048896924 0.40658155 4291743943
0.083510727 -0.049032208 0.40770644 4291941322
0.084373839 -0.04915246 0.40870634 4291875529
0.085240178 -0.049272709 0.40970623 4291941322
0.085900091 -0.049272709 0.40970623 4291941068
0.086771265 -0.049392961 0.41070613 4292006861
0.087672256 -0.049528241 0.41183099 4291875018
0.088603683 -0.049678557 0.41308087 4291677639
0.089566149 -0.0498439 0.41445571 4291809225
0.090478621 -0.04997918 0.4155806 4291611846
0.091148004 -0.04997918 0.4155806 4291348674
0.091844998 -0.049994212 0.41570559 4291348674
0.092681468 -0.050084401 0.41645551 4291085502
0.093436308 -0.050129496 0.41683048 4291348674
0.094107702 -0.050129496 0.41683048 4286808706
-0.03521318 -0.047307752 0.39870742 4290163630
-0.034570977 -0.047307752 0.39870742 4290164654
-0.033939414 -0.047322579 0.39883238 4290427826
-0.03329701 -0.047322579 0.39883238 4290624951
-0.032746706 -0.047456048 0.39995727 4290559158
-0.032142621 -0.047515366 0.4004572 4290755767
-0.032048117 -0.048345849 0.40745646 4291018939
-0.032027368 -0.049324632 0.41570559 4291084732
-0.031404927 -0.04939878 0.41633052 4291150525
-0.030734342 -0.04939878 0.41633052 4291281852
-0.030063754 -0.04939878 0.41633052 4291281852
-0.029357869 -0.049339462 0.41583058 4291216572
-0.02868809 -0.049339462 0.41583058 4291216572
-0.027833033 -0.049013201 0.41308087 4291216318
-0.026929297 -0.048583131 0.40945625 4291347904
-0.026269782 -0.048583131 0.40945625 4291151295
-0.025477368 -0.048331022 0.4073315 4291217088
-0.024767965 -0.048227213 0.40645659 4291347904
-0.024113283 -0.048227213 0.40645659 4291545283
-0.02344417 -0.048197549 0.40620661 4291479490
-0.022775864 -0.048167888 0.40595663 4291479490
-0.022094745 -0.04810857 0.40545669 4291479490
-0.021441672 -0.04810857 0.40545669 4291479490
-0.020782191 -0.04809374 0.4053317 4291610563
-0.020073457 -0.04796027 0.40420681 4291610563
-0.019362342 -0.04781197 0.40295696 4291610565
-0.01866686 -0.047693331 0.40195706 4291676358
-0.017968997 -0.047559861 0.40083218 4291610563
-0.017274758 -0.047426388 0.39970729 4291807942
-0.016630946 -0.047426388 0.39970729 4291742149
-0.015957139 -0.047337409 0.39895737 4291742149
-0.015295345 -0.047278091 0.39845744 4291872965
-0.014635159 -0.047218766 0.39795747 4291872965
-0.013994166 -0.047218766 0.39795747 4292004551
-0.013319623 -0.04710013 0.39695761 4292004551
-0.0126483 -0.046981491 0.39595771 4291938758
-0.012010528 -0.046981491 0.39595771 4291872965
-0.011333266 -0.046818357 0.39458284 4291741379
