# .PCD v0.7 - Point Cloud Data file format
VERSION 0.7
FIELDS x y z rgba
SIZE 4 4 4 4
TYPE F F F U
COUNT 1 1 1 1
WIDTH 987
HEIGHT 1
VIEWPOINT 0 0 0 1 0 0 0
POINTS 987
DATA ascii
-0.046461053 -0.0040089567 0.32471532 4290031533
-0.04592035 -0.004007414 0.32459033 4290163117
-0.045397528 -0.004007414 0.32459033 4290031531
-0.044874705 -0.004007414 0.32459033 4290031531
-0.044471432 -0.0040182155 0.32546523 4290163117
-0.044183481 -0.0040398189 0.32721505 4290163119
-0.043806516 -0.0040537068 0.32833993 4290163119
-0.043277655 -0.0040537068 0.32833993 4290031531
-0.042765062 -0.0040552495 0.3284649 4290031531
-0.042219937 -0.0040537068 0.32833993 4290031531
-0.041659333 -0.0040506204 0.32808995 4290163117
-0.041130874 -0.0040506204 0.32808995 4290031531
-0.040679757 -0.0040583359 0.32871488 4290163117
-0.040150292 -0.0040583359 0.32871488 4290163117
-0.039696153 -0.004066051 0.3293398 4290163117
-0.039269727 -0.0040768529 0.33021471 4290163117
-0.038825825 -0.0040861117 0.33096465 4290031531
-0.038379505 -0.0040953699 0.33171457 4290163117
-0.037916504 -0.0041030855 0.3323395 4290031531
-0.037381202 -0.0041030855 0.3323395 4290031531
-0.036915187 -0.004110801 0.33296442 4290031531
-0.036515437 -0.0041262321 0.3342143 4290031785
-0.036044385 -0.0041339472 0.33483922 4290163371
-0.035531566 -0.0041370336 0.33508921 4290031785
-0.035004884 -0.0041385768 0.3352142 4289965992
-0.034464955 -0.0041385768 0.3352142 4290031785
-0.03393767 -0.00414012 0.33533919 4289965992
-0.033434879 -0.0041447491 0.33571413 4289965992
-0.03296762 -0.0041540074 0.33646405 4290031785
-0.032485902 -0.0041617234 0.337089 4290163371
-0.031942952 -0.0041617234 0.337089 4289900199
-0.031469852 -0.0041709817 0.33783892 4290162601
-0.031017222 -0.0041833264 0.33883879 4290096808
-0.03057261 -0.0041972143 0.33996367 4290162601
-0.030146457 -0.0042141885 0.34133855 4290162601
-0.029737543 -0.0042342488 0.34296337 4290294187
-0.029312762 -0.0042527658 0.3444632 4290294187
-0.028904017 -0.0042743688 0.34621301 4290162601
-0.028448701 -0.0042897998 0.34746289 4290096808
-0.027889041 -0.0042897998 0.34746289 4290096554
-0.027398195 -0.0043006018 0.3483378 4290030761
-0.026885271 -0.0043083169 0.34896272 4290030761
-0.026351476 -0.004312946 0.34933767 4289964968
-0.025825705 -0.0043191188 0.34983763 4289964968
-0.025307344 -0.0043268339 0.35046256 4289899175
-0.024742851 -0.0043268339 0.35046256 4290030761
-0.024230096 -0.0043360926 0.35121247 4290030761
-0.02374861 -0.0043515237 0.35246235 4289899177
-0.02329598 -0.0043731271 0.35421216 4289899177
-0.022853747 -0.004397816 0.35621193 4289702566
-0.022405073 -0.0044225059 0.35821173 4289834152
-0.021942344 -0.0044456525 0.36008653 4290030761
-0.021443913 -0.0044626263 0.36146137 4289899175
-0.02093384 -0.0044780574 0.36271125 4289833636
-0.020349618 -0.0044780574 0.36271125 4289636257
-0.019806262 -0.0044873157 0.36346117 4289570982
-0.019234052 -0.0044904021 0.36371115 4290228912
-0.018661037 -0.0044934885 0.36396113 4287664276
-0.018074803 -0.0044934885 0.36396113 4284045661
-0.017488567 -0.0044934885 0.36396113 4281611316
-0.13100792 -0.0037341637 0.34783784 4290230193
-0.13044767 -0.0037341637 0.34783784 4290230193
-0.12984073 -0.0037328219 0.34771284 4290098864
-0.12928066 -0.0037328219 0.34771284 4290230450
-0.1240229 -0.0036281636 0.33796391 4290427826
-0.12347854 -0.0036281636 0.33796391 4290296240
-0.1192667 -0.0035355808 0.3293398 4290230447
-0.11783501 -0.0035087452 0.32684007 4290230447
-0.11730856 -0.0035087452 0.32684007 4290296240
-0.11664815 -0.0035047201 0.32646513 4290427826
-0.1161223 -0.0035047201 0.32646513 4290493619
-0.11559647 -0.0035047201 0.32646513 4290493876
-0.11507063 -0.0035047201 0.32646513 4290428083
-0.11472019 -0.003510087 0.32696506 4290427829
-0.11436816 -0.0035154542 0.32746503 4290427829
-0.11431866 -0.0035302138 0.32883987 4290559415
-0.113789 -0.0035302138 0.32883987 4290493622
-0.11248448 -0.0035060619 0.32659012 4290362038
-0.11195843 -0.0035060619 0.32659012 4290559417
-0.11109123 -0.0034953277 0.32559022 4289638315
-0.11039701 -0.0034899605 0.32509026 4290427831
-0.10987338 -0.0034899605 0.32509026 4290427831
-0.10918161 -0.0034845935 0.32459033 4290362038
-0.10853326 -0.0034805678 0.32421535 4290427574
-0.10801104 -0.0034805678 0.32421535 4290493367
-0.10612138 -0.0034362893 0.3200908 4290427572
-0.10548211 -0.0034322643 0.31971586 4290493365
-0.10459783 -0.0034201881 0.31859097 4290427829
-0.10318632 -0.0033906689 0.31584126 4290362036
-0.10267761 -0.0033906689 0.31584126 4290493365
-0.10216887 -0.0033906689 0.31584126 4290427572
-0.10266588 -0.0034242133 0.31896591 4290427574
-0.10243232 -0.0034336057 0.31984082 4290427574
-0.10167819 -0.0034255551 0.3190909 4290493367
-0.10116423 -0.0034255551 0.3190909 4290493367
-0.10065027 -0.0034255551 0.3190909 4290493365
-0.10025398 -0.0034295805 0.31946588 4290427572
-0.099817455 -0.0034322643 0.31971586 4290230193
-0.099884778 -0.0034523907 0.32159063 4290427572
-0.099328183 -0.0034510491 0.32146567 4290493365
-0.098695144 -0.0034470237 0.3210907 4290493365
-0.098177955 -0.0034470237 0.3210907 4290295986
-0.097166575 -0.0034295805 0.31946588 4290295986
-0.09623605 -0.0034148209 0.31809101 4290427572
-0.095723704 -0.0034148209 0.31809101 4290427572
-0.095136538 -0.0034121375 0.31784105 4290295986
-0.094512947 -0.0034081121 0.31746608 4290295986
-0.093964599 -0.0034067703 0.31734109 4290230195
-0.093453452 -0.0034067703 0.31734109 4290230195
-0.092942312 -0.0034067703 0.31734109 4290164402
-0.092613198 -0.0034134793 0.31796604 4290164402
-0.09213724 -0.0034148209 0.31809101 4290230195
-0.091624893 -0.0034148209 0.31809101 4290493367
-0.091112532 -0.0034148209 0.31809101 4290689974
-0.090386592 -0.0034067703 0.31734109 4290361009
-0.089875452 -0.0034067703 0.31734109 4290295216
-0.08883635 -0.0033866435 0.31546628 4290361009
-0.088258244 -0.0033839601 0.31521633 4290426802
-0.087750517 -0.0033839601 0.31521633 4290361009
-0.087242797 -0.0033839601 0.31521633 4290229423
-0.086769477 -0.0033853021 0.31534132 4290229423
-0.086432494 -0.0033920109 0.31596625 4290229423
-0.086195476 -0.0034027451 0.31696615 4290361009
-0.085853867 -0.0034094539 0.31759107 4290229423
-0.085342325 -0.0034094539 0.31759107 4290229423
-0.085031092 -0.0034175045 0.31834099 4290229423
-0.084617883 -0.0034215299 0.31871596 4290295216
-0.084170491 -0.0034242133 0.31896591 4290163630
-0.083656721 -0.0034242133 0.31896591 4290163630
-0.083110392 -0.0034228717 0.31884095 4290229423
-0.082467318 -0.0034175045 0.31834099 4290229423
-0.081954561 -0.0034175045 0.31834099 4290229423
-0.081409827 -0.0034161627 0.318216 4290229423
-0.080801964 -0.0034121375 0.31784105 4290229677
-0.080258437 -0.0034107957 0.31771606 4290163884
-0.079746686 -0.0034107957 0.31771606 4290229677
-0.079234943 -0.0034107957 0.31771606 4290163884
-0.078970946 -0.0034215299 0.31871596 4290163884
-0.078457586 -0.0034215299 0.31871596 4289966505
-0.078005351 -0.0034242133 0.31896591 4290163884
-0.077218316 -0.0034121375 0.31784105 4290229677
-0.076374561 -0.0033973779 0.31646618 4290098091
-0.075864822 -0.0033973779 0.31646618 4289966505
-0.075325325 -0.0033960359 0.31634119 4290294955
-0.074667998 -0.0033893271 0.31571627 4290294955
-0.074159473 -0.0033893271 0.31571627 4290163369
-0.073738419 -0.0033933527 0.31609124 4290163369
-0.073229291 -0.0033933527 0.31609124 4290031785
-0.072777659 -0.0033960359 0.31634119 4290031785
-0.072353788 -0.0034000615 0.31671616 4290031785
-0.071872011 -0.0034014033 0.31684116 4289965992
-0.07133352 -0.0034000615 0.31671616 4290031785
-0.070823379 -0.0034000615 0.31671616 4290031785
-0.070340991 -0.0034014033 0.31684116 4290163371
-0.069830649 -0.0034014033 0.31684116 4290294957
-0.069210932 -0.0033960359 0.31634119 4290228910
-0.068701394 -0.0033960359 0.31634119 4290228910
-0.068218805 -0.0033973779 0.31646618 4290293933
-0.067762554 -0.0034000615 0.31671616 4290359726
-0.06725242 -0.0034000615 0.31671616 4290359213
-0.066794962 -0.0034027451 0.31696615 4290359213
-0.066310562 -0.0034040869 0.31709114 4290359726
-0.065851681 -0.0034067703 0.31734109 4290293933
-0.065417744 -0.0034107957 0.31771606 4290162349
-0.064906001 -0.0034107957 0.31771606 4290162349
-0.064546242 -0.0034188463 0.31846598 4290359980
-0.06451077 -0.0034443401 0.32084072 4290359980
-0.064218357 -0.0034564161 0.32196561 4290359980
-0.063650303 -0.0034537325 0.32171562 4290359980
-0.063132122 -0.0034537325 0.32171562 4290359980
-0.06234635 -0.0034389731 0.32034078 4290294187
-0.061709754 -0.0034322643 0.31971586 4290294187
-0.061194785 -0.0034322643 0.31971586 4290359980
-0.060632374 -0.0034295805 0.31946588 4290293933
-0.060117807 -0.0034295805 0.31946588 4290293933
-0.05960324 -0.0034295805 0.31946588 4290293933
-0.059158023 -0.0034336057 0.31984082 4290293933
-0.058642853 -0.0034336057 0.31984082 4290359726
-0.058195833 -0.0034376313 0.32021579 4290293933
-0.057725087 -0.0034403149 0.32046577 4290162347
-0.057320468 -0.0034470237 0.3210907 4290425519
-0.056891724 -0.0034523907 0.32159063 4290228910
-0.056373738 -0.0034523907 0.32159063 4290228910
-0.055877462 -0.0034537325 0.32171562 4290228910
-0.05535927 -0.0034537325 0.32171562 4290228910
-0.054841079 -0.0034537325 0.32171562 4290163117
-0.054322887 -0.0034537325 0.32171562 4290031531
-0.053825602 -0.0034550743 0.32184061 4290031531
-0.053369321 -0.0034590997 0.32221559 4290163117
-0.052911822 -0.0034631249 0.32259053 4290361009
-0.052453123 -0.0034671503 0.3229655 4290163630
-0.05193292 -0.0034671503 0.3229655 4289966253
-0.051472407 -0.0034711754 0.32334045 4289900460
-0.051050078 -0.0034778847 0.3239654 4290097839
-0.05062573 -0.0034845935 0.32459033 4290097839
-0.050315127 -0.0034993528 0.32596517 4289966253
-0.050343741 -0.0035382644 0.32958978 4290097839
-0.05007733 -0.0035570492 0.3313396 4290031533
-0.049543638 -0.0035570492 0.3313396 4290228912
-0.048566252 -0.0035248469 0.32833993 4290163119
-0.048037391 -0.0035248469 0.32833993 4290031533
-0.047092579 -0.0034939859 0.32546523 4290228912
-0.04649682 -0.0034886184 0.32496527 4290031533
-0.045955714 -0.0034872771 0.32484031 4290031533
-0.045432489 -0.0034872771 0.32484031 4290031533
-0.044909269 -0.0034872771 0.32484031 4290031533
-0.044471432 -0.0034939859 0.32546523 4290031533
-0.044183481 -0.0035127706 0.32721505 4290163119
-0.043806516 -0.0035248469 0.32833993 4290031533
-0.043277655 -0.0035248469 0.32833993 4290031533
-0.04284643 -0.0035328974 0.32908985 4290163119
-0.042219937 -0.0035248469 0.32833993 4290228910
-0.041691076 -0.0035248469 0.32833993 4290163117
-0.041209221 -0.003528872 0.32871488 4290031531
-0.04075709 -0.0035355808 0.3293398 4290031531
-0.040318225 -0.0035436316 0.33008975 4290163117
-0.039786544 -0.0035436316 0.33008975 4290031531
-0.03934405 -0.0035516822 0.33083966 4289965738
-0.038899135 -0.0035597328 0.33158958 4289965738
-0.038422886 -0.0035650998 0.33208951 4289965738
-0.037959285 -0.003571809 0.33271447 4289965738
-0.03742338 -0.003571809 0.33271447 4290031531
-0.036942899 -0.003577176 0.3332144 4290031531
-0.036515437 -0.0035879102 0.3342143 4290031531
-0.036057841 -0.0035959608 0.33496422 4290031531
-0.035544816 -0.0035986444 0.3352142 4290294187
-0.035004884 -0.0035986444 0.3352142 4290162601
-0.034464955 -0.0035986444 0.3352142 4289900199
-0.033975616 -0.0036040114 0.33571413 4289900199
-0.033484671 -0.0036093788 0.3362141 4289965992
-0.033016607 -0.0036174294 0.33696401 4290031785
-0.032546129 -0.00362548 0.33771393 4289965992
-0.03200217 -0.00362548 0.33771393 4289965992
-0.03155135 -0.0036362142 0.33871382 4289900199
-0.031097312 -0.0036469481 0.33971369 4289965992
-0.030662531 -0.0036603659 0.34096357 4289965992
-0.030245801 -0.0036764673 0.3424634 4289965992
-0.029845914 -0.0036952521 0.34421322 4289965992
-0.029440394 -0.0037140371 0.34596303 4290031785
-0.029008364 -0.0037301385 0.34746289 4289900199
-0.028510101 -0.0037381891 0.34821281 4289900199
-0.027949234 -0.0037381891 0.34821281 4289900199
-0.027447347 -0.0037462397 0.34896272 4289900199
-0.026923789 -0.0037516067 0.34946266 4289900199
-0.026389191 -0.0037556323 0.34983763 4289834406
-0.025862612 -0.0037609993 0.35033756 4289768359
-0.025343448 -0.0037677083 0.35096252 4289834152
-0.024778148 -0.0037677083 0.35096252 4289834152
-0.024273211 -0.0037771007 0.35183743 4289834152
-0.023799138 -0.0037918601 0.35321227 4289702568
-0.023353521 -0.0038119869 0.35508707 4289702568
-0.022893842 -0.0038307717 0.35683689 4289570980
-0.022451978 -0.0038535818 0.35896164 4289834152
-0.021988042 -0.0038737084 0.36083645 4289834406
-0.021495817 -0.0038898096 0.36233628 4289768613
-0.021013189 -0.0039085946 0.36408609 4289702820
-0.020433765 -0.0039099362 0.36421108 4289373855
-0.019847129 -0.0039099362 0.36421108 4289966770
-0.019247273 -0.003907253 0.36396113 4288124566
-0.018661037 -0.003907253 0.36396113 4285163885
-0.13100792 -0.0031738987 0.34783784 4290098866
-0.13044767 -0.0031738987 0.34783784 4290033073
-0.12984073 -0.0031727583 0.34771284 4290098866
-0.12928066 -0.0031727583 0.34771284 4290098866
-0.12737879 -0.0031396849 0.34408823 4290164657
-0.12682457 -0.0031396849 0.34408823 4290230450
-0.1240229 -0.0030838025 0.33796391 4290230704
-0.12347854 -0.0030838025 0.33796391 4290230704
-0.12102469 -0.0030359032 0.33271447 4290230447
-0.1192667 -0.0030051107 0.3293398 4290164654
-0.11783501 -0.0029823014 0.32684007 4290230445
-0.11730856 -0.0029823014 0.32684007 4290427824
-0.11664815 -0.0029788802 0.32646513 4290493617
-0.1161223 -0.0029788802 0.32646513 4290493617
-0.11559647 -0.0029788802 0.32646513 4290428081
-0.11507063 -0.0029788802 0.32646513 4290362288
-0.11472019 -0.002983442 0.32696506 4290427829
-0.11436816 -0.0029880039 0.32746503 4290362036
-0.11431866 -0.0030005488 0.32883987 4290493622
-0.113789 -0.0030005488 0.32883987 4290427829
-0.11248448 -0.0029800208 0.32659012 4290427829
-0.11195843 -0.0029800208 0.32659012 4290493622
-0.11109123 -0.0029708971 0.32559022 4290427831
-0.11039701 -0.002966335 0.32509026 4290427831
-0.10987338 -0.002966335 0.32509026 4290493624
-0.10918161 -0.0029617734 0.32459033 4290362038
-0.10853326 -0.0029583517 0.32421535 4290362038
-0.10801104 -0.0029583517 0.32421535 4290427831
-0.10695013 -0.0029435258 0.32259053 4290362038
-0.10548211 -0.0029172956 0.31971586 4290362038
-0.10496715 -0.0029172956 0.31971586 4290362036
-0.10445217 -0.0029172956 0.31971586 4290362036
-0.10401846 -0.0029195761 0.31996581 4290362036
-0.10362438 -0.0029229978 0.32034078 4290230450
-0.10310841 -0.0029229978 0.32034078 4290230452
-0.10259244 -0.0029229978 0.32034078 4290362038
-0.10203663 -0.0029218572 0.32021579 4290427574
-0.10152086 -0.0029218572 0.32021579 4290427574
-0.10100509 -0.0029218572 0.32021579 4290493367
-0.10048931 -0.0029218572 0.32021579 4290427574
-0.10028572 -0.0029309809 0.32121569 4290427572
-0.099884778 -0.0029344021 0.32159063 4290427572
-0.099366792 -0.0029344021 0.32159063 4290427572
-0.098695144 -0.0029298405 0.3210907 4290427572
-0.098177955 -0.0029298405 0.3210907 4290295986
-0.097166575 -0.0029150145 0.31946588 4290295986
-0.096349493 -0.0029058908 0.31846598 4290427572
-0.095761314 -0.0029036098 0.318216 4290295986
-0.095248766 -0.0029036098 0.318216 4290295986
-0.094698995 -0.0029024694 0.31809101 4290230193
-0.094149649 -0.002901329 0.31796604 4290295986
-0.093637489 -0.002901329 0.31796604 4290295986
-0.093125343 -0.002901329 0.31796604 4290230195
-0.092613198 -0.002901329 0.31796604 4290164402
-0.092245854 -0.0029058908 0.31846598 4290230193
-0.091732897 -0.0029058908 0.31846598 4290295986
-0.091219939 -0.0029058908 0.31846598 4290427572
-0.090600185 -0.0029024694 0.31809101 4290295986
-0.090087838 -0.0029024694 0.31809101 4290230193
-0.089329101 -0.0028944861 0.3172161 4290230193
-0.08860819 -0.0028876434 0.31646618 4290295986
-0.088098451 -0.0028876434 0.31646618 4290164400
-0.08758872 -0.0028876434 0.31646618 4290295216
-0.087078989 -0.0028876434 0.31646618 4290229423
-0.086671822 -0.0028910649 0.31684116 4290229423
-0.086399414 -0.0028990482 0.31771606 4290361009
-0.086022802 -0.0029036098 0.318216 4290229423
-0.085644603 -0.0029081719 0.31871596 4290295216
-0.08513125 -0.0029081719 0.31871596 4290229423
-0.084750615 -0.0029127335 0.31921589 4290229423
-0.084302418 -0.0029150145 0.31946588 4290163630
-0.083787851 -0.0029150145 0.31946588 4290097837
-0.083175547 -0.0029115931 0.3190909 4290229677
-0.082532078 -0.0029070312 0.31859097 4290229677
-0.082018912 -0.0029070312 0.31859097 4290229677
-0.081505761 -0.0029070312 0.31859097 4290229677
-0.080897279 -0.0029036098 0.318216 4290163884
-0.080384724 -0.0029036098 0.318216 4290163884
-0.079934917 -0.0029058908 0.31846598 4290163884
-0.07942196 -0.0029058908 0.31846598 4290098091
-0.079125784 -0.0029138741 0.31934088 4290163884
-0.078611419 -0.0029138741 0.31934088 4289966505
-0.078097053 -0.0029138741 0.31934088 4289966505
-0.077218316 -0.0029001886 0.31784105 4290229677
-0.076465055 -0.0028910649 0.31684116 4290098091
-0.075954713 -0.0028910649 0.31684116 4289966505
-0.07535509 -0.0028876434 0.31646618 4290163882
-0.074786238 -0.0028853626 0.31621623 4290229675
-0.074276909 -0.0028853626 0.31621623 4290098089
-0.073825888 -0.0028876434 0.31646618 4290098089
-0.073316149 -0.0028876434 0.31646618 4290031783
-0.072863929 -0.0028899244 0.31671616 4290031783
-0.072410896 -0.0028922053 0.31696615 4289965990
-0.071928717 -0.0028933459 0.31709114 4289965990
-0.071361668 -0.0028910649 0.31684116 4290031785
-0.070851326 -0.0028910649 0.31684116 4290031785
-0.070340991 -0.0028910649 0.31684116 4290163371
-0.069830649 -0.0028910649 0.31684116 4290229164
-0.069238275 -0.0028876434 0.31646618 4290163117
-0.068728544 -0.0028876434 0.31646618 4290163117
-0.068272695 -0.0028899244 0.31671616 4290163117
-0.067842782 -0.0028933459 0.31709114 4290228910
-0.067385122 -0.0028956265 0.31734109 4290293933
-0.066873975 -0.0028956265 0.31734109 4290293933
-0.066388965 -0.0028967671 0.31746608 4290293933
-0.06595543 -0.0029001886 0.31784105 4290162347
-0.065572158 -0.0029058908 0.31846598 4290162347
-0.0650592 -0.0029058908 0.31846598 4290096554
-0.06479957 -0.0029172956 0.31971586 4290229164
-0.064561039 -0.0029298405 0.3210907 4290229164
-0.064392865 -0.0029458068 0.32284051 4290229164
-0.063897587 -0.0029469475 0.3229655 4290229164
-0.063401915 -0.0029480879 0.32309049 4290163371
-0.062467977 -0.0029286998 0.32096571 4290031785
-0.06180625 -0.0029218572 0.32021579 4290294187
-0.061290473 -0.0029218572 0.32021579 4290294187
-0.060727257 -0.0029195761 0.31996581 4290162601
-0.060211886 -0.0029195761 0.31996581 4290162601
-0.059696514 -0.0029195761 0.31996581 4290162601
-0.059227377 -0.0029218572 0.32021579 4290162601
-0.058711603 -0.0029218572 0.32021579 4290294187
-0.058241263 -0.0029241382 0.32046577 4290162601
-0.057815138 -0.0029286998 0.32096571 4290096808
-0.057432029 -0.0029355427 0.32171562 4290294187
-0.057422392 -0.0029617734 0.32459033 4290294187
-0.056921482 -0.0029629138 0.32471532 4290294187
-0.056137964 -0.0029492283 0.32321548 4290294187
-0.055488311 -0.0029423854 0.32246554 4290359980
-0.054968912 -0.0029423854 0.32246554 4290162601
-0.054449514 -0.0029423854 0.32246554 4290031015
-0.053930115 -0.0029423854 0.32246554 4290162347
-0.053452127 -0.0029446664 0.32271552 4290162347
-0.052952826 -0.0029458068 0.32284051 4290294703
-0.052493721 -0.0029492283 0.32321548 4290163117
-0.051973116 -0.0029492283 0.32321548 4289834667
-0.051492304 -0.0029515091 0.32346544 4289374116
-0.051109161 -0.0029594924 0.32434034 4289966253
-0.050859656 -0.0029754587 0.32609016 4290097839
-0.05085532 -0.0030062511 0.32946479 4289966253
-0.050649203 -0.0030256391 0.33158958 4290097839
-0.050058439 -0.0030222177 0.33121461 4289966253
-0.049524948 -0.0030222177 0.33121461 4289900460
-0.048566252 -0.0029959872 0.32833993 4290031533
-0.048037391 -0.0029959872 0.32833993 4290163119
-0.047146831 -0.0029731777 0.32584018 4290228912
-0.046586238 -0.0029708971 0.32559022 4290031533
-0.046044122 -0.0029697565 0.32546523 4289965740
-0.045519892 -0.0029697565 0.32546523 4289965740
-0.044995662 -0.0029697565 0.32546523 4290031533
-0.044488512 -0.0029708971 0.32559022 4289965740
-0.044217236 -0.0029880039 0.32746503 4289965740
-0.043856539 -0.0029994084 0.32871488 4289965740
-0.043327074 -0.0029994084 0.32871488 4290031533
-0.04284643 -0.0030028298 0.32908985 4290031533
-0.042316366 -0.0030028298 0.32908985 4289964968
-0.041802168 -0.0030039705 0.32921484 4290162347
-0.041287564 -0.0030051107 0.3293398 4290096554
-0.040865365 -0.003013094 0.33021471 4290030761
-0.040409822 -0.0030187964 0.33083966 4290294187
-0.039876934 -0.0030187964 0.33083966 4290096808
-0.039418366 -0.0030244985 0.33146459 4289965992
-0.038957782 -0.0030302007 0.33208951 4289900199
-0.038480733 -0.0030347628 0.33258948 4289900199
-0.038002063 -0.0030393244 0.33308941 4289900199
-0.037521787 -0.0030438865 0.33358938 4290031785
-0.036984473 -0.0030438865 0.33358938 4289965992
-0.03652909 -0.0030507292 0.33433929 4289965992
-0.036057841 -0.0030564314 0.33496422 4290031785
-0.035571322 -0.0030609933 0.33546415 4290359980
-0.03505709 -0.0030632741 0.33571413 4290491566
-0.034516353 -0.0030632741 0.33571413 4290096808
-0.034026213 -0.0030678362 0.3362141 4290031015
-0.03354691 -0.0030735384 0.33683902 4289965992
-0.03307784 -0.0030803811 0.33758894 4289965992
-0.0326184 -0.0030883644 0.33846384 4289900199
-0.03215614 -0.0030963474 0.33933875 4289900199
-0.031609561 -0.0030963474 0.33933875 4289834406
-0.031165961 -0.0031066118 0.34046364 4289900199
-0.03072997 -0.0031180163 0.34171349 4289965992
-0.030312033 -0.0031317016 0.34321332 4289900199
-0.029910939 -0.003147668 0.34496313 4289834406
-0.029504208 -0.0031636346 0.34671295 4289900199
-0.029060537 -0.0031761797 0.34808782 4289900199
-0.028561268 -0.0031830224 0.34883773 4289900199
-0.028049553 -0.0031887246 0.34946266 4289900199
-0.027486669 -0.0031887246 0.34946266 4289834406
-0.026962308 -0.0031932867 0.34996262 4289834406
-0.026426902 -0.0031967079 0.35033756 4289834406
-0.02589952 -0.0032012698 0.35083753 4289768613
-0.025379548 -0.003206972 0.35146245 4289834406
-0.024813443 -0.003206972 0.35146245 4289834152
-0.024307702 -0.0032149553 0.35233736 4289834152
-0.023824403 -0.0032263601 0.35358724 4289702566
-0.023361742 -0.003241186 0.35521206 4289570980
-0.022893842 -0.003256012 0.35683689 4289570980
-0.02248325 -0.0032799616 0.35946161 4289768359
-0.022071822 -0.0033050517 0.36221132 4289768359
-0.021621872 -0.0033255799 0.36446106 4289702566
-0.021236811 -0.0033575126 0.36796069 4289571234
-0.020545961 -0.0033415463 0.36621088 4289702820
-0.019956104 -0.0033415463 0.36621088 4288912799
-0.019366246 -0.0033415463 0.36621088 4286215286
-0.12993409 -0.0026145726 0.34796283 4289967280
-0.12937361 -0.0026145726 0.34796283 4289967280
-0.12737879 -0.002585459 0.34408823 4290033071
-0.12682457 -0.002585459 0.34408823 4290230450
-0.12434395 -0.002546015 0.33883879 4290230450
-0.12379818 -0.002546015 0.33883879 4290164657
-0.12102469 -0.0024999974 0.33271447 4290033323
-0.12048879 -0.0024999974 0.33271447 4290099116
-0.11824056 -0.0024643098 0.32796496 4290164907
-0.1177123 -0.0024643098 0.32796496 4290428079
-0.11673746 -0.0024549183 0.32671508 4290362286
-0.11621121 -0.0024549183 0.32671508 4290362286
-0.11568497 -0.0024549183 0.32671508 4290427824
-0.11551116 -0.0024624313 0.32771498 4290427824
-0.11498331 -0.0024624313 0.32771498 4290493365
-0.11519755 -0.002478397 0.32983977 4290295986
-0.11475317 -0.0024802752 0.33008975 4290427574
-0.1142215 -0.0024802752 0.33008975 4290427574
-0.11300105 -0.002465249 0.32808995 4290362038
-0.11195843 -0.0024539793 0.32659012 4290427831
-0.11143239 -0.0024539793 0.32659012 4290427831
-0.11065167 -0.0024483441 0.32584018 4290493624
-0.11000012 -0.0024455269 0.32546523 4290427831
-0.1094759 -0.0024455269 0.32546523 4290098866
-0.10865878 -0.0024389529 0.32459033 4290164659
-0.10805268 -0.0024370747 0.32434034 4290362038
-0.10695013 -0.0024239265 0.32259053 4290362038
-0.10548211 -0.0024023266 0.31971586 4290362038
-0.10496715 -0.0024023266 0.31971586 4290231222
-0.10445217 -0.0024023266 0.31971586 4290231222
-0.10401846 -0.0024042046 0.31996581 4290231220
-0.10362438 -0.0024070221 0.32034078 4290099634
-0.10310841 -0.0024070221 0.32034078 4290230452
-0.10259244 -0.0024070221 0.32034078 4290362038
-0.10203663 -0.002406083 0.32021579 4290362038
-0.10152086 -0.002406083 0.32021579 4290427831
-0.10100509 -0.002406083 0.32021579 4290427572
-0.10048931 -0.002406083 0.32021579 4290427572
-0.10005158 -0.0024079613 0.32046577 4290427572
-0.099535406 -0.0024079613 0.32046577 4290427572
-0.099019229 -0.0024079613 0.32046577 4290427572
-0.098618306 -0.0024107785 0.32084072 4290427572
-0.098101519 -0.0024107785 0.32084072 4290230193
-0.097166575 -0.0024004481 0.31946588 4290295986
-0.096349493 -0.0023929349 0.31846598 4290295986
-0.095761314 -0.0023910566 0.318216 4290295986
-0.095248766 -0.0023910566 0.318216 4290230193
-0.094698995 -0.0023901174 0.31809101 4290295986
-0.094149649 -0.0023891784 0.31796604 4290164400
-0.093637489 -0.0023891784 0.31796604 4290230193
-0.093125343 -0.0023891784 0.31796604 4290295988
-0.092613198 -0.0023891784 0.31796604 4290230195
-0.092245854 -0.0023929349 0.31846598 4290230193
-0.091732897 -0.0023929349 0.31846598 4290230193
-0.091219939 -0.0023929349 0.31846598 4290295986
-0.090600185 -0.0023901174 0.31809101 4290295986
-0.090087838 -0.0023901174 0.31809101 4290164400
-0.089329101 -0.0023835434 0.3172161 4290230193
-0.08860819 -0.0023779087 0.31646618 4290361009
-0.088098451 -0.0023779087 0.31646618 4290097837
-0.08758872 -0.0023779087 0.31646618 4290295216
-0.087078989 -0.0023779087 0.31646618 4290295216
-0.086671822 -0.0023807262 0.31684116 4290229423
-0.086399414 -0.0023873001 0.31771606 4290361009
-0.086022802 -0.0023910566 0.318216 4290361009
-0.085644603 -0.0023948133 0.31871596 4290295216
-0.08513125 -0.0023948133 0.31871596 4290295216
-0.084750615 -0.0023985698 0.31921589 4290229423
-0.084302418 -0.0024004481 0.31946588 4290229677
-0.083787851 -0.0024004481 0.31946588 4290229677
-0.083175547 -0.0023976306 0.3190909 4290294955
-0.082532078 -0.0023938741 0.31859097 4290229162
-0.082018912 -0.0023938741 0.31859097 4290294955
-0.081505761 -0.0023938741 0.31859097 4290229162
-0.080897279 -0.0023910566 0.318216 4290098091
-0.080384724 -0.0023910566 0.318216 4290163884
-0.079934917 -0.0023929349 0.31846598 4290163884
-0.07942196 -0.0023929349 0.31846598 4290098091
-0.079125784 -0.0023995088 0.31934088 4289966251
-0.078611419 -0.0023995088 0.31934088 4289966251
-0.078097053 -0.0023995088 0.31934088 4290163884
-0.077218316 -0.0023882394 0.31784105 4290163884
-0.076434888 -0.0023797869 0.31671616 4289966505
-0.075924754 -0.0023797869 0.31671616 4289966505
-0.07535509 -0.0023779087 0.31646618 4289900712
-0.074786238 -0.0023760304 0.31621623 4290098091
-0.074276909 -0.0023760304 0.31621623 4289966503
-0.073825888 -0.0023779087 0.31646618 4289966503
-0.073316149 -0.0023779087 0.31646618 4289703331
-0.072863929 -0.0023797869 0.31671616 4290163882
-0.072410896 -0.0023816654 0.31696615 4289900710
-0.071928717 -0.0023826044 0.31709114 4289834917
-0.071361668 -0.0023807262 0.31684116 4289834917
-0.070851326 -0.0023807262 0.31684116 4289900710
-0.070313238 -0.0023797869 0.31671616 4289966505
-0.069803104 -0.0023797869 0.31671616 4289900712
-0.069238275 -0.0023779087 0.31646618 4289966251
-0.068728544 -0.0023779087 0.31646618 4289966251
-0.068272695 -0.0023797869 0.31671616 4290163117
-0.067842782 -0.0023826044 0.31709114 4290163117
-0.067385122 -0.0023844827 0.31734109 4290293933
-0.066873975 -0.0023844827 0.31734109 4290162347
-0.066388965 -0.0023854219 0.31746608 4290162347
-0.06595543 -0.0023882394 0.31784105 4290162347
-0.065572158 -0.0023929349 0.31846598 4290162347
-0.0650592 -0.0023929349 0.31846598 4290096554
-0.06479957 -0.0024023266 0.31971586 4290163371
-0.064561039 -0.002412657 0.3210907 4290163371
-0.064392865 -0.002425805 0.32284051 4290031785
-0.063872859 -0.002425805 0.32284051 4290163371
-0.063377388 -0.0024267442 0.3229655 4289965992
-0.062467977 -0.0024117178 0.32096571 4289965992
-0.06180625 -0.002406083 0.32021579 4290163371
-0.061290473 -0.002406083 0.32021579 4290163371
-0.060727257 -0.0024042046 0.31996581 4290162601
-0.060211886 -0.0024042046 0.31996581 4290162601
-0.059696514 -0.0024042046 0.31996581 4290162601
-0.059227377 -0.002406083 0.32021579 4290294187
-0.058711603 -0.002406083 0.32021579 4290294187
-0.058241263 -0.0024079613 0.32046577 4290162601
-0.057815138 -0.0024117178 0.32096571 4290096808
-0.057432029 -0.0024173525 0.32171562 4290096808
-0.057422392 -0.0024389529 0.32459033 4290162601
-0.056921482 -0.0024398922 0.32471532 4290162601
-0.056137964 -0.0024286225 0.32321548 4290294187
-0.055617359 -0.0024286225 0.32321548 4290294187
-0.055054139 -0.0024267442 0.3229655 4290162599
-0.054533936 -0.0024267442 0.3229655 4290031013
-0.054013729 -0.0024267442 0.3229655 4290162601
-0.05349353 -0.0024267442 0.3229655 4290162601
-0.053014331 -0.0024286225 0.32321548 4290293933
-0.052514017 -0.0024295615 0.32334045 4290293933
-0.05199321 -0.0024295615 0.32334045 4290228910
-0.0515122 -0.0024314397 0.32359043 4290163117
-0.051207636 -0.0024417702 0.32496527 4289900458
-0.051152065 -0.0024643098 0.32796496 4289966251
-0.051183298 -0.0024915449 0.33158958 4289966253
-0.050649203 -0.0024915449 0.33158958 4290097839
-0.050058439 -0.0024887274 0.33121461 4289966253
-0.049524948 -0.0024887274 0.33121461 4289900460
-0.048566252 -0.0024671273 0.32833993 4289965740
-0.048037391 -0.0024671273 0.32833993 4290163119
-0.04720109 -0.0024511619 0.32621515 4290163119
-0.046639886 -0.0024492834 0.32596517 4289965740
-0.04607949 -0.0024474054 0.32571521 4289965487
-0.045554858 -0.0024474054 0.32571521 4290031280
-0.045030225 -0.0024474054 0.32571521 4290031280
-0.044676367 -0.0024567966 0.32696506 4289965487
-0.044284742 -0.0024643098 0.32796496 4289965740
-0.043889891 -0.002471823 0.32896486 4289965740
-0.043425918 -0.0024755795 0.32946479 4290229164
-0.042976614 -0.0024802752 0.33008975 4290031785
-0.04249315 -0.0024830925 0.33046469 4290031015
-0.041960869 -0.0024830925 0.33046469 4290096808
-0.041459922 -0.002484971 0.33071467 4290162601
-0.040958174 -0.0024868492 0.33096465 4290096808
-0.040516686 -0.0024924842 0.33171457 4290294187
-0.040042646 -0.0024962407 0.3322145 4290162601
-0.039507546 -0.0024962407 0.3322145 4290096808
-0.03900177 -0.0024981189 0.33246449 4290096808
-0.038524114 -0.0025018754 0.33296442 4289900199
-0.038044844 -0.0025056321 0.33346438 4289900199
-0.037592079 -0.0025112669 0.3342143 4290031785
-0.037053756 -0.0025112669 0.3342143 4290031785
-0.036570057 -0.0025150233 0.33471423 4289965992
-0.036098205 -0.0025197193 0.33533919 4289965992
-0.035624336 -0.002524415 0.33596411 4290491566
-0.0351354 -0.0025281713 0.33646405 4290031015
-0.034593455 -0.0025281713 0.33646405 4290096808
-0.034102108 -0.002531928 0.33696401 4290096808
-0.033609148 -0.0025356845 0.33746395 4290096808
-0.033139072 -0.0025413195 0.33821386 4290096808
-0.032678626 -0.0025478934 0.33908877 4289965992
-0.032203514 -0.0025535282 0.33983868 4289900199
-0.031656131 -0.0025535282 0.33983868 4289834406
-0.031200282 -0.0025610414 0.34083858 4289834406
-0.03075245 -0.0025694938 0.34196347 4289965992
-0.030334111 -0.0025807633 0.3434633 4289965992
-0.029943451 -0.0025948505 0.34533811 4289834406
-0.029525481 -0.0026070594 0.34696293 4289834406
-0.029081406 -0.0026173901 0.3483378 4289900199
-0.028612433 -0.0026258421 0.34946266 4289900199
-0.028079649 -0.0026286598 0.34983763 4289900199
-0.027516162 -0.0026286598 0.34983763 4289900199
-0.026991194 -0.0026324163 0.35033756 4289834406
-0.026455186 -0.0026352338 0.35071254 4289834406
-0.025927199 -0.0026389903 0.35121247 4289768613
-0.02541565 -0.002644625 0.35196239 4289768613
-0.024848741 -0.002644625 0.35196239 4289899429
-0.024333572 -0.00265026 0.35271233 4289899429
-0.023849668 -0.0026596515 0.35396218 4289702820
-0.02337818 -0.0026709209 0.35546201 4289571234
-0.022901861 -0.0026821909 0.35696188 4289702566
-0.022498883 -0.0027028518 0.35971156 4289702566
-0.022132749 -0.0027291479 0.36321118 4289702820
-0.021799831 -0.002761079 0.36746076 4289571234
-0.021583064 -0.0028099143 0.37396005 4289242269
-0.020980723 -0.0028099143 0.37396005 4289965992
-0.12434395 -0.0020002448 0.33883879 4290098866
-0.12315889 -0.0019899153 0.337089 4290164659
-0.12207036 -0.0019810614 0.33558914 4289967532
-0.12048879 -0.0019640916 0.33271447 4290099118
-0.11914178 -0.0019508104 0.33046469 4290099116
-0.11775716 -0.0019367918 0.32808995 4290164909
-0.1172287 -0.0019367918 0.32808995 4290164909
-0.11670024 -0.0019367918 0.32808995 4290164909
-0.11621605 -0.0019375297 0.32821494 4290362290
-0.11581955 -0.0019397431 0.32858989 4290164911
-0.11529028 -0.0019397431 0.32858989 4290493367
-0.1153285 -0.0019493347 0.33021471 4290295988
-0.11488351 -0.0019508104 0.33046469 4290427574
-0.11426473 -0.0019493347 0.33021471 4290295988
-0.11373286 -0.0019493347 0.33021471 4290427572
-0.11234404 -0.0019345783 0.32771498 4290427572
-0.11181619 -0.0019345783 0.32771498 4290493622
-0.11099122 -0.0019294135 0.32684007 4290427829
-0.11029582 -0.0019264623 0.32634014 4290427829
-0.10977019 -0.0019264623 0.32634014 4290164657
-0.10907717 -0.0019235109 0.32584018 4290164659
-0.10805268 -0.0019146571 0.32434034 4290362038
-0.10753026 -0.0019146571 0.32434034 4290230452
-0.1063893 -0.0019035896 0.32246554 4290230452
-0.10582888 -0.001902852 0.32234058 4290099636
-0.1048605 -0.0018947357 0.32096571 4290231222
-0.10434353 -0.0018947357 0.32096571 4290297013
-0.10386696 -0.0018954736 0.3210907 4290099634
-0.10334979 -0.0018954736 0.3210907 4290231220
-0.10283261 -0.0018954736 0.3210907 4290231220
-0.10227559 -0.0018947357 0.32096571 4290427829
-0.10175861 -0.0018947357 0.32096571 4290362036
-0.10124163 -0.0018947357 0.32096571 4290230193
-0.10072464 -0.0018947357 0.32096571 4290427572
-0.10005158 -0.0018917845 0.32046577 4290230193
-0.099535406 -0.0018917845 0.32046577 4290427572
-0.099019229 -0.0018917845 0.32046577 4290295986
-0.098541476 -0.0018925223 0.32059076 4290295986
-0.097795784 -0.0018880953 0.31984082 4290295986
-0.097242609 -0.0018873576 0.31971586 4290295986
-0.096576378 -0.0018844062 0.31921589 4290295986
-0.096024603 -0.0018836684 0.3190909 4290295986
-0.095510647 -0.0018836684 0.3190909 4290230193
-0.094996676 -0.0018836684 0.3190909 4290295986
-0.094445705 -0.0018829305 0.31896591 4290230193
-0.093931943 -0.0018829305 0.31896591 4290230193
-0.093454793 -0.0018836684 0.3190909 4290295986
-0.09294083 -0.0018836684 0.3190909 4290295986
-0.092463069 -0.0018844062 0.31921589 4290296240
-0.092236929 -0.0018903088 0.32021579 4290296240
-0.091756947 -0.0018910466 0.32034078 4290164654
-0.090884984 -0.0018836684 0.3190909 4290230447
-0.090087838 -0.0018777658 0.31809101 4290033068
-0.089575477 -0.0018777658 0.31809101 4290098861
-0.088958152 -0.0018755523 0.31771606 4290295470
-0.088411599 -0.0018748145 0.31759107 4290163884
-0.087900057 -0.0018748145 0.31759107 4290295470
-0.087388515 -0.0018748145 0.31759107 4290295470
-0.086911157 -0.0018755523 0.31771606 4290229677
-0.086501375 -0.0018777658 0.31809101 4290229677
-0.086090378 -0.0018799793 0.31846598 4290229423
-0.08571177 -0.0018829305 0.31896591 4290097837
-0.085198015 -0.0018829305 0.31896591 4290163630
-0.084883355 -0.0018873576 0.31971586 4290163630
-0.084401362 -0.0018880953 0.31984082 4290294957
-0.083886184 -0.0018880953 0.31984082 4289834406
-0.083240703 -0.001885144 0.31934088 4290229162
-0.082629204 -0.0018829305 0.31896591 4290031783
-0.082051091 -0.001881455 0.31871596 4290229162
-0.081537738 -0.001881455 0.31871596 4290229162
-0.080992609 -0.0018807171 0.31859097 4290031783
-0.080479443 -0.0018807171 0.31859097 4290163369
-0.0800604 -0.0018829305 0.31896591 4290163371
-0.079671323 -0.0018858819 0.31946588 4290031785
-0.079156756 -0.0018858819 0.31946588 4289966505
-0.078611419 -0.001885144 0.31934088 4289966505
-0.078097053 -0.001885144 0.31934088 4290097837
-0.077248685 -0.001877028 0.31796604 4290163630
-0.076434888 -0.0018696497 0.31671616 4289900712
-0.075924754 -0.0018696497 0.31671616 4289966505
-0.075384855 -0.0018689119 0.31659117 4289900712
-0.074874915 -0.0018689119 0.31659117 4289966505
-0.074364983 -0.0018689119 0.31659117 4290098089
-0.07394252 -0.0018711254 0.31696615 4290098089
-0.073460937 -0.0018718633 0.31709114 4289571234
-0.072950192 -0.0018718633 0.31709114 4289571234
-0.072467998 -0.001872601 0.3172161 4289900712
-0.071957059 -0.001872601 0.3172161 4289834919
-0.071446113 -0.001872601 0.3172161 4289834919
-0.070935175 -0.001872601 0.3172161 4289900712
-0.070313238 -0.0018696497 0.31671616 4289900712
-0.069803104 -0.0018696497 0.31671616 4289900712
-0.06929297 -0.0018696497 0.31671616 4289966251
-0.068837121 -0.0018711254 0.31696615 4289900458
-0.06838046 -0.001872601 0.3172161 4289966251
-0.067923002 -0.0018740767 0.31746608 4289900458
-0.067491286 -0.0018762902 0.31784105 4289965738
-0.066979334 -0.0018762902 0.31784105 4289965738
-0.066493519 -0.001877028 0.31796604 4289965738
-0.066085108 -0.0018799793 0.31846598 4290031531
-0.065778032 -0.0018858819 0.31946588 4289834152
-0.065416671 -0.0018903088 0.32021579 4289965738
-0.064900897 -0.0018903088 0.32021579 4290031785
-0.064661555 -0.0018984248 0.32159063 4289965992
-0.064343005 -0.0019043274 0.32259053 4289965992
-0.063872859 -0.0019058032 0.32284051 4290031785
-0.063377388 -0.0019065411 0.3229655 4289966505
-0.062565282 -0.0018976872 0.32146567 4289966505
-0.061950993 -0.0018947357 0.32096571 4290031785
-0.061434012 -0.0018947357 0.32096571 4290031785
-0.060822148 -0.0018917845 0.32046577 4290031785
-0.06028245 -0.0018910466 0.32034078 4289965992
-0.059766471 -0.0018910466 0.32034078 4289965738
-0.059273615 -0.0018917845 0.32046577 4290031531
-0.0588491 -0.0018947357 0.32096571 4290031531
-0.058332123 -0.0018947357 0.32096571 4289965738
-0.057950221 -0.0018991627 0.32171562 4289965992
-0.057945214 -0.0019161328 0.32459033 4289965992
-0.057488725 -0.0019183462 0.32496527 4289965992
-0.056987207 -0.001919084 0.32509026 4289965992
-0.056463588 -0.001919084 0.32509026 4290031785
-0.055703387 -0.001910968 0.32371542 4290163371
-0.055054139 -0.0019065411 0.3229655 4290031783
-0.054533936 -0.0019065411 0.3229655 4290031783
-0.054013729 -0.0019065411 0.3229655 4290031785
-0.05349353 -0.0019065411 0.3229655 4290031785
-0.053014331 -0.0019080167 0.32321548 4290031531
-0.052514017 -0.0019087543 0.32334045 4290031531
-0.05199321 -0.0019087543 0.32334045 4290163117
-0.0515122 -0.0019102301 0.32359043 4290031531
-0.051207636 -0.0019183462 0.32496527 4289900458
-0.051152065 -0.001936054 0.32796496 4289966251
-0.051202592 -0.0019581888 0.33171457 4289966253
-0.050744656 -0.00196114 0.3322145 4290097839
-0.049963992 -0.0019515484 0.33058968 4290031533
-0.049431507 -0.0019515484 0.33058968 4289965740
-0.048547763 -0.0019375297 0.32821494 4289900460
-0.048019104 -0.0019375297 0.32821494 4290097839
-0.04720109 -0.0019257244 0.32621515 4289900460
-0.046639886 -0.0019242488 0.32596517 4289834667
-0.04607949 -0.0019227732 0.32571521 4289702828
-0.045554858 -0.0019227732 0.32571521 4289900207
-0.045030225 -0.0019227732 0.32571521 4289900460
-0.044676367 -0.0019301514 0.32696506 4289900460
-0.044284742 -0.001936054 0.32796496 4290031531
-0.043889891 -0.0019419566 0.32896486 4289965738
-0.043425918 -0.0019449078 0.32946479 4290228910
-0.042976614 -0.0019485971 0.33008975 4290228910
-0.04249315 -0.0019508104 0.33046469 4290031015
-0.041960869 -0.0019508104 0.33046469 4290096808
-0.041459922 -0.0019522862 0.33071467 4290162601
-0.040958174 -0.0019537618 0.33096465 4290096808
-0.040516686 -0.0019581888 0.33171457 4290162601
-0.040042646 -0.00196114 0.3322145 4290162601
-0.039507546 -0.00196114 0.3322145 4290096808
-0.03900177 -0.0019626156 0.33246449 4290096808
-0.038524114 -0.001965567 0.33296442 4289900199
-0.038044844 -0.0019685184 0.33346438 4289834406
-0.037592079 -0.0019729454 0.3342143 4289965992
-0.037053756 -0.0019729454 0.3342143 4290031785
-0.036570057 -0.0019758965 0.33471423 4289965992
-0.036098205 -0.0019795857 0.33533919 4289965992
-0.035624336 -0.0019832749 0.33596411 4290031015
-0.0351354 -0.0019862261 0.33646405 4289965222
-0.034593455 -0.0019862261 0.33646405 4290096808
-0.034102108 -0.0019891774 0.33696401 4290031015
-0.033609148 -0.0019921288 0.33746395 4290031015
-0.033139072 -0.0019965556 0.33821386 4290031015
-0.032678626 -0.0020017205 0.33908877 4289900199
-0.032203514 -0.0020061473 0.33983868 4289900199
-0.031656131 -0.0020061473 0.33983868 4289768613
-0.031200282 -0.00201205 0.34083858 4289768613
-0.03075245 -0.0020186906 0.34196347 4289900199
-0.030334111 -0.0020275444 0.3434633 4289900199
-0.029943451 -0.0020386118 0.34533811 4289834406
-0.029525481 -0.0020482035 0.34696293 4289834406
-0.029081406 -0.0020563197 0.3483378 4289900199
-0.028612433 -0.0020629598 0.34946266 4289834406
-0.028079649 -0.0020651736 0.34983763 4289834406
-0.027516162 -0.0020651736 0.34983763 4289834406
-0.026991194 -0.0020681247 0.35033756 4289768613
-0.026455186 -0.0020703382 0.35071254 4289834406
-0.025927199 -0.0020732896 0.35121247 4289768613
-0.02541565 -0.0020777164 0.35196239 4289768613
-0.024848741 -0.0020777164 0.35196239 4289702820
-0.024333572 -0.0020821434 0.35271233 4289768613
-0.023849668 -0.0020895216 0.35396218 4289702820
-0.02337818 -0.0020983755 0.35546201 4289571234
-0.022901861 -0.0021072295 0.35696188 4289702820
-0.022498883 -0.0021234616 0.35971156 4289571234
-0.022132749 -0.0021441206 0.36321118 4289439648
-0.021799831 -0.002169207 0.36746076 4289439648
-0.021583064 -0.0022075737 0.37396005 4289703081
-0.020980723 -0.0022075737 0.37396005 4287531912
-0.020426059 -0.0022127386 0.37483495 4284439128
-0.12434395 -0.0014544744 0.33883879 4290098609
-0.12315889 -0.0014469634 0.337089 4290164402
-0.12261593 -0.0014469634 0.337089 4290033071
-0.12048879 -0.0014281856 0.33271447 4290033071
-0.11995289 -0.0014281856 0.33271447 4289967532
-0.1186095 -0.0014185284 0.33046469 4290033325
-0.11807722 -0.0014185284 0.33046469 4290098864
-0.1167447 -0.0014088713 0.32821494 4290098864
-0.11621605 -0.0014088713 0.32821494 4290230450
-0.11648037 -0.0014185284 0.33046469 4290164657
-0.11599194 -0.0014190649 0.33058968 4290427574
-0.11545946 -0.0014190649 0.33058968 4290427574
-0.11549182 -0.0014260395 0.3322145 4290427574
-0.11474048 -0.0014233569 0.33158958 4290230195
-0.1142064 -0.0014233569 0.33158958 4290295986
-0.11251543 -0.0014088713 0.32821494 4290295986
-0.11198678 -0.0014088713 0.32821494 4290559158
-0.11120345 -0.0014056523 0.32746503 4290295986
-0.11054927 -0.0014040427 0.32709005 4290493365
-0.11002243 -0.0014040427 0.32709005 4290295986
-0.10945374 -0.0014035061 0.32696506 4290295988
-0.10855234 -0.0013986775 0.32584018 4290493367
-0.1080275 -0.0013986775 0.32584018 4290295988
-0.10688414 -0.00139063 0.3239654 4290295988
-0.10582888 -0.0013836554 0.32234058 4290230452
-0.10530967 -0.0013836554 0.32234058 4290230452
-0.10470922 -0.0013825824 0.3220906 4290099636
-0.10394783 -0.0013793634 0.32134068 4290099636
-0.10343025 -0.0013793634 0.32134068 4290099636
-0.10291266 -0.0013793634 0.32134068 4290099636
-0.1024349 -0.0013798998 0.32146567 4290362036
-0.10191712 -0.0013798998 0.32146567 4290362036
-0.10139934 -0.0013798998 0.32146567 4290295986
-0.10088155 -0.0013798998 0.32146567 4290427572
-0.10036376 -0.0013798998 0.32146567 4290230193
-0.099845968 -0.0013798998 0.32146567 4290427572
-0.099250942 -0.0013788268 0.32121569 4290295986
-0.098541476 -0.0013761442 0.32059076 4290295986
-0.097795784 -0.0013729251 0.31984082 4290295986
-0.097280622 -0.0013729251 0.31984082 4290230193
-0.096765444 -0.0013729251 0.31984082 4290295986
-0.096287891 -0.0013734617 0.31996581 4290230193
-0.09577252 -0.0013734617 0.31996581 4290295986
-0.095257148 -0.0013734617 0.31996581 4290295986
-0.094741777 -0.0013734617 0.31996581 4290296240
-0.094226398 -0.0013734617 0.31996581 4290164654
-0.093747638 -0.0013739981 0.3200908 4290230447
-0.093232073 -0.0013739981 0.3200908 4290296240
-0.092788905 -0.0013750712 0.32034078 4290427826
-0.092344932 -0.0013761442 0.32059076 4290427826
-0.092079155 -0.0013798998 0.32146567 4290361263
-0.091205373 -0.0013745347 0.32021579 4290361263
-0.090335622 -0.0013691696 0.31896591 4290229677
-0.089821853 -0.0013691696 0.31896591 4290163884
-0.089133121 -0.001366487 0.31834099 4290294957
-0.088620365 -0.001366487 0.31834099 4290294957
-0.088107616 -0.001366487 0.31834099 4290360750
-0.087594859 -0.001366487 0.31834099 4290294957
-0.087082103 -0.001366487 0.31834099 4290229677
-0.086603343 -0.0013670236 0.31846598 4290229677
-0.086225525 -0.0013691696 0.31896591 4290229423
-0.085846119 -0.0013713157 0.31946588 4290163630
-0.085331559 -0.0013713157 0.31946588 4290228910
-0.085148811 -0.0013766807 0.32071573 4290228910
-0.08463224 -0.0013766807 0.32071573 4290228910
-0.084115654 -0.0013766807 0.32071573 4290031531
-0.083468765 -0.0013745347 0.32021579 4290163371
-0.082758725 -0.0013713157 0.31946588 4290031785
-0.0821798 -0.0013702426 0.31921589 4290163371
-0.081665635 -0.0013702426 0.31921589 4290229164
-0.081151478 -0.0013702426 0.31921589 4290163369
-0.080700457 -0.0013713157 0.31946588 4290229162
-0.080248639 -0.0013723887 0.31971586 4290031783
-0.079889521 -0.0013750712 0.32034078 4289965990
-0.079373538 -0.0013750712 0.32034078 4289965992
-0.07867296 -0.0013718522 0.31959087 4290031785
-0.078158192 -0.0013718522 0.31959087 4289900712
-0.077370137 -0.0013670236 0.31846598 4290098091
-0.07658571 -0.001362195 0.31734109 4290098091
-0.076044597 -0.0013616584 0.3172161 4289966505
-0.075533658 -0.0013616584 0.3172161 4289966503
-0.074963599 -0.0013605856 0.31696615 4289966503
-0.074453063 -0.0013605856 0.31696615 4290229675
-0.074000828 -0.0013616584 0.3172161 4289834917
-0.073518842 -0.001362195 0.31734109 4289768613
-0.073007695 -0.001362195 0.31734109 4289834406
-0.072525106 -0.0013627314 0.31746608 4289900199
-0.072013766 -0.0013627314 0.31746608 4289834406
-0.071502417 -0.0013627314 0.31746608 4289834919
-0.070963122 -0.001362195 0.31734109 4289900712
-0.070424229 -0.0013616584 0.3172161 4289834919
-0.069913283 -0.0013616584 0.3172161 4289834919
-0.069457039 -0.0013627314 0.31746608 4289966251
-0.068945691 -0.0013627314 0.31746608 4289900458
-0.068542123 -0.0013648776 0.31796604 4289899945
-0.06802997 -0.0013648776 0.31796604 4290031531
-0.067570902 -0.0013659506 0.318216 4290031785
-0.067058347 -0.0013659506 0.318216 4289965992
-0.066598065 -0.0013670236 0.31846598 4289965992
-0.066240728 -0.0013702426 0.31921589 4290031785
-0.065880969 -0.0013734617 0.31996581 4289768613
-0.065518804 -0.0013766807 0.32071573 4289900199
-0.065002218 -0.0013766807 0.32071573 4289965992
-0.064661555 -0.0013804362 0.32159063 4289965992
-0.064343005 -0.0013847284 0.32259053 4289900199
-0.06384813 -0.0013852648 0.32271552 4289900199
-0.063352861 -0.0013858014 0.32284051 4289834919
-0.06278421 -0.0013847284 0.32259053 4289900712
-0.062071614 -0.0013804362 0.32159063 4289965992
-0.061481856 -0.0013788268 0.32121569 4289900199
-0.060964476 -0.0013788268 0.32121569 4289900199
-0.06040005 -0.0013777537 0.32096571 4289965992
-0.059883066 -0.0013777537 0.32096571 4289900458
-0.059366081 -0.0013777537 0.32096571 4289900458
-0.058940768 -0.0013798998 0.32146567 4289900458
-0.058422983 -0.0013798998 0.32146567 4289834665
-0.057995249 -0.0013820458 0.32196561 4289834665
-0.057922903 -0.001392776 0.32446533 4289900458
-0.057754058 -0.0014013601 0.32646513 4289834665
-0.057272036 -0.001402433 0.32671508 4289900458
-0.056724094 -0.0014018967 0.32659012 4290031785
-0.056004483 -0.001397068 0.32546523 4290163371
-0.055224586 -0.00139063 0.3239654 4290163369
-0.05470277 -0.00139063 0.3239654 4290229162
-0.054139148 -0.0013895569 0.32371542 4290163371
-0.053576335 -0.0013884839 0.32346544 4289900199
-0.053055327 -0.0013884839 0.32346544 4289965738
-0.052574918 -0.0013895569 0.32371542 4290031531
-0.052073605 -0.0013900935 0.32384041 4289966251
-0.051551994 -0.0013900935 0.32384041 4289966251
-0.051345501 -0.0013986775 0.32584018 4289900458
-0.051385991 -0.0014142363 0.32946479 4289900458
