# .PCD v0.7 - Point Cloud Data file format
VERSION 0.7
FIELDS x y z rgba
SIZE 4 4 4 4
TYPE F F F U
COUNT 1 1 1 1
WIDTH 1011
HEIGHT 1
VIEWPOINT 0 0 0 1 0 0 0
POINTS 1011
DATA ascii
0.040367689 -0.071589492 0.36233628 4294573309
0.040979557 -0.071638882 0.36258626 4294639102
0.041563578 -0.071638882 0.36258626 4294639102
0.042162128 -0.071663581 0.36271125 4294441721
0.04279054 -0.071737662 0.36308622 4294441721
0.043405227 -0.071787052 0.36333618 4294639353
0.043990456 -0.071787052 0.36333618 4294639353
0.044606354 -0.071836442 0.36358616 4294573560
0.045207519 -0.071861133 0.36371115 4294507767
0.045824826 -0.07191053 0.36396113 4294638330
0.046442937 -0.071959913 0.36421108 4294572537
0.047029573 -0.071959913 0.36421108 4294244342
0.047648892 -0.072009303 0.36446106 4294310135
0.048269019 -0.072058693 0.36471105 4294441721
0.048889946 -0.072108075 0.364961 4294639100
0.049511682 -0.072157472 0.36521098 4294639100
0.050099932 -0.072157472 0.36521098 4294573307
0.050722871 -0.072206862 0.36546096 4294573307
0.051364165 -0.072280943 0.36583591 4294507514
0.052006673 -0.072355025 0.36621088 4294507767
0.052596532 -0.072355025 0.36621088 4294507767
0.053277146 -0.072478496 0.3668358 4294376951
0.053959787 -0.072601974 0.36746076 4293982193
0.054662988 -0.072750144 0.36821067 4294376951
0.055349849 -0.072873615 0.3688356 4294179572
0.056019764 -0.072972387 0.36933553 4294245625
0.056614652 -0.072972387 0.36933553 4294114039
0.057267629 -0.073046476 0.36971051 4294310907
0.05790225 -0.073095866 0.36996049 4293981942
0.058577199 -0.073194638 0.37046042 4293850358
0.0592338 -0.073268726 0.37083539 4293850358
0.059831101 -0.073268726 0.37083539 4293652977
0.060530242 -0.073392197 0.37146032 4293455598
0.061231397 -0.073515669 0.37208524 4293389035
0.061996877 -0.073713228 0.37308514 4293323242
0.062765568 -0.07391078 0.37408504 4293585387
0.063368112 -0.07391078 0.37408504 4293256422
0.064141646 -0.07410834 0.37508494 4293124836
0.064896822 -0.074281201 0.37595984 4293059043
0.065676592 -0.07447876 0.37695974 4292862691
0.066415623 -0.07462693 0.37770966 4293060070
0.067157075 -0.074775092 0.37845957 4293256679
0.067766666 -0.074775092 0.37845957 4293190886
0.068489157 -0.074898563 0.3790845 4293124836
0.069213666 -0.075022034 0.37970942 4292861664
0.069963172 -0.075170204 0.38045937 4293782768
0.070715092 -0.075318374 0.38120928 4292993252
0.071329109 -0.075318374 0.38120928 4292927455
0.072131835 -0.075515933 0.38220918 4292795869
0.072913989 -0.075688794 0.38308409 4292861915
0.073746927 -0.075911038 0.38420895 4292861915
0.0746077 -0.076157987 0.38545883 4292861919
0.075472489 -0.076404929 0.38670868 4292796126
0.076095365 -0.076404929 0.38670868 4292796128
0.076941401 -0.07662718 0.38783357 4292730335
0.077791065 -0.076849438 0.38895845 4292861921
0.078694746 -0.077121072 0.39033329 4292796128
0.079679057 -0.077466793 0.39208311 4292796128
0.080669008 -0.077812523 0.39383292 4292532956
0.081561379 -0.078059472 0.3950828 4292466904
0.082197741 -0.078059472 0.3950828 4292072146
0.083096154 -0.078306414 0.39633265 4291743440
0.083919376 -0.078479275 0.39720756 4292072405
0.084718809 -0.078627437 0.39795747 4286808708
-0.051377185 -0.075463645 0.38508385 4290229423
-0.050559238 -0.075169727 0.38358402 4290492336
-0.049941394 -0.075169727 0.38358402 4290492336
-0.049516413 -0.075463645 0.38508385 4290689715
-0.049086597 -0.075757563 0.38658369 4290755508
-0.048777301 -0.076247431 0.38908345 4290755508
-0.048258875 -0.076418884 0.38995835 4290821301
-0.047630768 -0.076418884 0.38995835 4290952633
-0.046882138 -0.076222934 0.38895845 4291150012
-0.045988094 -0.075782053 0.38670868 4290952633
-0.045365218 -0.075782053 0.38670868 4291150012
-0.044655576 -0.075635098 0.38595876 4291281598
-0.043976873 -0.075537123 0.38545883 4291281598
-0.04332789 -0.075488135 0.38520885 4291347391
-0.042707436 -0.075488135 0.38520885 4291281598
-0.042059664 -0.075439148 0.38495886 4291347391
-0.041426152 -0.075414658 0.38483387 4291413184
-0.040806297 -0.075414658 0.38483387 4291413184
-0.040186439 -0.075414658 0.38483387 4291413184
-0.039540887 -0.07536567 0.38458392 4291610563
-0.038769644 -0.075071752 0.38308409 4291610563
-0.038152609 -0.075071752 0.38308409 4291544770
-0.037229408 -0.074459419 0.3799594 4291610563
-0.036617406 -0.074459419 0.3799594 4291676356
-0.03569746 -0.073822595 0.37670976 4291610563
-0.035044119 -0.07372462 0.3762098 4291544770
-0.034358066 -0.073553167 0.37533489 4291676356
-0.033753511 -0.073553167 0.37533489 4291676356
-0.033093765 -0.073430702 0.37470996 4291676356
-0.032446869 -0.073332734 0.37421003 4291610563
-0.031844124 -0.073332734 0.37421003 4291610563
-0.031241382 -0.073332734 0.37421003 4291611076
-0.03061817 -0.073283747 0.37396005 4291611076
-0.030015832 -0.073283747 0.37396005 4291676871
-0.029403659 -0.073259249 0.37383506 4291611078
-0.028801521 -0.073259249 0.37383506 4291742151
-0.028161669 -0.073161282 0.37333512 4291807944
-0.027486522 -0.072965339 0.37233523 4291742151
-0.026841672 -0.072842874 0.3717103 4291742151
-0.026242953 -0.072842874 0.3717103 4291742151
-0.025601123 -0.072720401 0.37108535 4291742151
-0.024969727 -0.072622433 0.37058541 4291873737
-0.024372824 -0.072622433 0.37058541 4291807944
-0.023751859 -0.072548948 0.37021044 4292005070
-0.023147739 -0.072524451 0.37008545 4292005070
-0.022544026 -0.072499968 0.36996049 4292005323
-0.021948129 -0.072499968 0.36996049 4292071116
-0.021330588 -0.072426483 0.36958551 4292071116
-0.020700233 -0.072304018 0.36896059 4292005323
-0.020051457 -0.072108075 0.36796069 4292136909
-0.01945878 -0.072108075 0.36796069 4292334288
-0.018821245 -0.071936622 0.36708578 4292202702
-0.01818032 -0.071740672 0.36608589 4292268495
-0.017590662 -0.071740672 0.36608589 4292202702
-0.016960373 -0.071569219 0.36521098 4292136909
-0.016344111 -0.071446754 0.36458606 4292136656
-0.015746066 -0.071397766 0.36433607 4292202449
-0.015159227 -0.071397766 0.36433607 4292202449
-0.014567389 -0.071373276 0.36421108 4292202449
-0.013980751 -0.071373276 0.36421108 4292202962
-0.01337113 -0.071250811 0.36358616 4292268755
-0.012785499 -0.071250811 0.36358616 4292400341
-0.012174706 -0.071103849 0.36283624 4292400341
-0.01157032 -0.070981383 0.36221132 4292400594
-0.010979321 -0.070932396 0.36196133 4292400594
-0.010396306 -0.070932396 0.36196133 4292466387
-0.0098099038 -0.070907906 0.36183634 4292597973
-0.0092239045 -0.070883408 0.36171135 4292597720
-0.0086412933 -0.070883408 0.36171135 4292531927
-0.0080586812 -0.070883408 0.36171135 4292531927
-0.00747607 -0.070883408 0.36171135 4292597720
-0.0068910765 -0.070858918 0.36158636 4292729046
-0.006308666 -0.070858918 0.36158636 4292729046
-0.005734174 -0.070956893 0.36208633 4292597460
-0.0051918528 -0.071520232 0.364961 4292794839
-0.0046166214 -0.071716182 0.3659609 4292860894
-0.0040257894 -0.071691684 0.36583591 4292729308
-0.0034060087 -0.071054861 0.36258626 4293322215
-0.002821988 -0.071054861 0.36258626 4292598492
-0.0022279387 -0.070736453 0.36096144 4293188576
-0.0016442547 -0.070638478 0.3604615 4293320162
-0.0010621811 -0.070540503 0.35996154 4293450721
-0.00048238816 -0.070540503 0.35996154 4293450721
9.7404794e-05 -0.070540503 0.35996154 4293384928
0.00067743286 -0.070565 0.36008653 4293384928
0.0012574272 -0.070565 0.36008653 4293188063
0.0018374214 -0.070565 0.36008653 4293122270
0.0024174156 -0.070565 0.36008653 4293385442
0.00299741 -0.070565 0.36008653 4293319649
0.0035761625 -0.070540503 0.35996154 4293320162
0.0041559553 -0.070540503 0.35996154 4293320162
0.0047357483 -0.070540503 0.35996154 4293123555
0.0053136959 -0.070516013 0.35983655 4293452520
0.0058891936 -0.070467025 0.3595866 4293254889
0.0064638858 -0.070418037 0.35933661 4293320682
0.0070426725 -0.070418037 0.35933661 4293648877
0.0076161567 -0.07036905 0.35908663 4293846256
0.0081888353 -0.070320062 0.35883665 4293846254
0.0087607102 -0.070271082 0.3585867 4292925152
0.0093382886 -0.070271082 0.3585867 4293451496
0.0099089546 -0.070222095 0.35833672 4293648875
0.010482473 -0.070197597 0.35821173 4293780715
0.011051729 -0.07014861 0.35796174 4293846508
0.011628301 -0.07014861 0.35796174 4293714922
0.012192089 -0.070075132 0.3575868 4293583336
0.012763593 -0.070050642 0.35746181 4293452520
0.013334697 -0.070026144 0.35733682 4293584106
0.013910262 -0.070026144 0.35733682 4293715690
0.01448076 -0.070001654 0.35721183 4293913069
0.015056124 -0.070001654 0.35721183 4293781483
0.015626019 -0.069977157 0.35708684 4292926174
0.016201181 -0.069977157 0.35708684 4294044657
0.016770473 -0.069952667 0.35696188 4293978864
0.017345434 -0.069952667 0.35696188 4293913071
0.017920395 -0.069952667 0.35696188 4293715692
0.018495357 -0.069952667 0.35696188 4293847537
0.019070318 -0.069952667 0.35696188 4294308088
0.019645279 -0.069952667 0.35696188 4293782516
0.020227319 -0.069977157 0.35708684 4293914102
0.020809764 -0.070001654 0.35721183 4294177526
0.021392612 -0.070026144 0.35733682 4293585389
0.021968177 -0.070026144 0.35733682 4293783023
0.022551628 -0.070050642 0.35746181 4293848816
0.02313548 -0.070075132 0.3575868 4293519849
0.023719737 -0.070099629 0.35771179 4293454056
0.024295904 -0.070099629 0.35771179 4293914609
0.024872076 -0.070099629 0.35771179 4294177781
0.025448242 -0.070099629 0.35771179 4293980402
0.026033506 -0.07012412 0.35783678 4293980402
0.026609879 -0.07012412 0.35783678 4294243319
0.027186247 -0.07012412 0.35783678 4294309112
0.027772315 -0.07014861 0.35796174 4293979893
0.028348884 -0.07014861 0.35796174 4293979893
0.028925458 -0.07014861 0.35796174 4294374651
0.029502029 -0.07014861 0.35796174 4294243065
0.030078601 -0.07014861 0.35796174 4294374135
0.030655174 -0.07014861 0.35796174 4294439928
0.03124265 -0.070173107 0.35808674 4294570229
0.031830531 -0.070197597 0.35821173 4294570229
0.032407504 -0.070197597 0.35821173 4294966271
0.032995988 -0.070222095 0.35833672 4294505721
0.033584874 -0.070246585 0.35846171 4294177783
0.034186076 -0.070295572 0.35871169 4294243576
0.034763858 -0.070295572 0.35871169 4294310139
0.035390891 -0.070393547 0.35921162 4294441725
0.036032051 -0.070516013 0.35983655 4294441723
0.036687944 -0.070662968 0.36058646 4294310137
0.037333336 -0.070785441 0.36121142 4294572539
0.037954502 -0.070858918 0.36158636 4294638332
0.03853691 -0.070858918 0.36158636 4294704125
0.039159887 -0.070932396 0.36196133 4294309367
0.039756622 -0.070956893 0.36208633 4294441723
0.040367689 -0.071005873 0.36233628 4294573309
0.040979557 -0.071054861 0.36258626 4294508286
0.041563578 -0.071054861 0.36258626 4294508286
0.042162128 -0.071079358 0.36271125 4294441721
0.04279054 -0.071152836 0.36308622 4294507514
0.043405227 -0.071201824 0.36333618 4294573307
0.043990456 -0.071201824 0.36333618 4294639100
0.044606354 -0.071250811 0.36358616 4294507514
0.045207519 -0.071275301 0.36371115 4294441721
0.045824826 -0.071324289 0.36396113 4294507514
0.046442937 -0.071373276 0.36421108 4294507514
0.047029573 -0.071373276 0.36421108 4294507514
0.047648892 -0.071422264 0.36446106 4294112756
0.048269019 -0.071471252 0.36471105 4294638332
0.048889946 -0.071520232 0.364961 4294638332
0.049511682 -0.071569219 0.36521098 4294769918
0.050099932 -0.071569219 0.36521098 4294704125
0.050722871 -0.071618207 0.36546096 4294704123
0.051364165 -0.071691684 0.36583591 4294704123
0.052006673 -0.07176517 0.36621088 4294704123
0.052596532 -0.07176517 0.36621088 4294572537
0.053277146 -0.071887635 0.3668358 4294507767
0.053959787 -0.0720101 0.36746076 4293981423
0.054662988 -0.072157063 0.36821067 4294311158
0.055349849 -0.072279528 0.3688356 4294179572
0.056019764 -0.072377495 0.36933553 4294245625
0.056614652 -0.072377495 0.36933553 4294114039
0.057267629 -0.072450981 0.36971051 4294114041
0.057921808 -0.072524451 0.37008545 4293982455
0.058577199 -0.072597936 0.37046042 4293981942
0.0592338 -0.072671421 0.37083539 4294376700
0.059831101 -0.072671421 0.37083539 4293718770
0.060530242 -0.072793886 0.37146032 4293521391
0.061231397 -0.072916344 0.37208524 4293651437
0.061996877 -0.073112294 0.37308514 4293322472
0.062765568 -0.073308237 0.37408504 4293453803
0.063368112 -0.073308237 0.37408504 4293256424
0.064141646 -0.073504187 0.37508494 4292993252
0.064896822 -0.07367564 0.37595984 4292993252
0.065676592 -0.07387159 0.37695974 4292862691
0.066415623 -0.074018545 0.37770966 4292928484
0.067157075 -0.074165501 0.37845957 4292927714
0.067766666 -0.074165501 0.37845957 4293059300
0.068511739 -0.074312463 0.37920949 4293059043
0.06923645 -0.074434929 0.37983441 4292993250
0.06998615 -0.074581884 0.38058433 4293848818
0.070738278 -0.074728847 0.38133428 4292467165
0.071352497 -0.074728847 0.38133428 4293454056
0.072131835 -0.074900299 0.38220918 4292993505
0.072937772 -0.075096242 0.38320905 4292796126
0.073746927 -0.075292192 0.38420895 4292861919
0.0746077 -0.075537123 0.38545883 4293059041
0.07549689 -0.075806551 0.38683367 4293059041
0.076119967 -0.075806551 0.38683367 4292796126
0.076966196 -0.076026991 0.38795856 4292664540
0.077841058 -0.076271921 0.38920841 4292861919
0.078745142 -0.076541349 0.39058328 4292861919
0.079704456 -0.076859757 0.3922081 4292664540
0.080669008 -0.077178173 0.39383292 4292335575
0.081561379 -0.077423103 0.3950828 4292270035
0.082197741 -0.077423103 0.3950828 4291941070
0.083096154 -0.077668034 0.39633265 4291611852
0.083919376 -0.077839486 0.39720756 4292269782
0.084718809 -0.077986442 0.39795747 4287136901
-0.051377185 -0.074843392 0.38508385 4290295218
-0.050756924 -0.074843392 0.38508385 4290689461
-0.050136667 -0.074843392 0.38508385 4290623668
-0.049693201 -0.075110607 0.38645872 4290623668
-0.049277041 -0.0754264 0.38808355 4290755254
-0.048918322 -0.075839356 0.3902083 4290755254
-0.048351679 -0.075936526 0.39070827 4290821047
-0.047722366 -0.075936526 0.39070827 4290952633
-0.046987593 -0.075766489 0.38983336 4291084219
-0.046077274 -0.075304933 0.38745859 4291084221
-0.045453191 -0.075304933 0.38745859 4291150014
-0.044655576 -0.075013436 0.38595876 4291281600
-0.04400539 -0.074964851 0.38570878 4291347393
-0.04334195 -0.074891977 0.38533384 4291347391
-0.042721294 -0.074891977 0.38533384 4291281598
-0.042073317 -0.074843392 0.38508385 4291347391
-0.041439608 -0.074819095 0.38495886 4291347391
-0.040806297 -0.074794807 0.38483387 4291347391
-0.040186439 -0.074794807 0.38483387 4291413184
-0.039566588 -0.074794807 0.38483387 4291544770
-0.038794942 -0.074503303 0.38333404 4291610563
-0.038177505 -0.074503303 0.38333404 4291610563
-0.037229408 -0.073847421 0.3799594 4291544770
-0.036617406 -0.073847421 0.3799594 4291544770
-0.03569746 -0.073215835 0.37670976 4291610563
-0.035044119 -0.073118664 0.3762098 4291544770
-0.03436951 -0.072972909 0.37545988 4291610563
-0.03376475 -0.072972909 0.37545988 4291544770
-0.033104803 -0.072851457 0.37483495 4291610563
-0.032457706 -0.072754286 0.37433502 4291742149
-0.031844124 -0.072729997 0.37421003 4291742149
-0.031241382 -0.072729997 0.37421003 4291611076
-0.03061817 -0.072681412 0.37396005 4291676869
-0.030015832 -0.072681412 0.37396005 4291545285
-0.029403659 -0.072657116 0.37383506 4291611078
-0.028801521 -0.072657116 0.37383506 4291742151
-0.028161669 -0.072559953 0.37333512 4291807944
-0.027486522 -0.072365619 0.37233523 4291742151
-0.026841672 -0.07224416 0.3717103 4291742151
-0.026242953 -0.07224416 0.3717103 4291742151
-0.025609747 -0.072146989 0.37121034 4291676358
-0.024978148 -0.072049819 0.3707104 4291742151
-0.024381043 -0.072049819 0.3707104 4291807944
-0.023759879 -0.071976945 0.37033543 4292005323
-0.023155557 -0.071952648 0.37021044 4292005323
-0.022551641 -0.07192836 0.37008545 4292071116
-0.021955542 -0.07192836 0.37008545 4292071116
-0.021330588 -0.071831197 0.36958551 4292071116
-0.020700233 -0.071709737 0.36896059 4292005323
-0.020051457 -0.071515396 0.36796069 4292071376
-0.01945878 -0.071515396 0.36796069 4292202962
-0.018821245 -0.071345359 0.36708578 4292202449
-0.01818032 -0.071151018 0.36608589 4292202449
-0.017590662 -0.071151018 0.36608589 4292136909
-0.016960373 -0.070980974 0.36521098 4292202702
-0.016344111 -0.070859522 0.36458606 4292202702
-0.015746066 -0.070810929 0.36433607 4292268495
-0.015159227 -0.070810929 0.36433607 4292202702
-0.014567389 -0.07078664 0.36421108 4292202702
-0.013980751 -0.07078664 0.36421108 4292268495
-0.013380324 -0.070713766 0.36383614 4292334288
-0.01279429 -0.070713766 0.36383614 4292269008
-0.012174706 -0.070519432 0.36283624 4292203215
-0.011574312 -0.070422262 0.36233628 4292203215
-0.010979321 -0.070349388 0.36196133 4292400594
-0.010396306 -0.070349388 0.36196133 4292466387
-0.0098099038 -0.070325091 0.36183634 4292466387
-0.0092270914 -0.070325091 0.36183634 4292597720
-0.0086442791 -0.070325091 0.36183634 4292531927
-0.0080614658 -0.070325091 0.36183634 4292597207
-0.0074786535 -0.070325091 0.36183634 4292663000
-0.0068910765 -0.070276506 0.36158636 4292924889
-0.006308666 -0.070276506 0.36158636 4292793303
-0.005734174 -0.070373677 0.36208633 4292464851
-0.0051918528 -0.070932388 0.364961 4293254367
-0.0046150442 -0.071102433 0.36583591 4292860894
-0.0040202881 -0.07100527 0.36533597 4292729308
-0.0034048348 -0.070446551 0.36246127 4292992478
-0.0028210152 -0.070446551 0.36246127 4292992478
-0.0022279387 -0.070155054 0.36096144 4293582305
-0.0016436845 -0.070033595 0.36033651 4293450719
-0.0010621811 -0.069960713 0.35996154 4293713121
-0.00048238816 -0.069960713 0.35996154 4293647328
9.7404794e-05 -0.069960713 0.35996154 4293120984
0.00067719776 -0.069960713 0.35996154 4293713121
0.0012574272 -0.06998501 0.36008653 4293450719
0.0018374214 -0.06998501 0.36008653 4293319133
0.0024174156 -0.06998501 0.36008653 4293450719
0.0029963695 -0.069960713 0.35996154 4293450719
0.0035761625 -0.069960713 0.35996154 4293582305
0.0041559553 -0.069960713 0.35996154 4293648098
0.0047357483 -0.069960713 0.35996154 4293648875
0.0053136959 -0.069936424 0.35983655 4293385703
0.0058912402 -0.069912128 0.35971156 4293583084
0.006466134 -0.06986355 0.35946161 4293648877
0.0070451223 -0.06986355 0.35946161 4293583084
0.0076188077 -0.069814965 0.35921162 4293583084
0.008191688 -0.06976638 0.35896164 4293319912
0.0087637641 -0.069717802 0.35871169 4293583084
0.0093415435 -0.069717802 0.35871169 4293452266
0.0099124108 -0.069669217 0.35846171 4293518059
0.010486131 -0.069644921 0.35833672 4293518059
0.011055588 -0.069596335 0.35808674 4293452266
0.011632361 -0.069596335 0.35808674 4293648875
0.01219635 -0.069523461 0.35771179 4293583082
0.012763593 -0.069474876 0.35746181 4293451750
0.013339361 -0.069474876 0.35746181 4293649129
0.013915128 -0.069474876 0.35746181 4293584617
0.01448076 -0.069426291 0.35721183 4293584617
0.015056124 -0.069426291 0.35721183 4293781481
0.015626019 -0.069402002 0.35708684 4294176239
0.016201181 -0.069402002 0.35708684 4294043885
0.016776344 -0.069402002 0.35708684 4294109678
0.017345434 -0.069377713 0.35696188 4293978862
0.017920395 -0.069377713 0.35696188 4293913069
0.018495357 -0.069377713 0.35696188 4293978864
0.019070318 -0.069377713 0.35696188 4294242036
0.019645279 -0.069377713 0.35696188 4293584365
0.020227319 -0.069402002 0.35708684 4293979123
0.020809764 -0.069426291 0.35721183 4294045170
0.021392612 -0.069450587 0.35733682 4293847791
0.021968177 -0.069450587 0.35733682 4293718002
0.022551628 -0.069474876 0.35746181 4293718002
0.02313548 -0.069499172 0.3575868 4293520623
0.023719737 -0.069523461 0.35771179 4293520623
0.024295904 -0.069523461 0.35771179 4293586416
0.024872076 -0.069523461 0.35771179 4293783795
0.025457134 -0.069547758 0.35783678 4293783795
0.026033506 -0.069547758 0.35783678 4293981174
0.02661917 -0.069572046 0.35796174 4294112760
0.02719574 -0.069572046 0.35796174 4294046967
0.027772315 -0.069572046 0.35796174 4293914611
0.028348884 -0.069572046 0.35796174 4294111990
0.028925458 -0.069572046 0.35796174 4294243322
0.029502029 -0.069572046 0.35796174 4294177529
0.030078601 -0.069572046 0.35796174 4294177783
0.030655174 -0.069572046 0.35796174 4294309369
0.03124265 -0.069596335 0.35808674 4294439928
0.031830531 -0.069620632 0.35821173 4294374135
0.032407504 -0.069620632 0.35821173 4294702587
0.032995988 -0.069644921 0.35833672 4294571001
0.033584874 -0.069669217 0.35846171 4294309369
0.034186076 -0.069717802 0.35871169 4294309369
0.034763858 -0.069717802 0.35871169 4294244346
0.035390891 -0.069814965 0.35921162 4293981174
0.036044568 -0.069960713 0.35996154 4294572539
0.036700659 -0.070106469 0.36071146 4294375160
0.037346255 -0.070227928 0.36133641 4294440953
0.037967619 -0.070300803 0.36171135 4294572539
0.038550232 -0.070300803 0.36171135 4294572539
0.039173409 -0.070373677 0.36208633 4294243574
0.039770346 -0.070397973 0.36221132 4294310137
0.040381614 -0.070446551 0.36246127 4294507516
0.040993683 -0.070495136 0.36271125 4294639102
0.041577905 -0.070495136 0.36271125 4294639102
0.04217666 -0.070519432 0.36283624 4294573309
0.042805269 -0.070592307 0.36321118 4294573309
0.043420158 -0.070640892 0.36346117 4294573307
0.044005588 -0.070640892 0.36346117 4294573307
0.044606354 -0.070665181 0.36358616 4294441721
0.045223054 -0.070713766 0.36383614 4294441721
0.045824826 -0.070738062 0.36396113 4294573307
0.046442937 -0.07078664 0.36421108 4294507514
0.047029573 -0.07078664 0.36421108 4294507514
0.047648892 -0.070835225 0.36446106 4293717998
0.048269019 -0.070883811 0.36471105 4294507514
0.048889946 -0.070932388 0.364961 4294441721
0.049511682 -0.070980974 0.36521098 4294572537
0.050099932 -0.070980974 0.36521098 4294704123
0.050722871 -0.071029559 0.36546096 4294704123
0.051364165 -0.071102433 0.36583591 4294638330
0.052006673 -0.071175314 0.36621088 4294704123
0.052596532 -0.071175314 0.36621088 4294638330
0.053277146 -0.071296766 0.3668358 4294770169
0.053978134 -0.071442522 0.36758572 4294770169
0.054681543 -0.071588278 0.36833566 4294507767
0.055368606 -0.071709737 0.36896059 4294507767
0.056038722 -0.0718069 0.36946052 4294442491
0.056633811 -0.0718069 0.36946052 4294376698
0.057286989 -0.071879782 0.3698355 4294179319
0.057921808 -0.07192836 0.37008545 4294047733
0.058577199 -0.072001234 0.37046042 4294178551
0.0592338 -0.072074115 0.37083539 4294573309
0.059831101 -0.072074115 0.37083539 4293980402
0.060530242 -0.072195575 0.37146032 4293848816
0.06121083 -0.072292738 0.37196025 4293717232
0.061976105 -0.072487071 0.37296015 4293388267
0.062744595 -0.072681412 0.37396005 4293388010
0.063346937 -0.072681412 0.37396005 4293388010
0.06412027 -0.072875746 0.37495995 4293256424
0.064875245 -0.07304579 0.37583485 4293059045
0.065654814 -0.073240124 0.37683475 4292993509
0.066415623 -0.073410168 0.37770966 4293190888
0.067157075 -0.073555924 0.37845957 4292927716
0.067766666 -0.073555924 0.37845957 4292993509
0.068511739 -0.073701672 0.37920949 4292993507
0.06923645 -0.073823132 0.37983441 4292993507
0.06998615 -0.07396888 0.38058433 4292862693
0.070738278 -0.074114636 0.38133428 4292665314
0.071352497 -0.074114636 0.38133428 4292796898
0.072131835 -0.07428468 0.38220918 4292796898
0.072937772 -0.074479014 0.38320905 4292731105
0.073746927 -0.074673347 0.38420895 4292862691
0.0746077 -0.074916266 0.38545883 4293059041
0.07549689 -0.075183474 0.38683367 4293322213
0.076119967 -0.075183474 0.38683367 4292532954
0.076966196 -0.075402103 0.38795856 4292532954
0.077841058 -0.075645022 0.38920841 4292730337
0.078745142 -0.075912237 0.39058328 4292730337
0.079704456 -0.07622803 0.3922081 4292599521
0.080643401 -0.076519534 0.39370793 4292402142
0.081561379 -0.076786749 0.3950828 4292335575
0.082197741 -0.076786749 0.3950828 4291940817
0.083069943 -0.077005371 0.39620766 4291743438
0.083919376 -0.077199705 0.39720756 4292401368
0.084665596 -0.077296875 0.39770752 4287268740
-0.053448848 -0.076294921 0.39583272 4289835437
-0.052811276 -0.076294921 0.39583272 4290164402
-0.051597111 -0.075451754 0.39145818 4290624183
-0.050966583 -0.075451754 0.39145818 4290558390
-0.050368208 -0.075499937 0.39170817 4290623670
-0.049737278 -0.075499937 0.39170817 4290623670
-0.049137685 -0.075548112 0.39195812 4290755256
-0.048552759 -0.07562039 0.39233309 4290886842
-0.047966622 -0.075692654 0.39270803 4290887355
-0.047062915 -0.07525903 0.39045829 4290887355
-0.046107002 -0.074729033 0.38770857 4291084734
-0.045482516 -0.074729033 0.38770857 4291084734
-0.044670038 -0.074415855 0.38608375 4291150527
-0.044033911 -0.074391767 0.38595876 4291282113
-0.043356009 -0.074295402 0.38545883 4291282111
-0.042735148 -0.074295402 0.38545883 4291216318
-0.042086974 -0.074247226 0.38520885 4291282111
-0.041453063 -0.074223131 0.38508385 4291282111
-0.040819548 -0.074199043 0.38495886 4291282111
-0.040199492 -0.074199043 0.38495886 4291347904
-0.039579436 -0.074199043 0.38495886 4291282111
-0.038820241 -0.073934048 0.38358402 4291347904
-0.038202401 -0.073934048 0.38358402 4291545283
-0.037217163 -0.073211327 0.37983441 4291479490
-0.036605358 -0.073211327 0.37983441 4291544770
-0.035673771 -0.072560877 0.37645978 4291610563
-0.035020836 -0.072464518 0.37595984 4291544770
-0.03436951 -0.072368152 0.37545988 4291544770
-0.03376475 -0.072368152 0.37545988 4291413184
-0.033115841 -0.072271794 0.37495995 4291610563
-0.032468539 -0.072175428 0.37445998 4291611076
-0.031844124 -0.072127253 0.37421003 4291808455
-0.031241382 -0.072127253 0.37421003 4291611078
-0.030628404 -0.072103158 0.37408504 4291676871
-0.030015832 -0.07207907 0.37396005 4291676871
-0.029393828 -0.072030887 0.37371007 4291611078
-0.028791891 -0.072030887 0.37371007 4291807944
-0.02815224 -0.071934529 0.37321013 4292202702
-0.027495749 -0.07178998 0.37246022 4291807944
-0.026850695 -0.071669526 0.37183526 4291807944
-0.026251776 -0.071669526 0.37183526 4291807944
-0.025609747 -0.071549073 0.37121034 4291676358
-0.024978148 -0.071452715 0.3707104 4291873737
-0.024381043 -0.071452715 0.3707104 4291873737
-0.023767898 -0.071404532 0.37046042 4292005323
-0.023155557 -0.071356349 0.37021044 4292005323
-0.022559257 -0.071356349 0.37021044 4292136909
-0.021962957 -0.071356349 0.37021044 4292071116
-0.021345016 -0.071284078 0.3698355 4292071116
-0.020707246 -0.071139537 0.36908558 4292071116
-0.020065079 -0.0709709 0.36821067 4292268495
-0.019471999 -0.0709709 0.36821067 4292202702
-0.018821245 -0.070754088 0.36708578 4292071116
-0.01818032 -0.070561364 0.36608589 4292136909
-0.017590662 -0.070561364 0.36608589 4292071116
-0.016960373 -0.070392728 0.36521098 4292071116
-0.016344111 -0.070272274 0.36458606 4292136909
-0.015746066 -0.070224091 0.36433607 4292136909
-0.015159227 -0.070224091 0.36433607 4292267725
-0.014567389 -0.070200004 0.36421108 4292333518
-0.013980751 -0.070200004 0.36421108 4292465104
-0.013394113 -0.070200004 0.36421108 4292465104
-0.012807474 -0.070200004 0.36421108 4292334286
-0.01219148 -0.070031367 0.36333618 4292268493
-0.011578305 -0.069862731 0.36246127 4292203213
-0.010983112 -0.06979046 0.36208633 4292400592
-0.010399897 -0.06979046 0.36208633 4292466385
-0.0098132929 -0.069766372 0.36196133 4292532178
-0.0092302784 -0.069766372 0.36196133 4292532180
-0.0086442791 -0.069742277 0.36183634 4292597973
-0.0080614658 -0.069742277 0.36183634 4292663253
-0.0074786535 -0.069742277 0.36183634 4292663253
-0.0068910765 -0.069694102 0.36158636 4292728276
-0.006308666 -0.069694102 0.36158636 4292728276
-0.005734174 -0.06979046 0.36208633 4292925402
-0.005197187 -0.070416816 0.36533597 4293188574
-0.0046150442 -0.070513181 0.36583591 4292728793
-0.0040202881 -0.070416816 0.36533597 4292663000
-0.0034048348 -0.069862731 0.36246127 4292926172
-0.0028210152 -0.069862731 0.36246127 4293057758
-0.0022279387 -0.069573648 0.36096144 4293319647
-0.0016436845 -0.069453195 0.36033651 4293253854
-0.0010621811 -0.069380924 0.35996154 4293319133
-0.00048238816 -0.069380924 0.35996154 4293516512
9.7404794e-05 -0.069380924 0.35996154 4293319133
0.00067719776 -0.069380924 0.35996154 4293648098
0.0012569907 -0.069380924 0.35996154 4293516512
0.0018374214 -0.069405012 0.36008653 4293516512
0.0024165765 -0.069380924 0.35996154 4293450719
0.0029963695 -0.069380924 0.35996154 4293450719
0.0035761625 -0.069380924 0.35996154 4293648102
0.0041559553 -0.069380924 0.35996154 4293582309
0.0047357483 -0.069380924 0.35996154 4293714157
0.0053155413 -0.069380924 0.35996154 4293516778
0.0058912402 -0.069332741 0.35971156 4293583086
0.0064683822 -0.069308653 0.3595866 4293846258
0.0070475717 -0.069308653 0.3595866 4293451498
0.0076188077 -0.069236375 0.35921162 4293648877
0.0081945397 -0.069212288 0.35908663 4293320682
0.0087668169 -0.069164105 0.35883665 4292991717
0.0093447976 -0.069164105 0.35883665 4293254889
0.009919323 -0.069140017 0.35871169 4293452268
0.010489788 -0.069091834 0.35846171 4293518059
0.011059447 -0.069043651 0.35821173 4293320680
0.011636421 -0.069043651 0.35821173 4293648875
0.012200612 -0.068971381 0.35783678 4294043633
0.012768056 -0.068923198 0.3575868 4293583334
0.013339361 -0.06889911 0.35746181 4293583334
0.013915128 -0.06889911 0.35746181 4293584617
0.014485827 -0.068875015 0.35733682 4293650410
0.015056124 -0.068850927 0.35721183 4294570999
0.015631488 -0.068850927 0.35721183 4293715690
0.016206851 -0.068850927 0.35721183 4294043885
0.016776344 -0.068826832 0.35708684 4293912299
0.017345434 -0.068802752 0.35696188 4293715692
0.017920395 -0.068802752 0.35696188 4293781485
0.018495357 -0.068802752 0.35696188 4293978864
0.019070318 -0.068802752 0.35696188 4294110450
0.019645279 -0.068802752 0.35696188 4293254887
0.020227319 -0.068826832 0.35708684 4293978610
0.020809764 -0.068850927 0.35721183 4293716205
0.021392612 -0.068875015 0.35733682 4293913584
0.021968177 -0.068875015 0.35733682 4293521393
0.022551628 -0.06889911 0.35746181 4293258221
0.02313548 -0.068923198 0.3575868 4293192941
0.023719737 -0.068947293 0.35771179 4293324527
0.024295904 -0.068947293 0.35771179 4293521393
0.024872076 -0.068947293 0.35771179 4293587186
0.025457134 -0.068971381 0.35783678 4293586932
0.026033506 -0.068971381 0.35783678 4293850104
0.02661917 -0.068995468 0.35796174 4293981944
0.02719574 -0.068995468 0.35796174 4293718772
0.027772315 -0.068995468 0.35796174 4293783795
0.028348884 -0.068995468 0.35796174 4293783795
0.028925458 -0.068995468 0.35796174 4293981174
0.029502029 -0.068995468 0.35796174 4293849588
0.030078601 -0.068995468 0.35796174 4294177783
0.030665878 -0.069019563 0.35808674 4294572541
0.031253554 -0.069043651 0.35821173 4294374905
0.031830531 -0.069043651 0.35821173 4294243319
0.032407504 -0.069043651 0.35821173 4294571001
0.032995988 -0.069067746 0.35833672 4294571001
0.033584874 -0.069091834 0.35846171 4294440698
0.034186076 -0.069140017 0.35871169 4294374905
0.034763858 -0.069140017 0.35871169 4294309369
0.035403203 -0.069260471 0.35933661 4294440955
0.036057085 -0.069405012 0.36008653 4294638332
0.036713377 -0.069549553 0.36083645 4294440953
0.037359171 -0.069670007 0.36146137 4294375160
0.037980739 -0.069742277 0.36183634 4294572539
0.03856355 -0.069742277 0.36183634 4294310137
0.039186932 -0.069814555 0.36221132 4294112758
0.03978407 -0.069838643 0.36233628 4294441721
0.040395539 -0.069886826 0.36258626 4294507514
0.040993683 -0.069910914 0.36271125 4293981170
0.041577905 -0.069910914 0.36271125 4294046963
0.042191189 -0.069959097 0.36296123 4294573307
0.042805269 -0.070007272 0.36321118 4294639100
0.043420158 -0.070055455 0.36346117 4294639100
0.044005588 -0.070055455 0.36346117 4294639100
0.044621687 -0.070103638 0.36371115 4294441721
0.045238592 -0.070151821 0.36396113 4294507514
0.045856297 -0.070200004 0.36421108 4294573307
0.046458874 -0.070224091 0.36433607 4294507514
0.047045715 -0.070224091 0.36433607 4294441721
0.047648892 -0.070248187 0.36446106 4294573307
0.048285559 -0.070320457 0.36483604 4294573307
0.048889946 -0.070344545 0.364961 4294639100
0.049528625 -0.070416816 0.36533597 4294441721
0.050117075 -0.070416816 0.36533597 4294441721
0.050722871 -0.070440911 0.36546096 4294310137
0.051364165 -0.070513181 0.36583591 4294507516
0.052006673 -0.070585452 0.36621088 4294639100
0.052596532 -0.070585452 0.36621088 4294507514
0.053295299 -0.070729993 0.36696079 4294573307
0.053996488 -0.070874535 0.36771071 4294704893
0.054700095 -0.071019083 0.36846063 4294507514
0.055387363 -0.071139537 0.36908558 4294573307
0.05605768 -0.071235895 0.36958551 4293981940
0.056652971 -0.071235895 0.36958551 4294376698
0.057306349 -0.071308173 0.36996049 4294441721
0.05794137 -0.071356349 0.37021044 4294178549
0.058577199 -0.071404532 0.37046042 4294440696
0.0592338 -0.07147681 0.37083539 4294440696
0.059831101 -0.07147681 0.37083539 4294045686
0.060530242 -0.071597256 0.37146032 4293914100
0.06121083 -0.071693614 0.37196025 4293782514
0.061955336 -0.071862251 0.37283516 4293585135
0.062702656 -0.072030887 0.37371007 4293453803
0.063304596 -0.072030887 0.37371007 4293388010
0.064077519 -0.072223611 0.37470996 4293322217
0.064853668 -0.072416335 0.37570986 4293124838
0.065633036 -0.07260906 0.37670976 4292993509
0.066371664 -0.072753608 0.37745968 4292993509
0.067134894 -0.072922237 0.37833458 4292927714
0.067744285 -0.072922237 0.37833458 4292993507
0.068489157 -0.073066786 0.3790845 4292993507
0.06923645 -0.073211327 0.37983441 4293059300
0.070009135 -0.073379956 0.38070932 4292862691
0.070761457 -0.073524505 0.38145924 4292731105
0.071375884 -0.073524505 0.38145924 4292402910
0.072155416 -0.073693134 0.38233414 4292600289
0.072961561 -0.073885866 0.38333404 4292533726
0.073770918 -0.07407859 0.38433394 4292928484
0.074631892 -0.074319497 0.38558382 4293124834
0.07549689 -0.074560396 0.38683367 4293124834
0.076119967 -0.074560396 0.38683367 4292533726
0.076990992 -0.074801311 0.38808355 4292336347
0.077866055 -0.075042211 0.3893334 4292271072
0.078770347 -0.075307213 0.39070827 4292468451
0.079704456 -0.075596295 0.3922081 4292468451
0.080643401 -0.075885385 0.39370793 4292402658
0.081561379 -0.07615038 0.3950828 4292336095
0.082197741 -0.07615038 0.3950828 4291875544
0.083069943 -0.076367192 0.39620766 4291940560
0.083840162 -0.076487653 0.39683262 4292072146
0.084559157 -0.076559916 0.39720756 4287334533
-0.053448848 -0.075657353 0.39583272 4289835437
-0.052811276 -0.075657353 0.39583272 4290098609
-0.052041911 -0.075466238 0.39483282 4290558390
-0.051324587 -0.07534679 0.39420789 4290426804
-0.050593209 -0.075203456 0.39345798 4290623670
-0.049959462 -0.075203456 0.39345798 4290623670
-0.049310043 -0.075179569 0.39333299 4290755256
-0.048661031 -0.075155675 0.393208 4290886842
-0.048027691 -0.075155675 0.393208 4290952635
-0.04710811 -0.074701786 0.39083326 4291084221
-0.046121866 -0.074128434 0.38783357 4291084734
-0.045497179 -0.074128434 0.38783357 4291084734
-0.044670038 -0.073793985 0.38608375 4291084734
-0.044033911 -0.073770098 0.38595876 4291216320
-0.043370068 -0.073698431 0.38558382 4291282113
-0.042749006 -0.073698431 0.38558382 4291479492
-0.042100631 -0.073650651 0.38533384 4291216320
-0.041466516 -0.073626764 0.38520885 4291282113
-0.040832803 -0.07360287 0.38508385 4291282111
-0.040212546 -0.07360287 0.38508385 4291347904
-0.039579436 -0.073578984 0.38495886 4291282111
-0.038820241 -0.073316202 0.38358402 4291282111
-0.038202401 -0.073316202 0.38358402 4291479492
-0.037217163 -0.072599523 0.37983441 4291347906
-0.036605358 -0.072599523 0.37983441 4291347906
-0.035673771 -0.071954511 0.37645978 4291347906
-0.035020836 -0.071858957 0.37595984 4291479492
-0.03436951 -0.071763396 0.37545988 4291545285
-0.03376475 -0.071763396 0.37545988 4291347906
-0.033115841 -0.071667843 0.37495995 4291611078
-0.032468539 -0.071572281 0.37445998 4291545285
-0.031865396 -0.071572281 0.37445998 4291479492
-0.031262249 -0.071572281 0.37445998 4291611078
-0.030638637 -0.071524508 0.37421003 4291676871
-0.030015832 -0.071476728 0.37396005 4291610825
-0.029393828 -0.071428947 0.37371007 4291676618
-0.028791891 -0.071428947 0.37371007 4291808204
-0.02815224 -0.071333393 0.37321013 4292071376
-0.027504977 -0.071213946 0.37258521 4291676871
-0.026859721 -0.071094498 0.37196025 4291742664
-0.026260599 -0.071094498 0.37196025 4291676871
-0.025618369 -0.07097505 0.37133533 4291676871
-0.024986569 -0.070879497 0.37083539 4291873737
-0.024389263 -0.070879497 0.37083539 4291873737
-0.023767898 -0.070807829 0.37046042 4292005323
-0.023163375 -0.070783935 0.37033543 4292005323
-0.022559257 -0.070760049 0.37021044 4292071116
-0.021962957 -0.070760049 0.37021044 4291873737
-0.021345016 -0.070688382 0.3698355 4291873484
-0.020714255 -0.070568934 0.36921054 4292005070
-0.020065079 -0.070377819 0.36821067 4291939790
-0.019471999 -0.070377819 0.36821067 4292005583
-0.018827653 -0.070186704 0.36721078 4292070863
-0.018186528 -0.06999559 0.36621088 4292070863
-0.017596669 -0.06999559 0.36621088 4292136656
-0.016960373 -0.069804475 0.36521098 4292070863
-0.016344111 -0.069685034 0.36458606 4292136909
-0.015746066 -0.069637254 0.36433607 4292136909
-0.015159227 -0.069637254 0.36433607 4292202702
-0.014567389 -0.06961336 0.36421108 4292136909
-0.013980751 -0.06961336 0.36421108 4292399309
-0.013403306 -0.06966114 0.36446106 4292333516
-0.012816265 -0.06966114 0.36446106 4292465102
-0.012229226 -0.06966114 0.36446106 4292465102
-0.011594275 -0.069374472 0.36296123 4292334286
-0.010986904 -0.069231138 0.36221132 4292465872
-0.010403487 -0.069231138 0.36221132 4292400592
-0.009816681 -0.069207244 0.36208633 4292597971
-0.0092302784 -0.069183357 0.36196133 4292532178
-0.0086442791 -0.06915947 0.36183634 4292466385
-0.0080614658 -0.06915947 0.36183634 4292663253
-0.0074786535 -0.06915947 0.36183634 4292597460
-0.0068910765 -0.06911169 0.36158636 4292465874
-0.006308666 -0.06911169 0.36158636 4292597460
-0.005734174 -0.069207244 0.36208633 4292663253
-0.0052025216 -0.069900036 0.36571094 4292729046
-0.0046434253 -0.070353933 0.36808568 4292794586
-0.0040505468 -0.070353933 0.36808568 4292728793
-0.0034154016 -0.06949392 0.36358616 4292926172
-0.0028297701 -0.06949392 0.36358616 4292991965
-0.0022279387 -0.068992242 0.36096144 4293122781
-0.0016436845 -0.068872795 0.36033651 4293122781
-0.0010621811 -0.068801127 0.35996154 4293254367
-0.00048238816 -0.068801127 0.35996154 4293254367
9.7404794e-05 -0.068801127 0.35996154 4293254367
0.00067719776 -0.068801127 0.35996154 4293583332
0.0012569907 -0.068801127 0.35996154 4293056988
0.0018374214 -0.068825014 0.36008653 4293320160
0.0024165765 -0.068801127 0.35996154 4293385440
0.0029963695 -0.068801127 0.35996154 4293319647
0.0035761625 -0.068801127 0.35996154 4293451235
0.0041559553 -0.068801127 0.35996154 4293451235
0.0047357483 -0.068801127 0.35996154 4293385190
0.0053155413 -0.068801127 0.35996154 4293450983
0.0058932872 -0.068777233 0.35983655 4293385705
0.0064706304 -0.068753347 0.35971156 4293714670
0.0070500211 -0.068753347 0.35971156 4293451498
0.0076241097 -0.068705574 0.35946161 4293714670
0.0081973923 -0.068657793 0.35921162 4293320682
0.0087698707 -0.068610013 0.35896164 4293189096
0.0093480526 -0.068610013 0.35896164 4293452268
0.009919323 -0.068562239 0.35871169 4293452268
0.010493446 -0.068538345 0.3585867 4293452266
0.011059447 -0.068466678 0.35821173 4293452266
0.011636421 -0.068466678 0.35821173 4293518059
0.012204872 -0.068418898 0.35796174 4293583852
0.012772519 -0.068371125 0.35771179 4293452520
0.013344025 -0.068347231 0.3575868 4293518313
0.013919993 -0.068347231 0.3575868 4293650410
0.014490894 -0.068323344 0.35746181 4293387238
0.015061392 -0.06829945 0.35733682 4293715692
0.015631488 -0.068275563 0.35721183 4293715692
0.016206851 -0.068275563 0.35721183 4293452520
0.016782215 -0.068275563 0.35721183 4293715692
0.017351506 -0.068251669 0.35708684 4293518572
0.017926669 -0.068251669 0.35708684 4293650158
0.018501831 -0.068251669 0.35708684 4293913330
0.019076994 -0.068251669 0.35708684 4293913330
0.019652156 -0.068251669 0.35708684 4293649645
0.020227319 -0.068251669 0.35708684 4294110196
0.020809764 -0.068275563 0.35721183 4293189094
0.021392612 -0.06829945 0.35733682 4294044403
0.021968177 -0.06829945 0.35733682 4293913330
0.022551628 -0.068323344 0.35746181 4293715951
0.02313548 -0.068347231 0.3575868 4293322990
0.023719737 -0.068371125 0.35771179 4294112506
0.024304394 -0.068395011 0.35783678 4293521652
0.024880765 -0.068395011 0.35783678 4293455859
0.025457134 -0.068395011 0.35783678 4293455861
0.026042597 -0.068418898 0.35796174 4293850619
0.02661917 -0.068418898 0.35796174 4294047483
0.02719574 -0.068418898 0.35796174 4293915897
0.027772315 -0.068418898 0.35796174 4293718002
0.028348884 -0.068418898 0.35796174 4293718002
0.028925458 -0.068418898 0.35796174 4293849586
0.029502029 -0.068418898 0.35796174 4294441723
0.030089103 -0.068442784 0.35808674 4294177781
0.030665878 -0.068442784 0.35808674 4294309367
0.031253554 -0.068466678 0.35821173 4294374905
0.031830531 -0.068466678 0.35821173 4294243319
0.032407504 -0.068466678 0.35821173 4294834684
0.032995988 -0.068490565 0.35833672 4294505719
0.033584874 -0.068514459 0.35846171 4294505719
0.034186076 -0.068562239 0.35871169 4294505719
0.034763858 -0.068562239 0.35871169 4294177524
0.035403203 -0.06868168 0.35933661 4294769661
0.036057085 -0.068825014 0.36008653 4294638332
0.036726095 -0.068992242 0.36096144 4294638332
0.037359171 -0.069087796 0.36146137 4294572539
0.037993859 -0.069183357 0.36196133 4294572539
0.038576871 -0.069183357 0.36196133 4294310137
0.039186932 -0.069231138 0.36221132 4294310137
0.03979779 -0.069278911 0.36246127 4294507514
0.040409464 -0.069326691 0.36271125 4294573307
0.041007809 -0.069350585 0.36283624 4294310135
0.041592233 -0.069350585 0.36283624 4294112756
0.042205717 -0.069398366 0.36308622 4294507514
0.042819999 -0.069446139 0.36333618 4294573307
0.043435093 -0.06949392 0.36358616 4294639100
0.04402072 -0.06949392 0.36358616 4294639100
0.044637024 -0.0695417 0.36383614 4294507514
0.045238592 -0.069565587 0.36396113 4294441721
0.045856297 -0.06961336 0.36421108 4294507514
0.046474814 -0.06966114 0.36446106 4294507514
0.047061853 -0.06966114 0.36446106 4294507514
0.047665231 -0.069685034 0.36458606 4294507514
0.048285559 -0.069732815 0.36483604 4294573307
0.048906688 -0.069780588 0.36508599 4294704893
0.049528625 -0.069828369 0.36533597 4294442491
0.050117075 -0.069828369 0.36533597 4294310905
0.05074022 -0.069876149 0.36558595 4294310907
0.051364165 -0.069923922 0.36583591 4294508286
0.052006673 -0.06999559 0.36621088 4294442493
0.052596532 -0.06999559 0.36621088 4294179321
0.053295299 -0.070138924 0.36696079 4294377213
0.053996488 -0.070282266 0.36771071 4294443006
0.054718651 -0.070449486 0.36858562 4294442493
0.055406116 -0.070568934 0.36921054 4294376700
0.05605768 -0.070640601 0.36958551 4293389805
0.056652971 -0.070640601 0.36958551 4294113528
0.057306349 -0.070712276 0.36996049 4294506489
0.05794137 -0.070760049 0.37021044 4294374903
0.058577199 -0.070807829 0.37046042 4294439928
0.0592338 -0.070879497 0.37083539 4294045170
0.059831101 -0.070879497 0.37083539 4294045686
0.060530242 -0.070998944 0.37146032 4293914100
0.06121083 -0.071094498 0.37196025 4293848564
0.061955336 -0.071261719 0.37283516 4293782771
0.062702656 -0.071428947 0.37371007 4293389037
0.063304596 -0.071428947 0.37371007 4293389037
0.064077519 -0.071620062 0.37470996 4293454058
0.064832091 -0.07178729 0.37558487 4293322472
0.065611266 -0.071978405 0.37658477 4293059300
0.066371664 -0.072145626 0.37745968 4292927714
0.067134894 -0.072312854 0.37833458 4292993507
0.067744285 -0.072312854 0.37833458 4293059300
0.068489157 -0.072456188 0.3790845 4293190886
0.06923645 -0.072599523 0.37983441 4293059300
0.070009135 -0.072766744 0.38070932 4292993507
0.070761457 -0.072910085 0.38145924 4292993507
0.071375884 -0.072910085 0.38145924 4292927714
0.072155416 -0.073077306 0.38233414 4292993507
0.072961561 -0.073268421 0.38333404 4292731105
0.073770918 -0.073459536 0.38433394 4292731105
0.074631892 -0.073698431 0.38558382 4293059298
0.075472489 -0.073913433 0.38670868 4292861919
0.076095365 -0.073913433 0.38670868 4292599519
0.076966196 -0.074152328 0.38795856 4292533726
0.077891052 -0.074438997 0.38945839 4292271326
0.078795545 -0.074701786 0.39083326 4292402912
0.079755262 -0.075012341 0.39245808 4292402912
0.080669008 -0.075275123 0.39383292 4292534498
0.081612974 -0.075561792 0.39533275 4292599269
0.082249746 -0.075561792 0.39533275 4291941339
0.083122358 -0.075776801 0.39645764 4292401113
0.083840162 -0.075848468 0.39683262 4292072148
0.084559157 -0.075920135 0.39720756 4287401096
-0.053600743 -0.075232975 0.39695761 4290031280
-0.052961357 -0.075232975 0.39695761 4290228659
-0.052173704 -0.075019777 0.39583272 4290426291
-0.051389676 -0.074806586 0.39470783 4290426291
-0.050657492 -0.074664459 0.39395791 4290622900
-0.050022941 -0.074664459 0.39395791 4290754486
-0.049310043 -0.074546024 0.39333299 4290886070
-0.048661031 -0.074522331 0.393208 4291017656
-0.048027691 -0.074522331 0.393208 4291084219
-0.04710811 -0.074072264 0.39083326 4291084219
-0.046121866 -0.073503748 0.38783357 4291018941
-0.045497179 -0.073503748 0.38783357 4291084734
-0.044670038 -0.073172115 0.38608375 4291084734
-0.044033911 -0.073148429 0.38595876 4291216320
-0.043370068 -0.073077366 0.38558382 4291150527
-0.042749006 -0.073077366 0.38558382 4291347906
-0.042100631 -0.073029988 0.38533384 4291216320
-0.041466516 -0.073006302 0.38520885 4291216320
-0.040832803 -0.072982617 0.38508385 4291216320
-0.040212546 -0.072982617 0.38508385 4291216320
-0.039579436 -0.072958924 0.38495886 4291216320
-0.038820241 -0.072698362 0.38358402 4291282113
-0.038202401 -0.072698362 0.38358402 4291282113
-0.037217163 -0.071987718 0.37983441 4291479492
-0.036605358 -0.071987718 0.37983441 4291347653
-0.035661928 -0.071324453 0.37633479 4291479239
-0.03500919 -0.071229704 0.37583485 4291347653
-0.034358066 -0.071134947 0.37533489 4291479239
-0.033753511 -0.071134947 0.37533489 4291479492
-0.033115841 -0.071063891 0.37495995 4291611078
-0.032468539 -0.070969135 0.37445998 4291545285
-0.031865396 -0.070969135 0.37445998 4291479492
-0.031262249 -0.070969135 0.37445998 4291676871
-0.030638637 -0.070921764 0.37421003 4291676871
-0.030015832 -0.070874386 0.37396005 4291610825
-0.029393828 -0.070827007 0.37371007 4291676618
-0.028791891 -0.070827007 0.37371007 4291676618
-0.02815224 -0.070732258 0.37321013 4291676618
-0.027504977 -0.070613824 0.37258521 4291676871
-0.026859721 -0.070495375 0.37196025 4291742664
-0.026260599 -0.070495375 0.37196025 4291676871
-0.025618369 -0.07037694 0.37133533 4291676871
-0.024986569 -0.070282191 0.37083539 4291807944
-0.024389263 -0.070282191 0.37083539 4292005323
-0.023767898 -0.07021112 0.37046042 4292005323
-0.023163375 -0.070187435 0.37033543 4292005323
-0.022559257 -0.070163742 0.37021044 4292005070
-0.021962957 -0.070163742 0.37021044 4292005070
-0.021345016 -0.070092686 0.3698355 4291808204
-0.020714255 -0.069974244 0.36921054 4291939790
-0.020065079 -0.069784738 0.36821067 4291808204
-0.019471999 -0.069784738 0.36821067 4292005583
-0.018827653 -0.06959524 0.36721078 4292005583
-0.018186528 -0.069405735 0.36621088 4292005583
-0.017596669 -0.069405735 0.36621088 4292071376
-0.016960373 -0.069216229 0.36521098 4292005583
-0.016344111 -0.069097787 0.36458606 4292136656
-0.015746066 -0.069050409 0.36433607 4292136656
-0.015159227 -0.069050409 0.36433607 4292268495
-0.014567389 -0.069026724 0.36421108 4292202702
-0.013980751 -0.069026724 0.36421108 4292399311
-0.013403306 -0.069074102 0.36446106 4292333518
-0.012807474 -0.069026724 0.36421108 4292399309
-0.012220837 -0.069026724 0.36421108 4292465102
-0.011594275 -0.068789847 0.36296123 4292662481
-0.010986904 -0.06864772 0.36221132 4292465102
-0.010403487 -0.06864772 0.36221132 4292465872
-0.009816681 -0.068624035 0.36208633 4292531665
-0.0092302784 -0.068600342 0.36196133 4292663251
-0.0086442791 -0.068576656 0.36183634 4292597458
-0.0080614658 -0.068576656 0.36183634 4292597458
-0.0074786535 -0.068576656 0.36183634 4292531665
-0.0068910765 -0.068529278 0.36158636 4292531667
-0.006308666 -0.068529278 0.36158636 4292597460
-0.005734174 -0.068624035 0.36208633 4292597460
-0.0052025216 -0.069310986 0.36571094 4292663253
-0.0046402719 -0.069713674 0.3678357 4292728793
-0.0040477961 -0.069713674 0.3678357 4292728793
-0.0034130532 -0.068860911 0.36333618 4292926172
-0.0028278246 -0.068860911 0.36333618 4292991965
-0.0022271671 -0.068387151 0.36083645 4292926172
