# .PCD v0.7 - Point Cloud Data file format
VERSION 0.7
FIELDS x y z rgba
SIZE 4 4 4 4
TYPE F F F U
COUNT 1 1 1 1
WIDTH 1025
HEIGHT 1
VIEWPOINT 0 0 0 1 0 0 0
POINTS 1025
DATA ascii
-0.0097266668 0.026957188 0.43657836 4292005583
-0.0090312166 0.026980339 0.43695331 4292137169
-0.0083321761 0.026995774 0.43720329 4292137169
-0.0076366919 0.027026646 0.43770325 4292137169
-0.0069376179 0.027049797 0.43807819 4292137169
-0.0062320018 0.027049797 0.43807819 4292005583
-0.0055326927 0.027080668 0.43857816 4291874767
-0.0048331483 0.027119255 0.43920308 4291808974
-0.0041315909 0.027157841 0.43982801 4291940560
-0.0034289928 0.027204147 0.44057792 4291874767
-0.0027193504 0.027204147 0.44057792 4292006355
-0.0020125585 0.027242735 0.44120288 4291874769
-0.0013037536 0.027281322 0.4418278 4291808978
-0.00059260044 0.027304474 0.44220275 4291808978
0.00011979437 0.027335344 0.44270271 4291808978
0.00083285919 0.027335344 0.44270271 4291808978
0.0015467969 0.02735078 0.44295269 4291874769
0.0022621776 0.027373932 0.44332764 4291874769
0.0029787663 0.027397085 0.44370261 4291808976
0.0036934416 0.027397085 0.44370261 4291874769
0.0044118422 0.027420236 0.44407755 4291874767
0.0051300074 0.027435672 0.44432753 4291808974
0.0058506224 0.027458824 0.44470248 4292006355
0.0065742913 0.027489694 0.44520244 4292072148
0.0072913822 0.027489694 0.44520244 4292137941
0.0080174664 0.027520563 0.44570237 4292269527
0.0087549603 0.027582305 0.44670227 4292269529
0.0094983252 0.027651761 0.44782716 4292137943
0.010245315 0.027721219 0.44895205 4292269529
0.010968446 0.027721219 0.44895205 4292269529
0.011724125 0.027798394 0.4502019 4292269529
0.012480374 0.027867852 0.45132679 4292269529
0.013232933 0.027921874 0.45220169 4292072148
0.013984451 0.027968178 0.45295161 4292137941
0.014734324 0.028006766 0.45357653 4292269527
0.015464904 0.028006766 0.45357653 4292269527
0.016217798 0.028045354 0.45420149 4292269529
0.01697737 0.02809166 0.45495141 4292269529
0.01773449 0.028130246 0.45557633 4292335322
0.018493623 0.028168833 0.45620126 4292335322
0.01922843 0.028168833 0.45620126 4292335322
0.020001523 0.028222855 0.45707616 4292335322
0.020788776 0.028292313 0.45820105 4292401113
0.021597266 0.028384922 0.45970088 4292269527
0.022434887 0.028508402 0.46170068 4292729308
0.023291493 0.028647317 0.46395043 4292729308
0.024038782 0.028647317 0.46395043 4292663515
0.024892908 0.028770797 0.46595022 4292663515
0.025725961 0.028863406 0.46745005 4292663515
0.026549686 0.028940583 0.46869993 4292663515
0.027362876 0.029002322 0.46969983 4292466136
0.028179286 0.029064063 0.47069973 4292400343
0.028937444 0.029064063 0.47069973 4292400343
0.029750802 0.029118085 0.47157463 4292400343
0.030591233 0.029195258 0.47282448 4292268755
0.031477135 0.029311022 0.47469929 4292137169
0.032470942 0.029519394 0.47807392 4291874767
0.033388719 0.029650591 0.48019871 4291545802
-0.10090322 0.029006584 0.45782608 4287925385
-0.1001658 0.029006584 0.45782608 4289308575
-0.099428378 0.029006584 0.45782608 4289505954
-0.098717891 0.029014504 0.45795107 4289375138
-0.097926788 0.028998667 0.45770112 4289572517
-0.097189568 0.028998667 0.45770112 4289704103
-0.096373327 0.028974909 0.45732614 4289769896
-0.095636703 0.028974909 0.45732614 4290098091
-0.094874151 0.028966989 0.45720115 4290098091
-0.094137728 0.028966989 0.45720115 4290294957
-0.09340132 0.028966989 0.45720115 4290294957
-0.092639565 0.028959071 0.45707616 4290360496
-0.091903351 0.028959071 0.45707616 4290426289
-0.090194881 0.028650239 0.45220169 4290294703
-0.089268692 0.028586887 0.4512018 4290426289
-0.08854194 0.028586887 0.4512018 4290360496
-0.087571926 0.028507698 0.44995192 4290360496
-0.086726569 0.028468106 0.44932699 4290426291
-0.085907139 0.028436432 0.44882706 4290492084
-0.085184216 0.028436432 0.44882706 4290360498
-0.084390722 0.028412674 0.44845209 4290360498
-0.083621755 0.028396836 0.4482021 4290623668
-0.082830481 0.028373079 0.44782716 4290623668
-0.082109161 0.028373079 0.44782716 4290558388
-0.081296988 0.028341403 0.4473272 4290426802
-0.080463901 0.028301811 0.44670227 4290426804
-0.079632834 0.028262217 0.44607735 4290426804
-0.078892224 0.028254298 0.44595236 4290427574
-0.078064375 0.028214704 0.44532743 4290427574
-0.077151708 0.028143434 0.44420254 4290558388
-0.076436229 0.028143434 0.44420254 4290426802
-0.075465076 0.028048409 0.44270271 4290426802
-0.074540965 0.027969221 0.44145283 4290426802
-0.073829912 0.027969221 0.44145283 4290426802
-0.07303606 0.027937546 0.4409529 4290558388
-0.072264306 0.027913788 0.44057792 4290426802
-0.07151407 0.027897952 0.44032797 4290558388
-0.070804827 0.027897952 0.44032797 4290624181
-0.070035905 0.027874196 0.439953 4290361009
-0.069268174 0.027850438 0.43957803 4290361009
-0.068462677 0.027810844 0.4389531 4290426802
-0.067755647 0.027810844 0.4389531 4290558388
-0.066934071 0.027763331 0.43820319 4290558388
-0.066114925 0.027715819 0.43745327 4290558388
-0.065354243 0.027692063 0.4370783 4290624181
-0.064650238 0.027692063 0.4370783 4290229677
-0.06387309 0.027660388 0.43657836 4290427056
-0.063115627 0.02763663 0.43620339 4290624435
-0.062359393 0.027612874 0.43582845 4290558642
-0.061657399 0.027612874 0.43582845 4290426802
-0.060902961 0.027589118 0.43545347 4290426802
-0.060149733 0.027565362 0.43507853 4290426802
-0.059397712 0.027541606 0.43470356 4290558388
-0.058697537 0.027541606 0.43470356 4290624181
-0.057964001 0.027525768 0.43445358 4290624181
-0.057231277 0.027509931 0.43420362 4290624181
-0.056499355 0.027494093 0.43395364 4290689974
-0.055800386 0.027494093 0.43395364 4290755254
-0.05506967 0.027478255 0.43370366 4290623668
-0.054339759 0.027462417 0.43345368 4290689974
-0.053595193 0.027438661 0.43307874 4290755767
-0.052897628 0.027438661 0.43307874 4290689974
-0.052184999 0.027430743 0.43295375 4290755767
-0.051457912 0.027414903 0.43270376 4290755767
-0.050731629 0.027399067 0.43245381 4290821560
-0.050035074 0.027399067 0.43245381 4290755767
-0.049324255 0.027391149 0.43232882 4291018939
-0.048627898 0.027391149 0.43232882 4290821560
-0.047945403 0.027399067 0.43245381 4290821560
-0.047248844 0.027399067 0.43245381 4291018939
-0.046552289 0.027399067 0.43245381 4290887353
-0.045855731 0.027399067 0.43245381 4291018939
-0.045159172 0.027399067 0.43245381 4291018939
-0.044462617 0.027399067 0.43245381 4291018939
-0.043740761 0.027383229 0.43220383 4291084732
-0.043044608 0.027383229 0.43220383 4291084732
-0.042323958 0.027367391 0.43195385 4291018939
-0.041628208 0.027367391 0.43195385 4291084732
-0.040920611 0.027359473 0.43182886 4291084732
-0.040213417 0.027351553 0.43170387 4291150525
-0.039506629 0.027343636 0.4315789 4291216318
-0.03880024 0.027335716 0.43145391 4291084732
-0.038105298 0.027335716 0.43145391 4291216318
-0.037399512 0.027327798 0.43132892 4291282111
-0.036704767 0.027327798 0.43132892 4291282111
-0.036020458 0.027335716 0.43145391 4291282111
-0.035325509 0.027335716 0.43145391 4291347904
-0.034630567 0.027335716 0.43145391 4291545283
-0.033935618 0.027335716 0.43145391 4291282111
-0.033250302 0.027343636 0.4315789 4291282113
-0.03256458 0.027351553 0.43170387 4291347906
-0.031869233 0.027351553 0.43170387 4291347906
-0.031191934 0.027367391 0.43195385 4291347906
-0.03051383 0.027383229 0.43220383 4291479492
-0.029834924 0.027399067 0.43245381 4291611078
-0.029155208 0.027414903 0.43270376 4291545032
-0.028458249 0.027414903 0.43270376 4291610825
-0.027777327 0.027430743 0.43295375 4291610825
-0.027095599 0.027446581 0.43320373 4291610825
-0.026405454 0.027454499 0.43332872 4291676618
-0.025707487 0.027454499 0.43332872 4291610825
-0.025023945 0.027470335 0.43357867 4291742411
-0.024346614 0.027494093 0.43395364 4291742411
-0.023654453 0.027502012 0.43407863 4291610825
-0.02296189 0.027509931 0.43420362 4291610825
-0.022262516 0.027509931 0.43420362 4291676618
-0.021575553 0.027525768 0.43445358 4291610825
-0.020881781 0.027533686 0.43457857 4291610825
-0.020187605 0.027541606 0.43470356 4291742411
-0.019487424 0.027541606 0.43470356 4291808204
-0.018792646 0.027549524 0.43482855 4291808204
-0.018102666 0.027565362 0.43507853 4291807944
-0.017406879 0.02757328 0.43520349 4291807944
-0.016710691 0.027581198 0.43532848 4292005323
-0.016009504 0.027581198 0.43532848 4291807944
-0.015312712 0.027589118 0.43545347 4291940043
-0.014619712 0.027604956 0.43570346 4291940043
-0.013917921 0.027604956 0.43570346 4292005836
-0.01321613 0.027604956 0.43570346 4292005836
-0.012521518 0.027620794 0.43595344 4291742411
-0.011822713 0.027628712 0.4360784 4291939790
-0.011123505 0.02763663 0.43620339 4292005583
-0.010429868 0.027660388 0.43657836 4292005583
-0.0097266668 0.027660388 0.43657836 4292005583
-0.0090312166 0.027684143 0.43695331 4292071376
-0.0083321761 0.027699981 0.43720329 4292071378
-0.0076366919 0.027731657 0.43770325 4292071378
-0.0069376179 0.027755413 0.43807819 4292071378
-0.0062320018 0.027755413 0.43807819 4292005585
-0.0055326927 0.027787089 0.43857816 4291874767
-0.0048331483 0.027826684 0.43920308 4291874767
-0.0041315909 0.027866276 0.43982801 4291940560
-0.0034289928 0.027913788 0.44057792 4291874767
-0.0027193504 0.027913788 0.44057792 4292072146
-0.0020125585 0.027953384 0.44120288 4291874767
-0.0013037536 0.027992977 0.4418278 4291874769
-0.00059260044 0.028016733 0.44220275 4291808976
0.00011976055 0.028040491 0.44257772 4291808976
0.00083262403 0.028040491 0.44257772 4291940562
0.0015467969 0.028064247 0.44295269 4291874769
0.0022621776 0.028088003 0.44332764 4291808976
0.0029787663 0.02811176 0.44370261 4291874769
0.0036934416 0.02811176 0.44370261 4291874769
0.0044106003 0.028127596 0.44395256 4291874769
0.0051285643 0.028143434 0.44420254 4291808976
0.0058489782 0.028167192 0.44457752 4292006355
0.0065724459 0.028198866 0.44507745 4292072148
0.0072893351 0.028198866 0.44507745 4292137943
0.0080152182 0.02823054 0.44557738 4292269529
0.0087500606 0.028285973 0.44645229 4292137943
0.0094956746 0.028365161 0.44770217 4292137943
0.010245315 0.02844435 0.44895205 4292269529
0.010968446 0.02844435 0.44895205 4292137943
0.011724125 0.028523536 0.4502019 4292137943
0.012476918 0.028586887 0.4512018 4292137943
0.013229276 0.028642319 0.4520767 4292137943
0.013980593 0.028689831 0.45282662 4292137943
0.014734324 0.028737344 0.45357653 4292401115
0.015464904 0.028737344 0.45357653 4292137943
0.016217798 0.02877694 0.45420149 4292269529
0.01697737 0.028824452 0.45495141 4292269529
0.01773449 0.028864047 0.45557633 4292335322
0.018493623 0.028903639 0.45620126 4292335322
0.01922843 0.028903639 0.45620126 4292335322
0.020001523 0.028959071 0.45707616 4292401115
0.020788776 0.029030342 0.45820105 4292401115
0.021591395 0.029117446 0.45957589 4292466908
0.022434887 0.029252067 0.46170068 4292663515
0.023291493 0.029394606 0.46395043 4292466136
0.024038782 0.029394606 0.46395043 4292597722
0.024892908 0.029521307 0.46595022 4292531929
0.025725961 0.029616332 0.46745005 4292531929
0.026549686 0.02969552 0.46869993 4292202964
0.027362876 0.029758871 0.46969983 4292400343
0.028171802 0.029814303 0.47057474 4292400343
0.028929761 0.029814303 0.47057474 4292466136
0.029735031 0.029861815 0.47132465 4292268757
0.030534627 0.02990141 0.47194958 4292268757
0.031385969 0.029988518 0.47332445 4292137171
0.032318138 0.030146893 0.47582418 4292005583
0.03323229 0.030281512 0.47794893 4291610825
0.034002122 0.030281512 0.47794893 4291347906
-0.10093077 0.02975213 0.45795107 4287531399
-0.10019315 0.02975213 0.45795107 4289176989
-0.099455521 0.02975213 0.45795107 4289374368
-0.098744839 0.029760251 0.45807606 4289309345
-0.097926788 0.029735891 0.45770112 4289572517
-0.097189568 0.029735891 0.45770112 4289834919
-0.096373327 0.02971153 0.45732614 4289834919
-0.095636703 0.02971153 0.45732614 4289966505
-0.094874151 0.029703408 0.45720115 4289834919
-0.094137728 0.029703408 0.45720115 4290163884
-0.09340132 0.029703408 0.45720115 4290229677
-0.092664897 0.029703408 0.45720115 4290361263
-0.092079267 0.02975213 0.45795107 4290295470
-0.090718403 0.029549127 0.45482641 4290295216
-0.089318149 0.029329885 0.45145178 4290229423
-0.088590994 0.029329885 0.45145178 4290294703
-0.087571926 0.029232441 0.44995192 4290294703
-0.086726569 0.02919184 0.44932699 4290360498
-0.085907139 0.029159361 0.44882706 4290492084
-0.085184216 0.029159361 0.44882706 4290492084
-0.084390722 0.029135 0.44845209 4290492084
-0.083621755 0.02911876 0.4482021 4290623670
-0.0828536 0.029102521 0.44795215 4290623670
-0.082132079 0.029102521 0.44795215 4290558390
-0.081319697 0.029070038 0.44745219 4290426804
-0.080486417 0.029029438 0.44682726 4290558390
-0.079632834 0.028980719 0.44607735 4290426804
-0.078914329 0.028980719 0.44607735 4290558390
-0.078064375 0.028931998 0.44532743 4290558390
-0.077108294 0.028842676 0.44395256 4290558388
-0.076393209 0.028842676 0.44395256 4290426802
-0.075422466 0.028745234 0.44245273 4290361009
-0.074540965 0.028680274 0.44145283 4290361009
-0.073829912 0.028680274 0.44145283 4290426802
-0.073015355 0.028639674 0.44082791 4290558388
-0.072264306 0.028623432 0.44057792 4290558388
-0.07151407 0.028607193 0.44032797 4290426802
-0.070804827 0.028607193 0.44032797 4290361009
-0.070055798 0.028590953 0.44007799 4290295216
-0.069287874 0.028566591 0.43970302 4290361009
-0.068482168 0.028525991 0.43907809 4290426802
-0.067774944 0.028525991 0.43907809 4290624181
-0.066953167 0.028477272 0.43832818 4290624181
-0.066152707 0.028436672 0.43770325 4290426802
-0.065372936 0.028404189 0.43720329 4290558388
-0.064668722 0.028404189 0.43720329 4290492336
-0.063891374 0.02837171 0.43670335 4290492336
-0.063115627 0.028339228 0.43620339 4290623922
-0.062359393 0.02831487 0.43582845 4290492336
-0.061657399 0.02831487 0.43582845 4290427056
-0.060902961 0.028290508 0.43545347 4290361263
-0.060149733 0.028266149 0.43507853 4290361009
-0.059397712 0.028241787 0.43470356 4290426802
-0.058697537 0.028241787 0.43470356 4290558388
-0.057964001 0.028225547 0.43445358 4290558388
-0.057231277 0.028209308 0.43420362 4290624181
-0.056499355 0.028193066 0.43395364 4290689974
-0.055800386 0.028193066 0.43395364 4290689461
-0.05506967 0.028176825 0.43370366 4290623668
-0.054339759 0.028160585 0.43345368 4290689974
-0.05361066 0.028144347 0.43320373 4290689974
-0.052912898 0.028144347 0.43320373 4290689974
-0.052200064 0.028136225 0.43307874 4290755767
-0.05148764 0.028128106 0.43295375 4290755767
-0.050760951 0.028111864 0.43270376 4290821560
-0.050063994 0.028111864 0.43270376 4290821560
-0.049352773 0.028103745 0.43257877 4290887353
-0.048656013 0.028103745 0.43257877 4290821560
-0.047959257 0.028103745 0.43257877 4290821560
-0.047276154 0.028111864 0.43270376 4291018939
-0.046579193 0.028111864 0.43270376 4290821560
-0.045868982 0.028103745 0.43257877 4290887353
-0.045159172 0.028095625 0.43245381 4290887353
-0.044462617 0.028095625 0.43245381 4291018939
-0.043766059 0.028095625 0.43245381 4291018939
-0.043044608 0.028079385 0.43220383 4291018939
-0.042336203 0.028071264 0.43207884 4291018939
-0.041640256 0.028071264 0.43207884 4291150525
-0.040932454 0.028063145 0.43195385 4291084732
-0.040213417 0.028046904 0.43170387 4291018939
-0.039518069 0.028046904 0.43170387 4291084732
-0.03880024 0.028030664 0.43145391 4291084734
-0.038105298 0.028030664 0.43145391 4291150527
-0.037410349 0.028030664 0.43145391 4291216318
-0.036715403 0.028030664 0.43145391 4291216318
-0.036020458 0.028030664 0.43145391 4291150525
-0.035325509 0.028030664 0.43145391 4291347904
-0.034630567 0.028030664 0.43145391 4291479490
-0.033935618 0.028030664 0.43145391 4291347904
-0.033250302 0.028038785 0.4315789 4291282113
-0.03256458 0.028046904 0.43170387 4291282113
-0.031869233 0.028046904 0.43170387 4291151297
-0.031191934 0.028063145 0.43195385 4291151297
-0.03051383 0.028079385 0.43220383 4291151044
-0.029834924 0.028095625 0.43245381 4291348423
-0.029155208 0.028111864 0.43270376 4291348423
-0.028458249 0.028111864 0.43270376 4291414216
-0.027777327 0.028128106 0.43295375 4291414216
-0.027095599 0.028144347 0.43320373 4291480009
-0.026405454 0.028152466 0.43332872 4291676618
-0.025707487 0.028152466 0.43332872 4291676618
-0.025023945 0.028168706 0.43357867 4291676618
-0.024346614 0.028193066 0.43395364 4291676618
-0.023654453 0.028201187 0.43407863 4291610825
-0.02296189 0.028209308 0.43420362 4291610825
-0.022262516 0.028209308 0.43420362 4291610825
-0.021575553 0.028225547 0.43445358 4291610825
-0.020881781 0.028233666 0.43457857 4291610825
-0.020187605 0.028241787 0.43470356 4291742411
-0.019487424 0.028241787 0.43470356 4291742411
-0.018792646 0.028249908 0.43482855 4291742411
-0.018102666 0.028266149 0.43507853 4291742664
-0.017406879 0.028274266 0.43520349 4291742664
-0.016710691 0.028282387 0.43532848 4292005323
-0.016009504 0.028282387 0.43532848 4291873737
-0.015312712 0.028290508 0.43545347 4291808457
-0.014619712 0.028306749 0.43570346 4291940043
-0.013917921 0.028306749 0.43570346 4292005836
-0.01321613 0.028306749 0.43570346 4292005836
-0.012521518 0.028322989 0.43595344 4291676618
-0.011822713 0.028331108 0.4360784 4291939790
-0.011123505 0.028339228 0.43620339 4292005583
-0.010429868 0.028363589 0.43657836 4292005583
-0.0097266668 0.028363589 0.43657836 4292005583
-0.0090312166 0.028387949 0.43695331 4292005583
-0.0083321761 0.028404189 0.43720329 4291874769
-0.0076366919 0.028436672 0.43770325 4291940562
-0.0069395974 0.028469151 0.43820319 4291874769
-0.0062337797 0.028469151 0.43820319 4291874769
-0.0055342694 0.02850163 0.43870312 4291940560
-0.0048345234 0.028542232 0.43932807 4291940560
-0.0041327649 0.028582832 0.439953 4291874767
-0.0034289928 0.028623432 0.44057792 4291874767
-0.0027193504 0.028623432 0.44057792 4292072146
-0.0020125585 0.028664034 0.44120288 4291940560
-0.0013037536 0.028704634 0.4418278 4291874769
-0.00059260044 0.028728994 0.44220275 4291874769
0.00011976055 0.028753355 0.44257772 4291874769
0.00083262403 0.028753355 0.44257772 4291874769
0.0015467969 0.028777717 0.44295269 4291874769
0.0022615399 0.028793955 0.44320264 4291808976
0.0029779272 0.028818317 0.44357762 4291940562
0.0036924013 0.028818317 0.44357762 4291874769
0.0044106003 0.028842676 0.44395256 4291808976
0.0051285643 0.028858917 0.44420254 4291808976
0.0058489782 0.028883278 0.44457752 4292006357
0.0065706 0.028907636 0.44495246 4292072150
0.0072872881 0.028907636 0.44495246 4292137943
0.00801297 0.028940119 0.44545242 4292269529
0.0087476121 0.028996959 0.44632733 4292269529
0.0094930232 0.029078159 0.44757718 4292072150
0.01023961 0.02915124 0.44870207 4292137943
0.010962338 0.02915124 0.44870207 4292137943
0.011717615 0.029232441 0.44995192 4292137943
0.012470006 0.029297402 0.45095181 4292137943
0.013225618 0.029362364 0.45195171 4292137943
0.013976733 0.029411085 0.45270163 4292269529
0.014734324 0.029467925 0.45357653 4292137943
0.015464904 0.029467925 0.45357653 4292269529
0.016217798 0.029508527 0.45420149 4292137943
0.01697737 0.029557249 0.45495141 4292269529
0.01773449 0.029597849 0.45557633 4292269529
0.018498691 0.029646568 0.45632625 4292269529
0.019233698 0.029646568 0.45632625 4292137943
0.020001523 0.029695289 0.45707616 4292335322
0.020783104 0.029760251 0.45807606 4292401115
0.021585522 0.02984957 0.4594509 4292335322
0.022428812 0.029987613 0.46157569 4292401115
0.023285219 0.030133775 0.46382543 4292335322
0.024032306 0.030133775 0.46382543 4292466138
0.02488623 0.030263698 0.46582523 4292400345
0.025725961 0.030369259 0.46745005 4292400345
0.026549686 0.030450461 0.46869993 4292400345
0.027362876 0.030515423 0.46969983 4292400345
0.02816432 0.030564142 0.47044975 4292400345
0.028922077 0.030564142 0.47044975 4292269527
0.02971926 0.030604742 0.47107467 4292072148
0.030526541 0.030653464 0.47182459 4292072148
0.031377681 0.030742785 0.47319946 4291940562
0.032309648 0.030905187 0.47569919 4292005585
0.03323229 0.031051349 0.47794893 4291676620
0.034002122 0.031051349 0.47794893 4291479492
-0.10093077 0.030489754 0.45795107 4287071110
-0.10019315 0.030489754 0.45795107 4289440161
-0.099455521 0.030489754 0.45795107 4289440161
-0.098744839 0.030498074 0.45807606 4289309345
-0.097900048 0.030464791 0.45757613 4289506724
-0.097163029 0.030464791 0.45757613 4289834919
-0.096294306 0.030423181 0.45695117 4289900712
-0.095479883 0.030398218 0.45657623 4289834919
-0.094744474 0.030398218 0.45657623 4289900712
-0.094034791 0.03040654 0.45670122 4290163884
-0.093299188 0.03040654 0.45670122 4290163884
-0.092664897 0.030439826 0.45720115 4290295216
-0.092079267 0.030489754 0.45795107 4290295216
-0.090718403 0.030281719 0.45482641 4290295216
-0.089318149 0.030057039 0.45145178 4290295216
-0.088590994 0.030057039 0.45145178 4290229423
-0.087571926 0.029957181 0.44995192 4290229423
-0.086726569 0.029915575 0.44932699 4290360498
-0.085907139 0.029882289 0.44882706 4290492084
-0.085184216 0.029882289 0.44882706 4290623670
-0.084390722 0.029857324 0.44845209 4290623670
-0.083621755 0.02984068 0.4482021 4290623670
-0.0828536 0.029824039 0.44795215 4290492084
-0.082132079 0.029824039 0.44795215 4290426804
-0.081319697 0.029790752 0.44745219 4290426804
-0.080486417 0.029749146 0.44682726 4290558390
-0.079632834 0.029699218 0.44607735 4290361011
-0.078914329 0.029699218 0.44607735 4290361011
-0.078042462 0.029640967 0.44520244 4290426804
-0.077108294 0.029557751 0.44395256 4290295218
-0.076393209 0.029557751 0.44395256 4290426804
-0.075422466 0.029457895 0.44245273 4290426804
-0.074540965 0.029391322 0.44145283 4290361011
-0.073829912 0.029391322 0.44145283 4290361011
-0.073015355 0.029349716 0.44082791 4290426804
-0.072264306 0.029333074 0.44057792 4290426802
-0.07151407 0.029316431 0.44032797 4290361009
-0.070804827 0.029316431 0.44032797 4290295216
-0.070055798 0.029299788 0.44007799 4290361009
-0.069287874 0.029274823 0.43970302 4290492084
-0.068482168 0.029233217 0.43907809 4290426291
-0.067774944 0.029233217 0.43907809 4290623670
-0.066972256 0.029191609 0.43845317 4290689463
-0.066171587 0.029150002 0.43782821 4290492084
-0.065372936 0.029108394 0.43720329 4290426291
-0.064668722 0.029108394 0.43720329 4290492082
-0.063891374 0.02907511 0.43670335 4290426289
-0.063115627 0.029041823 0.43620339 4290492082
-0.062359393 0.02901686 0.43582845 4290360496
-0.061657399 0.02901686 0.43582845 4290492082
-0.060902961 0.028991895 0.43545347 4290360496
-0.060149733 0.028966932 0.43507853 4290295216
-0.059397712 0.028941967 0.43470356 4290361009
-0.058697537 0.028941967 0.43470356 4290426802
-0.057964001 0.028925322 0.43445358 4290558388
-0.057231277 0.028908681 0.43420362 4290426804
-0.056499355 0.028892038 0.43395364 4290558390
-0.055800386 0.028892038 0.43395364 4290689463
-0.05506967 0.028875394 0.43370366 4290689463
-0.054339759 0.028858751 0.43345368 4290886840
-0.05361066 0.028842108 0.43320373 4290821047
-0.052912898 0.028842108 0.43320373 4290689974
-0.052215129 0.028842108 0.43320373 4290689974
-0.051502503 0.028833788 0.43307874 4290821560
-0.050790276 0.028825466 0.43295375 4290821560
-0.050092917 0.028825466 0.43295375 4290690744
-0.049381293 0.028817143 0.43282875 4290756537
-0.048684131 0.028817143 0.43282875 4290821560
-0.047986969 0.028817143 0.43282875 4290821560
-0.047289807 0.028817143 0.43282875 4290887353
-0.046592649 0.028817143 0.43282875 4290887353
-0.045882232 0.028808823 0.43270376 4290887353
-0.045185272 0.028808823 0.43270376 4291018939
-0.044488315 0.028808823 0.43270376 4291018941
-0.043766059 0.02879218 0.43245381 4291018941
-0.043069504 0.02879218 0.43245381 4291018941
-0.042348452 0.028775537 0.43220383 4291018941
-0.041640256 0.028767215 0.43207884 4291084734
-0.040944301 0.028767215 0.43207884 4291084734
-0.040236704 0.028758895 0.43195385 4291084734
-0.039518069 0.02874225 0.43170387 4291084734
-0.038811482 0.028733931 0.4315789 4291150527
-0.038116336 0.028733931 0.4315789 4291150527
-0.037410349 0.028725609 0.43145391 4291019711
-0.036715403 0.028725609 0.43145391 4291019711
-0.036020458 0.028725609 0.43145391 4291019711
-0.035325509 0.028725609 0.43145391 4291151297
-0.034630567 0.028725609 0.43145391 4291151295
-0.033945449 0.028733931 0.4315789 4291217088
-0.033250302 0.028733931 0.4315789 4291085504
-0.03256458 0.02874225 0.43170387 4291085504
-0.031869233 0.02874225 0.43170387 4291151044
-0.031191934 0.028758895 0.43195385 4291151044
-0.03051383 0.028775537 0.43220383 4291151044
-0.029834924 0.02879218 0.43245381 4291216837
-0.029155208 0.028808823 0.43270376 4291348423
-0.028458249 0.028808823 0.43270376 4291414216
-0.027777327 0.028825466 0.43295375 4291348423
-0.027095599 0.028842108 0.43320373 4291414216
-0.026405454 0.028850431 0.43332872 4291610825
-0.025707487 0.028850431 0.43332872 4291610825
-0.025031159 0.028875394 0.43370366 4291610825
-0.024346614 0.028892038 0.43395364 4291610825
-0.023654453 0.028900359 0.43407863 4291676105
-0.022968497 0.028917002 0.43432859 4291676105
-0.022268921 0.028917002 0.43432859 4291610825
-0.021575553 0.028925322 0.43445358 4291610825
-0.020887787 0.028941967 0.43470356 4291610825
-0.020187605 0.028941967 0.43470356 4291676618
-0.019487424 0.028941967 0.43470356 4291742664
-0.018798048 0.028958609 0.43495354 4291676871
-0.018102666 0.028966932 0.43507853 4291676871
-0.017406879 0.02897525 0.43520349 4291742664
-0.016710691 0.028983572 0.43532848 4291808457
-0.016009504 0.028983572 0.43532848 4291742664
-0.015312712 0.028991895 0.43545347 4291742664
-0.014619712 0.029008538 0.43570346 4291808457
-0.013917921 0.029008538 0.43570346 4291939790
-0.01321613 0.029008538 0.43570346 4292005583
-0.012521518 0.02902518 0.43595344 4291808204
-0.011822713 0.029033501 0.4360784 4291808204
-0.011123505 0.029041823 0.43620339 4291939790
-0.010429868 0.029066788 0.43657836 4292005583
-0.0097266668 0.029066788 0.43657836 4291874767
-0.0090312166 0.029091751 0.43695331 4291874767
-0.0083345585 0.029116716 0.43732828 4291874769
-0.0076388721 0.029150002 0.43782821 4291874769
-0.0069395974 0.029174967 0.43820319 4291808976
-0.0062337797 0.029174967 0.43820319 4291874769
-0.0055358461 0.029216573 0.43882811 4291874769
-0.004835899 0.029258182 0.43945307 4291874769
-0.0041339393 0.029299788 0.44007799 4291874769
-0.0034299656 0.029341394 0.44070292 4291874769
-0.0027201218 0.029341394 0.44070292 4292006353
-0.0020125585 0.029374681 0.44120288 4291874767
-0.0013033848 0.029407967 0.44170281 4291808974
-0.00059260044 0.029441252 0.44220275 4291874767
0.00011972673 0.029457895 0.44245273 4291743440
0.00083238888 0.029457895 0.44245273 4291875026
0.0015463604 0.02948286 0.4428277 4291875026
0.0022615399 0.029507823 0.44320264 4291809233
0.0029770881 0.029524466 0.44345263 4291940562
0.0036913608 0.029524466 0.44345263 4291874769
0.0044106003 0.029557751 0.44395256 4291808976
0.0051285643 0.029574396 0.44420254 4291874769
0.0058473339 0.029591039 0.44445252 4292006355
0.0065706 0.029624324 0.44495246 4292072148
0.0072872881 0.029624324 0.44495246 4292006355
0.00801297 0.02965761 0.44545242 4292006355
0.0087476121 0.02971586 0.44632733 4291940564
0.0094903726 0.029790752 0.44745219 4291940564
0.010236758 0.029865645 0.44857708 4292137943
0.010959285 0.029865645 0.44857708 4292137943
0.011711106 0.02994054 0.44970196 4292137941
0.012466549 0.030015431 0.45082682 4292137941
0.013218303 0.03007368 0.45170173 4292137941
0.013972874 0.03013193 0.45257664 4292137941
0.014730264 0.030190181 0.45345154 4292137943
0.015460642 0.030190181 0.45345154 4292137943
0.016217798 0.030240111 0.45420149 4292335322
0.01697737 0.030290039 0.45495141 4292269529
0.01773449 0.030331647 0.45557633 4292269529
0.018498691 0.030381575 0.45632625 4292072150
0.019233698 0.030381575 0.45632625 4292268759
0.020001523 0.030431503 0.45707616 4292400345
0.020783104 0.030498074 0.45807606 4292466138
0.021585522 0.03058961 0.4594509 4292531931
0.022422738 0.030722754 0.4614507 4292269529
0.023278946 0.030872541 0.46370047 4292269529
0.024025831 0.030872541 0.46370047 4292400091
0.02488623 0.031014005 0.46582523 4292465884
0.025725961 0.031122183 0.46745005 4292400091
0.026549686 0.031205397 0.46869993 4292202712
0.027362876 0.031271968 0.46969983 4292400345
0.028156837 0.031313576 0.47032475 4292400345
0.028914392 0.031313576 0.47032475 4292137943
0.029711375 0.031355184 0.47094968 4291874771
0.030502282 0.031388469 0.47144964 4291809235
0.031361107 0.031488325 0.47294948 4291743442
0.032309648 0.031671397 0.47569919 4291743442
0.033240981 0.031829506 0.47807392 4291480270
0.034011014 0.031829506 0.47807392 4291348676
-0.10098586 0.031244427 0.45820105 4285953658
-0.10024784 0.031244427 0.45820105 4289309091
-0.099509813 0.031244427 0.45820105 4289309091
-0.098798722 0.03125295 0.45832604 4289309345
-0.09784656 0.031184766 0.45732614 4289375138
-0.097109951 0.031184766 0.45732614 4289834406
-0.096188955 0.031125108 0.45645124 4289965992
-0.095453747 0.031125108 0.45645124 4289966505
-0.094718531 0.031125108 0.45645124 4289900712
-0.094034791 0.031142153 0.45670122 4289966251
-0.093299188 0.031142153 0.45670122 4290097837
-0.092842221 0.031235904 0.45807606 4289967023
-0.092104398 0.031235904 0.45807606 4290230195
-0.091366567 0.031235904 0.45807606 4290032816
-0.089911625 0.030988744 0.45445144 4290164402
-0.089179635 0.030988744 0.45445144 4290229425
-0.087620579 0.03069897 0.4502019 4290229425
-0.086750694 0.030647833 0.44945198 4290295218
-0.085931063 0.030613743 0.44895205 4290426804
-0.085207939 0.030613743 0.44895205 4290623670
-0.084437765 0.030596698 0.44870207 4290492084
-0.083645076 0.030571127 0.44832709 4290623670
-0.08287672 0.030554084 0.44807714 4290492084
-0.082154997 0.030554084 0.44807714 4290361011
-0.081342414 0.030519992 0.44757718 4290426804
-0.080486417 0.030468855 0.44682726 4290426804
-0.079610519 0.030409196 0.44595236 4290361011
-0.078892224 0.030409196 0.44595236 4290295218
-0.07802055 0.030349536 0.44507745 4290361011
-0.077086583 0.030264311 0.4438276 4290295218
-0.076371707 0.030264311 0.4438276 4290426804
-0.075422466 0.030170558 0.44245273 4290426804
-0.074540965 0.030102376 0.44145283 4290361011
-0.073746301 0.030068286 0.4409529 4290229425
-0.073015355 0.030059762 0.44082791 4290361011
-0.072264306 0.030042717 0.44057792 4290361011
-0.07151407 0.030025672 0.44032797 4290361011
-0.070804827 0.030025672 0.44032797 4290295218
-0.070055798 0.030008627 0.44007799 4290361011
-0.069287874 0.029983057 0.43970302 4290492084
-0.068482168 0.029940445 0.43907809 4290360498
-0.067774944 0.029940445 0.43907809 4290426038
-0.066972256 0.029897831 0.43845317 4290491831
-0.066171587 0.029855216 0.43782821 4290491831
-0.065372936 0.029812602 0.43720329 4290360245
-0.064668722 0.029812602 0.43720329 4290492084
-0.063891374 0.029778512 0.43670335 4290492084
-0.063115627 0.02974442 0.43620339 4290492084
-0.062359393 0.029718854 0.43582845 4290360498
-0.061657399 0.029718854 0.43582845 4290294705
-0.060902961 0.029693285 0.43545347 4290426291
-0.060149733 0.029667716 0.43507853 4290361011
-0.059397712 0.029642148 0.43470356 4290361011
-0.058697537 0.029642148 0.43470356 4290426804
-0.057964001 0.029625101 0.43445358 4290558390
-0.057231277 0.029608058 0.43420362 4290426804
-0.056499355 0.029591011 0.43395364 4290426804
-0.055800386 0.029591011 0.43395364 4290623670
-0.05506967 0.029573966 0.43370366 4290689463
-0.054339759 0.029556919 0.43345368 4290821049
-0.05361066 0.029539876 0.43320373 4290821049
-0.052912898 0.029539876 0.43320373 4290755254
-0.052215129 0.029539876 0.43320373 4290755254
-0.051502503 0.029531352 0.43307874 4290821560
-0.050790276 0.029522829 0.43295375 4290624181
-0.050092917 0.029522829 0.43295375 4290887353
-0.049381293 0.029514305 0.43282875 4290689974
-0.048684131 0.029514305 0.43282875 4290821560
-0.047986969 0.029514305 0.43282875 4290821560
-0.047289807 0.029514305 0.43282875 4290887353
-0.046592649 0.029514305 0.43282875 4290887353
-0.045882232 0.029505784 0.43270376 4290821560
-0.045185272 0.029505784 0.43270376 4290755767
-0.044488315 0.029505784 0.43270376 4290887355
-0.043766059 0.029488739 0.43245381 4291018941
-0.043069504 0.029488739 0.43245381 4290887355
-0.042360697 0.029480215 0.43232882 4291018941
-0.041652299 0.029471694 0.43220383 4291084734
-0.040956143 0.029471694 0.43220383 4291084734
-0.040236704 0.029454647 0.43195385 4291084734
-0.03952951 0.029446123 0.43182886 4291084734
-0.038822718 0.029437602 0.43170387 4291150527
-0.038127374 0.029437602 0.43170387 4291084734
-0.037421186 0.02942908 0.4315789 4291019711
-0.036726043 0.02942908 0.4315789 4291019711
-0.036030892 0.02942908 0.4315789 4291019711
-0.035335742 0.02942908 0.4315789 4291085504
-0.034640599 0.02942908 0.4315789 4291085504
-0.033945449 0.02942908 0.4315789 4291151297
-0.033259928 0.029437602 0.43170387 4291217090
-0.032574009 0.029446123 0.43182886 4291151297
-0.03187846 0.029446123 0.43182886 4291151044
-0.031191934 0.029454647 0.43195385 4291216837
-0.03051383 0.029471694 0.43220383 4291216837
-0.029834924 0.029488739 0.43245381 4291216837
-0.029155208 0.029505784 0.43270376 4291216837
-0.028458249 0.029505784 0.43270376 4291348423
-0.027777327 0.029522829 0.43295375 4291348423
-0.027095599 0.029539876 0.43320373 4291348423
-0.026413068 0.029556919 0.43345368 4291545032
-0.0257149 0.029556919 0.43345368 4291545032
-0.025031159 0.029573966 0.43370366 4291610825
-0.024346614 0.029591011 0.43395364 4291610825
-0.023661265 0.029608058 0.43420362 4291610565
-0.022968497 0.029616579 0.43432859 4291610565
-0.022268921 0.029616579 0.43432859 4291676358
-0.021575553 0.029625101 0.43445358 4291610565
-0.020887787 0.029642148 0.43470356 4291676358
-0.020193409 0.029650671 0.43482855 4291676358
-0.019493029 0.029650671 0.43482855 4291742151
-0.018798048 0.029659193 0.43495354 4291807944
-0.018107865 0.029676238 0.43520349 4291676869
-0.017406879 0.029676238 0.43520349 4291676869
-0.016715489 0.029693285 0.43545347 4291742662
-0.016014101 0.029693285 0.43545347 4291742662
-0.015317108 0.029701807 0.43557847 4291742664
-0.014619712 0.02971033 0.43570346 4291808457
-0.013917921 0.02971033 0.43570346 4291939790
-0.01321613 0.02971033 0.43570346 4292071376
-0.012521518 0.029727377 0.43595344 4291939790
-0.011822713 0.029735897 0.4360784 4291808204
-0.011123505 0.02974442 0.43620339 4291939790
-0.010429868 0.029769989 0.43657836 4292071376
-0.0097266668 0.029769989 0.43657836 4291808974
-0.0090312166 0.029795557 0.43695331 4291808974
-0.0083345585 0.029821126 0.43732828 4291808976
-0.0076388721 0.029855216 0.43782821 4291808976
-0.0069415765 0.029889308 0.43832818 4291611854
-0.0062355576 0.029889308 0.43832818 4291743440
-0.0055358461 0.029923398 0.43882811 4291809233
-0.004835899 0.029966014 0.43945307 4291809233
-0.0041339393 0.030008627 0.44007799 4291809233
-0.0034299656 0.030051241 0.44070292 4291809233
-0.0027201218 0.030051241 0.44070292 4291809233
-0.0020125585 0.030085333 0.44120288 4291875026
-0.0013033848 0.030119423 0.44170281 4291809231
-0.00059260044 0.030153513 0.44220275 4291809231
0.00011972673 0.030170558 0.44245273 4291809233
0.00083238888 0.030170558 0.44245273 4291809233
0.0015463604 0.030196128 0.4428277 4291678417
0.0022615399 0.030221695 0.44320264 4291744210
0.0029770881 0.03023874 0.44345263 4291809233
0.0036913608 0.03023874 0.44345263 4291743440
0.0044106003 0.03027283 0.44395256 4291743440
0.0051285643 0.030289877 0.44420254 4291809233
0.0058473339 0.030306924 0.44445252 4291875026
0.0065706 0.030341014 0.44495246 4291940819
0.0072872881 0.030341014 0.44495246 4291940819
0.00801297 0.030375106 0.44545242 4291875026
0.0087476121 0.030434765 0.44632733 4291875026
0.0094903726 0.030511469 0.44745219 4291875026
0.010236758 0.030588174 0.44857708 4291940819
0.010959285 0.030588174 0.44857708 4292006612
0.011711106 0.03066488 0.44970196 4292072148
0.012466549 0.030741582 0.45082682 4292072148
0.013218303 0.030801242 0.45170173 4292137941
0.013972874 0.030860901 0.45257664 4292137941
0.014730264 0.030920561 0.45345154 4292137941
0.015460642 0.030920561 0.45345154 4292269527
0.016217798 0.030971698 0.45420149 4292335322
0.01697737 0.031022836 0.45495141 4292335322
0.017739356 0.031073971 0.45570132 4292137943
0.018498691 0.031116584 0.45632625 4292006357
0.019233698 0.031116584 0.45632625 4292268759
0.020001523 0.031167721 0.45707616 4292400345
0.020783104 0.031235904 0.45807606 4292400345
0.021585522 0.031329654 0.4594509 4292400345
0.022422738 0.031466018 0.4614507 4292400345
0.023278946 0.03161943 0.46370047 4292597724
0.024025831 0.03161943 0.46370047 4292400091
0.02488623 0.031764314 0.46582523 4292400091
0.025725961 0.031875111 0.46745005 4292400091
0.026549686 0.031960338 0.46869993 4292268505
0.027362876 0.032028519 0.46969983 4292465884
0.028156837 0.032071132 0.47032475 4292400091
0.028914392 0.032071132 0.47032475 4292137943
0.029711375 0.032113746 0.47094968 4291874771
0.030502282 0.03214784 0.47144964 4291743442
0.031361107 0.03225011 0.47294948 4291743442
0.032309648 0.032437611 0.47569919 4291611856
0.03325836 0.032616589 0.47832391 4291480270
0.034028798 0.032616589 0.47832391 4291348423
-0.099672675 0.032034796 0.45895097 4289046176
-0.098610125 0.031930108 0.45745113 4289243809
-0.097659372 0.031860314 0.45645124 4289309602
-0.096924171 0.031860314 0.45645124 4289768613
-0.096109934 0.03183414 0.45607626 4289834406
-0.095323063 0.031816695 0.45582631 4290096554
-0.094588853 0.031816695 0.45582631 4290096554
-0.093906119 0.03183414 0.45607626 4290031531
-0.093171515 0.03183414 0.45607626 4290031531
-0.092588909 0.031886488 0.45682621 4289966251
-0.092129529 0.031982452 0.45820105 4290229423
-0.091416426 0.031991176 0.45832604 4290163632
-0.090109445 0.031790521 0.45545134 4290229425
-0.088492885 0.031476457 0.45095181 4290229425
-0.087693557 0.031450283 0.45057687 4290163632
-0.086823069 0.031397939 0.44982696 4290360498
-0.085978903 0.031354319 0.449202 4290426291
-0.085255377 0.031354319 0.449202 4290492084
-0.084437765 0.031319425 0.44870207 4290492084
-0.083668396 0.031301975 0.44845209 4290491831
-0.082899831 0.031284526 0.4482021 4290360245
-0.082177907 0.031284526 0.4482021 4290426291
-0.081342414 0.031240907 0.44757718 4290426291
-0.080486417 0.031188561 0.44682726 4290426804
-0.079610519 0.031127494 0.44595236 4290361011
-0.078892224 0.031127494 0.44595236 4290361011
-0.077998638 0.031057701 0.44495246 4290295218
-0.077064879 0.03097046 0.44370261 4290361011
-0.076350197 0.03097046 0.44370261 4290426804
-0.075422466 0.030883219 0.44245273 4290426804
-0.074540965 0.030813426 0.44145283 4290361011
-0.073746301 0.030778531 0.4409529 4290361011
-0.07303606 0.030778531 0.4409529 4290361011
-0.072264306 0.030752357 0.44057792 4290295218
-0.07151407 0.030734912 0.44032797 4290295218
-0.070784733 0.030726187 0.44020298 4290295218
-0.070055798 0.030717462 0.44007799 4290361011
-0.069287874 0.030691288 0.43970302 4290491831
-0.068501666 0.030656394 0.43920308 4290360245
-0.067794234 0.030656394 0.43920308 4290294965
-0.066991352 0.030612774 0.43857816 4290360758
-0.066190481 0.030569151 0.4379532 4290360758
-0.065410309 0.030534256 0.43745327 4290294965
-0.0647057 0.030534256 0.43745327 4290491831
-0.063927941 0.03049936 0.43695331 4290491831
-0.063133717 0.030455738 0.43632838 4290492084
-0.062377274 0.030429568 0.43595344 4290360498
-0.061675079 0.030429568 0.43595344 4290163119
-0.060902961 0.030394671 0.43545347 4290360498
-0.060149733 0.030368499 0.43507853 4290295218
-0.059397712 0.030342326 0.43470356 4290295218
-0.058697537 0.030342326 0.43470356 4290426804
-0.057964001 0.030324878 0.43445358 4290426804
-0.057231277 0.030307431 0.43420362 4290426804
-0.056499355 0.030289982 0.43395364 4290558390
-0.055800386 0.030289982 0.43395364 4290689463
-0.05506967 0.030272534 0.43370366 4290689463
-0.054339759 0.030255085 0.43345368 4290755256
-0.05361066 0.030237637 0.43320373 4290755256
-0.052912898 0.030237637 0.43320373 4290821047
-0.052215129 0.030237637 0.43320373 4290689461
-0.051502503 0.030228915 0.43307874 4290755254
-0.050790276 0.03022019 0.43295375 4290689461
-0.050092917 0.03022019 0.43295375 4290755767
-0.049395554 0.03022019 0.43295375 4290624181
-0.048698187 0.03022019 0.43295375 4290755767
-0.048000827 0.03022019 0.43295375 4290821560
-0.047303464 0.03022019 0.43295375 4290821560
-0.046592649 0.030211465 0.43282875 4290887353
-0.045895487 0.030211465 0.43282875 4290821560
-0.045185272 0.030202741 0.43270376 4290821560
-0.044488315 0.030202741 0.43270376 4290821562
-0.043778706 0.030194016 0.43257877 4290887355
-0.043069504 0.030185293 0.43245381 4290887355
-0.042360697 0.030176569 0.43232882 4291018941
-0.041652299 0.030167846 0.43220383 4291018941
-0.040956143 0.030167846 0.43220383 4291018941
-0.040236704 0.030150397 0.43195385 4291084734
-0.03952951 0.030141672 0.43182886 4291018941
-0.038822718 0.030132947 0.43170387 4291084734
-0.038127374 0.030132947 0.43170387 4291084734
-0.037421186 0.030124225 0.4315789 4291019711
-0.036726043 0.030124225 0.4315789 4291085504
-0.036030892 0.030124225 0.4315789 4291151297
-0.035335742 0.030124225 0.4315789 4291151297
-0.034640599 0.030124225 0.4315789 4291151297
-0.033945449 0.030124225 0.4315789 4291217090
-0.033259928 0.030132947 0.43170387 4291151297
-0.032574009 0.030141672 0.43182886 4291151297
-0.03187846 0.030141672 0.43182886 4291151044
-0.031191934 0.030150397 0.43195385 4291216837
-0.03051383 0.030167846 0.43220383 4291216837
-0.029834924 0.030185293 0.43245381 4291216837
-0.029155208 0.030202741 0.43270376 4291216837
-0.028458249 0.030202741 0.43270376 4291348423
-0.027777327 0.03022019 0.43295375 4291216837
-0.027095599 0.030237637 0.43320373 4291348423
-0.026413068 0.030255085 0.43345368 4291545032
-0.0257149 0.030255085 0.43345368 4291545032
-0.025031159 0.030272534 0.43370366 4291545032
-0.024346614 0.030289982 0.43395364 4291545032
-0.023661265 0.030307431 0.43420362 4291545285
-0.022968497 0.030316154 0.43432859 4291545285
-0.022268921 0.030316154 0.43432859 4291545285
-0.021575553 0.030324878 0.43445358 4291479492
-0.020887787 0.030342326 0.43470356 4291611078
-0.020193409 0.03035105 0.43482855 4291545285
-0.019493029 0.03035105 0.43482855 4291479492
-0.018798048 0.030359775 0.43495354 4291676871
-0.018107865 0.030377222 0.43520349 4291676871
-0.017406879 0.030377222 0.43520349 4291676871
-0.016715489 0.030394671 0.43545347 4291742664
-0.016014101 0.030394671 0.43545347 4291742664
-0.015317108 0.030403394 0.43557847 4291742664
-0.014619712 0.030412119 0.43570346 4291742664
-0.013917921 0.030412119 0.43570346 4291808204
-0.01321613 0.030412119 0.43570346 4292005583
-0.012521518 0.030429568 0.43595344 4291939790
-0.011822713 0.030438291 0.4360784 4291808204
-0.011123505 0.030447016 0.43620339 4291939790
-0.010429868 0.030473188 0.43657836 4291939790
-0.0097266668 0.030473188 0.43657836 4291808974
-0.0090312166 0.03049936 0.43695331 4291808974
-0.0083345585 0.030525532 0.43732828 4291808976
-0.0076388721 0.030560428 0.43782821 4291677390
-0.0069415765 0.030595325 0.43832818 4291611597
-0.0062355576 0.030595325 0.43832818 4291677390
-0.0055358461 0.03063022 0.43882811 4291874769
-0.004835899 0.030673843 0.43945307 4291874769
-0.0041327649 0.030708738 0.439953 4291874769
-0.0034299656 0.030761082 0.44070292 4291874769
-0.0027201218 0.030761082 0.44070292 4291808976
-0.0020125585 0.030795978 0.44120288 4291940562
-0.0013033848 0.030830875 0.44170281 4291809233
-0.00059260044 0.03086577 0.44220275 4291743440
0.00011972673 0.030883219 0.44245273 4291743440
0.00083238888 0.030883219 0.44245273 4291809233
0.0015463604 0.030909391 0.4428277 4291678419
0.0022615399 0.030935563 0.44320264 4291744212
0.0029770881 0.030953012 0.44345263 4291744210
0.0036913608 0.030953012 0.44345263 4291612624
0.0044106003 0.030987907 0.44395256 4291612624
0.0051285643 0.031005356 0.44420254 4291744210
0.0058473339 0.031022804 0.44445252 4291744210
0.0065706 0.031057701 0.44495246 4291678417
0.0072872881 0.031057701 0.44495246 4291875026
0.00801297 0.031092597 0.44545242 4291940819
0.0087476121 0.031153666 0.44632733 4291940819
0.0094903726 0.031232182 0.44745219 4292006612
0.010233905 0.031301975 0.44845209 4292006612
0.010956232 0.031301975 0.44845209 4292006612
0.011707851 0.031380493 0.44957697 4292072148
0.012459638 0.031450283 0.45057687 4292006355
0.013210989 0.031511351 0.45145178 4292072148
0.013965157 0.03157242 0.45232669 4292072148
0.014722144 0.031633489 0.45320159 4292137941
0.01545212 0.031633489 0.45320159 4292269527
0.016208872 0.031685833 0.45395151 4292400345
0.016972706 0.031746902 0.45482641 4292400345
0.017739356 0.03180797 0.45570132 4292400345
0.018498691 0.03185159 0.45632625 4292268759
0.019233698 0.03185159 0.45632625 4292400345
0.020001523 0.031903934 0.45707616 4292400345
0.020783104 0.031973727 0.45807606 4292400345
0.021585522 0.032069691 0.4594509 4292400345
0.022422738 0.032209277 0.4614507 4292466138
0.023278946 0.032366313 0.46370047 4292531931
0.024025831 0.032366313 0.46370047 4292400091
0.024879552 0.032505896 0.46570024 4292268505
0.025725961 0.032628033 0.46745005 4292268505
0.026549686 0.032715276 0.46869993 4292268505
0.027355595 0.032776345 0.46957484 4292465884
0.028149353 0.032819964 0.47019976 4292465884
0.028906709 0.032819964 0.47019976 4292071896
0.029695606 0.032854859 0.47069973 4291874517
0.030502282 0.032907207 0.47144964 4291875028
0.031352818 0.03300317 0.47282448 4291743442
0.032301158 0.033195097 0.4755742 4291546063
0.033249673 0.033378303 0.47819892 4291546063
0.034019906 0.033378303 0.47819892 4291085251
-0.098610125 0.032666929 0.45745113 4289440161
-0.097659372 0.032595526 0.45645124 4289505954
-0.096924171 0.032595526 0.45645124 4289768613
-0.096109934 0.032568749 0.45607626 4289768613
-0.095323063 0.032550901 0.45582631 4290162347
-0.094588853 0.032550901 0.45582631 4290096554
-0.093906119 0.032568749 0.45607626 4290162347
-0.093171515 0.032568749 0.45607626 4290293933
-0.092588909 0.032622304 0.45682621 4290162347
-0.092154659 0.032729406 0.45832604 4290359726
-0.091416426 0.032729406 0.45832604 4290294703
-0.090109445 0.032524124 0.45545134 4290228910
-0.088492885 0.03220281 0.45095181 4290294705
-0.087766536 0.03220281 0.45095181 4290294705
-0.086871311 0.032140329 0.45007691 4290295218
-0.086026751 0.032095704 0.44945198 4290361011
-0.085302822 0.032095704 0.44945198 4290361011
-0.084484808 0.032060005 0.44895205 4290295218
-0.083691716 0.032033227 0.44857708 4290294965
-0.082899831 0.03200645 0.4482021 4290097586
-0.082177907 0.03200645 0.4482021 4290360245
-0.081365131 0.031970751 0.44770217 4290360245
-0.080486417 0.03190827 0.44682726 4290361011
-0.079588205 0.031836867 0.44582736 4290426804
-0.07887011 0.031836867 0.44582736 4290361011
-0.077976733 0.031765465 0.44482747 4290295218
-0.077064879 0.031685136 0.44370261 4290426802
-0.076350197 0.031685136 0.44370261 4290426802
-0.075443767 0.031604808 0.44257772 4290361009
-0.074583173 0.031542331 0.44170281 4290295216
-0.073767208 0.031497706 0.44107789 4290361009
-0.073056765 0.031497706 0.44107789 4290361009
-0.07228481 0.031470928 0.44070292 4290295218
-0.071534365 0.031453077 0.44045293 4290295218
-0.070784733 0.031435225 0.44020298 4290361011
-0.070075698 0.031435225 0.44020298 4290361011
-0.069287874 0.031399522 0.43970302 4290426038
-0.068501666 0.031363823 0.43920308 4290426038
-0.067794234 0.031363823 0.43920308 4290360758
-0.06701044 0.031328119 0.43870312 4290360758
-0.066228263 0.03129242 0.43820319 4290360758
-0.065447688 0.03125672 0.43770325 4290294965
-0.064742677 0.03125672 0.43770325 4290426038
-0.063946232 0.03121209 0.4370783 4290426038
-0.063187972 0.031185316 0.43670335 4290426291
-0.062413041 0.031149613 0.43620339 4290163119
-0.06171044 0.031149613 0.43620339 4290228912
-0.060937922 0.031113911 0.43570346 4290360498
-0.060167011 0.031078208 0.43520349 4290295218
-0.059414789 0.031051435 0.43482855 4290295218
-0.058714412 0.031051435 0.43482855 4290426804
-0.057964001 0.031024657 0.43445358 4290361011
-0.057231277 0.031006807 0.43420362 4290426804
-0.056499355 0.030988956 0.43395364 4290426804
-0.055800386 0.030988956 0.43395364 4290623670
-0.05506967 0.030971104 0.43370366 4290623670
-0.054339759 0.030953253 0.43345368 4290689463
-0.05361066 0.030935405 0.43320373 4290689463
-0.052912898 0.030935405 0.43320373 4290689461
