# .PCD v0.7 - Point Cloud Data file format
VERSION 0.7
FIELDS x y z rgba
SIZE 4 4 4 4
TYPE F F F U
COUNT 1 1 1 1
WIDTH 1035
HEIGHT 1
VIEWPOINT 0 0 0 1 0 0 0
POINTS 1035
DATA ascii
0.042087201 0.033670157 0.40720651 4291545032
0.042769328 0.033690825 0.40745646 4291479239
0.043452263 0.033711497 0.40770644 4291545032
0.044149529 0.033742502 0.40808141 4291545032
0.044847995 0.033773504 0.40845636 4291545032
0.0455059 0.033773504 0.40845636 4291479239
0.046192054 0.033794172 0.40870634 4291545032
0.04687902 0.033814844 0.40895632 4291545032
0.047566783 0.033835512 0.40920627 4291545032
0.048270084 0.033866517 0.40958124 4291479239
0.048929803 0.033866517 0.40958124 4291545032
0.049619783 0.033887185 0.40983123 4291545032
0.050325904 0.033918187 0.41020617 4291545034
0.05100216 0.033928525 0.41033116 4291545034
0.051663082 0.033928525 0.41033116 4291676620
0.052355886 0.033949193 0.41058114 4291610827
0.053049494 0.033969864 0.41083112 4291610827
0.053743895 0.033990528 0.41108108 4291610827
0.054422572 0.034000866 0.41120607 4291545034
0.055084907 0.034000866 0.41120607 4291545034
0.05578113 0.034021534 0.41145605 4291545034
0.056478158 0.034042206 0.41170603 4291347655
0.057175983 0.034062874 0.41195598 4291347653
0.057839524 0.034062874 0.41195598 4291545032
0.058556318 0.034093879 0.41233096 4291348423
0.059256367 0.034114547 0.41258094 4291414216
0.059975363 0.034145549 0.41295588 4291348423
0.060695581 0.034176555 0.41333085 4291348423
0.061361339 0.034176555 0.41333085 4291216839
0.062102117 0.03421789 0.41383079 4291216839
0.062844507 0.03425923 0.41433072 4291216839
0.063607663 0.034310903 0.41495568 4291216839
0.064353481 0.034352243 0.41545561 4291348425
0.065022655 0.034352243 0.41545561 4291414218
0.065790653 0.034403913 0.41608053 4291348425
0.066560663 0.03445559 0.41670549 4291216839
0.06733267 0.03450726 0.41733041 4291348425
0.068086334 0.034548599 0.41783035 4291414218
0.068759345 0.034548599 0.41783035 4291348425
0.069556966 0.034610607 0.41858029 4291348425
0.070356995 0.034672614 0.41933021 4291414218
0.071180619 0.034744959 0.42020512 4291414218
0.071985692 0.034806967 0.42095503 4291282889
0.072663724 0.034806967 0.42095503 4291348682
0.073472418 0.034868974 0.42170495 4291348682
0.074283518 0.034930982 0.42245486 4291282889
0.075097047 0.034992985 0.42320478 4291151303
0.075890608 0.035044663 0.42382973 4291282889
0.076573275 0.035044663 0.42382973 4291282887
0.077369854 0.035096336 0.42445466 4291282887
0.078145459 0.035137672 0.42495459 4291282887
0.078899495 0.035168678 0.42532957 4291282887
0.079701506 0.035220347 0.42595449 4291282887
0.0803876 0.035220347 0.42595449 4291151301
0.081240214 0.035292692 0.4268294 4291282887
0.082095638 0.035365034 0.4277043 4291085508
0.083074845 0.035489049 0.42920414 4291151301
0.084180862 0.035664737 0.43132892 4291085508
0.084875606 0.035664737 0.43132892 4291019715
0.086041465 0.035861094 0.43370366 4290953922
0.087214977 0.03605745 0.4360784 4290822336
0.088295355 0.03621247 0.4379532 4290888129
0.089153171 0.036274478 0.43870312 4290624957
0.0900646 0.036357157 0.43970302 4290493371
0.090824433 0.036377825 0.439953 4290427574
0.091533072 0.036377825 0.439953 4290427574
0.092241712 0.036377825 0.439953 4285294184
0.14098473 0.0531509 0.64280635 4288719796
0.14202009 0.0531509 0.64280635 4291483102
0.14230445 0.052871864 0.63943172 4291614677
-0.035939511 0.037002176 0.4389531 4289636255
-0.035232484 0.037002176 0.4389531 4289505439
-0.034594275 0.037075926 0.43982801 4289768611
-0.03388584 0.037075926 0.43982801 4289965990
-0.033167977 0.03706539 0.43970302 4289571232
-0.032441296 0.03704432 0.43945307 4289965992
-0.031733461 0.03704432 0.43945307 4290229164
-0.031007981 0.037023246 0.43920308 4290360496
-0.030231573 0.036938962 0.43820319 4290360496
-0.029424695 0.036812529 0.43670335 4290228910
-0.028721297 0.036812529 0.43670335 4290360496
-0.027857516 0.036601812 0.43420362 4290360496
-0.027033059 0.036433235 0.43220383 4290492082
-0.026336906 0.036433235 0.43220383 4290360496
-0.025596263 0.03637002 0.43145391 4290294703
-0.024843607 0.036285732 0.43045402 4290622898
-0.024101185 0.036211982 0.42957911 4290622898
-0.023409259 0.036211982 0.42957911 4290491312
-0.022690894 0.036169838 0.42907917 4290557105
-0.021942098 0.036075015 0.42795429 4290557105
-0.021252789 0.036075015 0.42795429 4290557105
-0.020491412 0.035948586 0.42645445 4290622898
-0.019740667 0.035832688 0.42507958 4290557105
-0.019005561 0.035737865 0.4239547 4290426289
-0.018322695 0.035737865 0.4239547 4290492082
-0.017598225 0.035653576 0.42295483 4290623668
-0.016881974 0.035579827 0.42207992 4290492082
-0.016202128 0.035579827 0.42207992 4290623668
-0.015499296 0.035527144 0.42145497 4290623668
-0.014802875 0.035485003 0.42095503 4290492082
-0.01410387 0.035432324 0.42033011 4290426289
-0.013426841 0.035432324 0.42033011 4290557105
-0.012734647 0.03539018 0.41983014 4290557105
-0.012033294 0.035316426 0.41895524 4290557105
-0.011334759 0.035242677 0.41808033 4290557105
-0.010661354 0.035242677 0.41808033 4290557105
-0.0099670477 0.035168923 0.41720542 4290754484
-0.0092839124 0.035126779 0.41670549 4290557105
-0.0086075552 0.035105709 0.41645551 4290557105
-0.0079367673 0.035105709 0.41645551 4290491312
-0.0072594364 0.0350741 0.41608053 4290622898
-0.0065852939 0.03505303 0.41583058 4290557105
-0.0059101777 0.035021421 0.41545561 4290557105
-0.0052410006 0.035021421 0.41545561 4290557359
-0.0045690718 0.035000347 0.41520563 4290623152
-0.0038979489 0.034979276 0.41495568 4290623152
-0.0032276306 0.034958206 0.41470569 4290623152
-0.0025596609 0.034958206 0.41470569 4290754484
-0.0018905506 0.034937132 0.41445571 4290754484
-0.001222246 0.034916062 0.41420576 4290754484
-0.00055441138 0.034873918 0.4137058 4290754484
0.00011194787 0.034873918 0.4137058 4290820277
0.00077736657 0.034831773 0.41320586 4290820277
0.0014411747 0.034789629 0.4127059 4290886070
0.0021033725 0.034747489 0.41220596 4290886070
0.0027673158 0.034747489 0.41220596 4290951863
0.0034291784 0.034726415 0.41195598 4290951863
0.0040889946 0.034694809 0.41158104 4290886070
0.0047490448 0.034673735 0.41133106 4290886070
0.0054115793 0.034673735 0.41133106 4290689461
0.006070422 0.034652662 0.41108108 4290821047
0.0067284601 0.034631591 0.41083112 4290886840
0.0073856921 0.034610521 0.41058114 4290886840
0.0080470191 0.034610521 0.41058114 4290952633
0.0087003922 0.034578912 0.41020617 4290952633
0.00935541 0.034557842 0.40995622 4290952633
0.010006569 0.034526233 0.40958124 4290952633
0.010666285 0.034526233 0.40958124 4291084219
0.011319088 0.034505159 0.40933126 4290952633
0.011971087 0.034484088 0.40908131 4290952633
0.012622279 0.034463018 0.40883133 4290952633
0.013280787 0.034463018 0.40883133 4291084221
0.013930771 0.034441944 0.40858135 4291215807
0.014579951 0.034420874 0.40833136 4291150014
0.015223662 0.034389265 0.40795642 4291084221
0.015880762 0.034389265 0.40795642 4291084221
0.016522659 0.034357656 0.40758145 4291084221
0.017163349 0.03432605 0.40720651 4291150014
0.017802833 0.034294441 0.40683153 4291150014
0.018458119 0.034294441 0.40683153 4291150527
0.019101661 0.034273371 0.40658155 4291084734
0.0197444 0.034252301 0.4063316 4291084734
0.020392606 0.034241762 0.40620661 4291084734
0.021033935 0.034220692 0.40595663 4291150527
0.021687811 0.034220692 0.40595663 4291150527
0.02233481 0.034210153 0.40583163 4291216320
0.022981407 0.034199618 0.40570664 4291282113
0.023634883 0.034199618 0.40570664 4291216320
0.024288358 0.034199618 0.40570664 4291216320
0.024941832 0.034199618 0.40570664 4291150274
0.025587425 0.034189083 0.40558168 4291216067
0.026240697 0.034189083 0.40558168 4291281860
0.026893971 0.034189083 0.40558168 4291281860
0.027547244 0.034189083 0.40558168 4291216067
0.028200518 0.034189083 0.40558168 4291216067
0.028862681 0.034199618 0.40570664 4291216320
0.02952525 0.034210153 0.40583163 4291282113
0.030188223 0.034220692 0.40595663 4291282113
0.030842097 0.034220692 0.40595663 4291282113
0.031505674 0.034231227 0.40608162 4291281860
0.032169651 0.034241762 0.40620661 4291281860
0.032823931 0.034241762 0.40620661 4291151044
0.033478212 0.034241762 0.40620661 4291151044
0.034132492 0.034241762 0.40620661 4291151044
0.034786772 0.034241762 0.40620661 4291151044
0.035441052 0.034241762 0.40620661 4291281860
0.036095332 0.034241762 0.40620661 4291347653
0.036760919 0.034252301 0.4063316 4291281860
0.037415404 0.034252301 0.4063316 4291347653
0.038081594 0.034262836 0.40645659 4291347653
0.038736276 0.034262836 0.40645659 4291347653
0.039390963 0.034262836 0.40645659 4291347653
0.040070269 0.034283906 0.40670654 4291216067
0.040750388 0.034304976 0.40695652 4291151044
0.041431308 0.03432605 0.40720651 4291216837
0.042087201 0.03432605 0.40720651 4291348423
0.042769328 0.034347121 0.40745646 4291348423
0.043452263 0.034368195 0.40770644 4291479492
0.044149529 0.034399804 0.40808141 4291611078
0.044847995 0.034431409 0.40845636 4291611078
0.0455059 0.034431409 0.40845636 4291479492
0.046192054 0.034452479 0.40870634 4291611078
0.04687902 0.034473553 0.40895632 4291545285
0.047566783 0.034494624 0.40920627 4291479492
0.048270084 0.034526233 0.40958124 4291347906
0.048929803 0.034526233 0.40958124 4291610825
0.049619783 0.034547307 0.40983123 4291610825
0.050325904 0.034578912 0.41020617 4291545032
0.05100216 0.034589447 0.41033116 4291545032
0.051663082 0.034589447 0.41033116 4291414218
0.052355886 0.034610521 0.41058114 4291480011
0.053049494 0.034631591 0.41083112 4291676620
0.053743895 0.034652662 0.41108108 4291545034
0.054422572 0.0346632 0.41120607 4291545034
0.055084907 0.0346632 0.41120607 4291545034
0.05578113 0.034684271 0.41145605 4291545034
0.056478158 0.034705345 0.41170603 4291479241
0.057175983 0.034726415 0.41195598 4291348425
0.057839524 0.034726415 0.41195598 4291348425
0.058556318 0.034758024 0.41233096 4291348423
0.059256367 0.034779098 0.41258094 4291348423
0.059975363 0.034810703 0.41295588 4291216837
0.060695581 0.034842312 0.41333085 4291216837
0.061361339 0.034842312 0.41333085 4291216837
0.062102117 0.034884453 0.41383079 4291216837
0.062844507 0.034926597 0.41433072 4291216837
0.063607663 0.034979276 0.41495568 4291348423
0.064353481 0.035021421 0.41545561 4291348423
0.065022655 0.035021421 0.41545561 4291216837
0.065790653 0.0350741 0.41608053 4291348423
0.066560663 0.035126779 0.41670549 4291216837
0.06733267 0.035179459 0.41733041 4291414216
0.068086334 0.035221603 0.41783035 4291216837
0.068759345 0.035221603 0.41783035 4291348423
0.069556966 0.035284821 0.41858029 4291348423
0.070356995 0.035348035 0.41933021 4291348423
0.071180619 0.035421789 0.42020512 4291348423
0.071985692 0.035485003 0.42095503 4291348423
0.072663724 0.035485003 0.42095503 4291414216
0.073472418 0.035548218 0.42170495 4291414216
0.074283518 0.035611432 0.42245486 4291348423
0.075097047 0.035674646 0.42320478 4291414218
0.075890608 0.03572733 0.42382973 4291414218
0.076573275 0.03572733 0.42382973 4291348425
0.077369854 0.035780009 0.42445466 4291348425
0.078145459 0.035822149 0.42495459 4291348425
0.078922682 0.035864297 0.42545456 4291216839
0.07974828 0.035927512 0.42620447 4291348423
0.080434777 0.035927512 0.42620447 4291216837
0.081264004 0.035990726 0.42695439 4291348423
0.082095638 0.036053941 0.4277043 4291151044
0.083123237 0.036201444 0.42945412 4291151044
0.084180862 0.036359485 0.43132892 4291019458
0.084875606 0.036359485 0.43132892 4291019715
0.086041465 0.036559667 0.43370366 4290953922
0.087264977 0.03678092 0.43632838 4290822336
0.088446543 0.036981102 0.43870312 4290690750
0.089305572 0.03704432 0.43945307 4290624957
0.090320617 0.037170749 0.4409529 4290493371
0.091082461 0.037191823 0.44120288 4290887102
0.091793112 0.037191823 0.44120288 4288913312
0.092582375 0.037223428 0.44157782 4283386191
0.14092989 0.054165203 0.64255637 4285101697
0.14196487 0.054165203 0.64255637 4287601831
0.14224881 0.053880733 0.63918173 4288060320
-0.0339051 0.037805833 0.44007799 4289900199
-0.033196263 0.037805833 0.44007799 4289900199
-0.032496653 0.037816573 0.44020298 4289965992
-0.031787615 0.037816573 0.44020298 4290031785
-0.031078575 0.037816573 0.44020298 4290163117
-0.030266063 0.037687723 0.43870312 4290294703
-0.029458381 0.037558876 0.43720329 4290228910
-0.028754177 0.037558876 0.43720329 4290360496
-0.027881572 0.037333395 0.43457857 4290360496
-0.027048694 0.037150864 0.43245381 4290426289
-0.026352139 0.037150864 0.43245381 4290294703
-0.025640752 0.037129387 0.43220383 4290228910
-0.024886888 0.03704349 0.43120393 4290492082
-0.024136245 0.036957592 0.43020403 4290426289
-0.023443313 0.036957592 0.43020403 4290491312
-0.022717332 0.036903907 0.42957911 4290557105
-0.021954915 0.036785796 0.42820427 4290491312
-0.021265203 0.036785796 0.42820427 4290557105
-0.020503422 0.03665695 0.42670441 4290557105
-0.019746473 0.036528103 0.42520458 4290491312
-0.019016767 0.036442205 0.42420468 4290491312
-0.018333498 0.036442205 0.42420468 4290557105
-0.017608626 0.036356304 0.42320478 4290622898
-0.016891971 0.036281146 0.42232987 4290622898
-0.016211722 0.036281146 0.42232987 4290557105
-0.015503892 0.036216721 0.42157996 4290557105
-0.014802875 0.036163036 0.42095503 4290557105
-0.014112257 0.036130823 0.42058006 4290491312
-0.013434825 0.036130823 0.42058006 4290557105
-0.01274223 0.036087874 0.42008013 4290557105
-0.012040474 0.036012713 0.41920522 4290491312
-0.011338148 0.035926815 0.41820532 4290425519
-0.010664541 0.035926815 0.41820532 4290557105
-0.0099730194 0.035862394 0.4174554 4290754484
-0.0092922663 0.035830181 0.41708043 4290557105
-0.0086127222 0.035797969 0.41670549 4290557105
-0.007941531 0.035797969 0.41670549 4290491312
-0.0072637978 0.035765756 0.41633052 4290557105
-0.006589252 0.035744283 0.41608053 4290491312
-0.0059155119 0.035722811 0.41583058 4290491312
-0.0052457307 0.035722811 0.41583058 4290557359
-0.0045718225 0.035690598 0.41545561 4290557359
-0.0039014709 0.035679858 0.41533062 4290623152
-0.0032305489 0.035658386 0.41508067 4290623152
-0.0025619753 0.035658386 0.41508067 4290754738
-0.0018916909 0.035626173 0.41470569 4290754738
-0.0012229835 0.035604697 0.41445571 4290754738
-0.00055474642 0.035561752 0.41395578 4290754738
0.00011201551 0.035561752 0.41395578 4290820277
0.00077783689 0.035518803 0.41345584 4290820277
0.0014420477 0.035475854 0.41295588 4290886324
0.0021046479 0.035432905 0.41245595 4290886324
0.0027689941 0.035432905 0.41245595 4290952117
0.0034302189 0.035400692 0.41208097 4290952117
0.0040914775 0.035379216 0.41183099 4290886324
0.0047519309 0.035357744 0.41158104 4290886324
0.0054148682 0.035357744 0.41158104 4290689715
0.0060741138 0.035336267 0.41133106 4290755508
0.0067325537 0.035314795 0.41108108 4290886840
0.0073879403 0.035282582 0.41070613 4290886840
0.0080494685 0.035282582 0.41070613 4290952633
0.0087056942 0.035261106 0.41045615 4290952633
0.0093582617 0.035228893 0.41008118 4290886840
0.010009623 0.035196684 0.40970623 4290952633
0.01066954 0.035196684 0.40970623 4290952633
0.011322544 0.035175208 0.40945625 4290821047
0.011974744 0.035153735 0.40920627 4290886840
0.012626139 0.035132263 0.40895632 4290952633
0.013284847 0.035132263 0.40895632 4290952633
0.013935033 0.035110787 0.40870634 4291150012
0.014584414 0.03508931 0.40845636 4291018939
0.015228327 0.035057101 0.40808141 4290887353
0.015885627 0.035057101 0.40808141 4291018939
0.016527725 0.035024889 0.40770644 4291018939
0.017173884 0.035003413 0.40745646 4291084221
0.01781377 0.034971204 0.40708151 4291150014
0.01846946 0.034971204 0.40708151 4291084734
0.019113405 0.034949727 0.40683153 4291084734
0.019756546 0.034928251 0.40658155 4291084734
0.020405157 0.034917518 0.40645659 4291084734
0.021046886 0.034896042 0.40620661 4291084734
0.021701166 0.034896042 0.40620661 4291084734
0.022355447 0.034896042 0.40620661 4291216320
0.023002647 0.034885302 0.40608162 4291216320
0.023649445 0.034874566 0.40595663 4291216320
0.024303323 0.034874566 0.40595663 4291216320
0.024957201 0.034874566 0.40595663 4291084481
0.025611078 0.034874566 0.40595663 4291216067
0.026256869 0.03486383 0.40583163 4291216067
0.026910545 0.03486383 0.40583163 4291216067
0.02756422 0.03486383 0.40583163 4291281860
0.028226588 0.034874566 0.40595663 4291216067
0.028880464 0.034874566 0.40595663 4291150527
0.029543437 0.034885302 0.40608162 4291150527
0.030206813 0.034896042 0.40620661 4291282113
0.030861091 0.034896042 0.40620661 4291282113
0.031525068 0.034906778 0.4063316 4291281860
0.032189447 0.034917518 0.40645659 4291216067
0.032844134 0.034917518 0.40645659 4291281860
0.033498812 0.034917518 0.40645659 4291281860
0.034153499 0.034917518 0.40645659 4291085251
0.034808181 0.034917518 0.40645659 4291085251
0.035462864 0.034917518 0.40645659 4291216067
0.036117546 0.034917518 0.40645659 4291281860
0.036772229 0.034917518 0.40645659 4291281860
0.037438419 0.034928251 0.40658155 4291281860
0.038093302 0.034928251 0.40658155 4291281860
0.0387601 0.034938991 0.40670654 4291281860
0.039415184 0.034938991 0.40670654 4291216067
0.040094897 0.034960464 0.40695652 4291216067
0.040762905 0.034971204 0.40708151 4291216067
0.041444026 0.034992676 0.4073315 4291281860
0.04210012 0.034992676 0.4073315 4291216837
0.042782448 0.035014149 0.40758145 4291216837
0.043478906 0.035046361 0.40795642 4291545285
0.044163052 0.035067838 0.4082064 4291611078
0.044847995 0.03508931 0.40845636 4291545285
0.0455059 0.03508931 0.40845636 4291479492
0.04620618 0.035121523 0.40883133 4291479490
0.046893347 0.035142999 0.40908131 4291479490
0.047581315 0.035164472 0.40933126 4291479490
0.048270084 0.035185948 0.40958124 4291347904
0.048929803 0.035185948 0.40958124 4291545285
0.049634915 0.035218161 0.40995622 4291611078
0.050325904 0.035239633 0.41020617 4291545032
0.051017694 0.035261106 0.41045615 4291479239
0.051678821 0.035261106 0.41045615 4291348423
0.052371822 0.035282582 0.41070613 4291348423
0.053065628 0.035304055 0.41095608 4291348425
0.053760238 0.035325531 0.41120607 4291348425
0.054455657 0.035347007 0.41145605 4291348425
0.055118393 0.035347007 0.41145605 4291348425
0.055815019 0.03536848 0.41170603 4291414218
0.056512449 0.035389952 0.41195598 4291348425
0.05721068 0.035411429 0.41220596 4291348425
0.057874624 0.035411429 0.41220596 4291414218
0.058574069 0.035432905 0.41245595 4291216839
0.059292268 0.035465114 0.41283089 4291216839
0.06001167 0.035497326 0.41320586 4291216837
0.060750641 0.035540275 0.4137058 4291216837
0.061416999 0.035540275 0.4137058 4291216837
0.062158387 0.035583224 0.41420576 4291348423
0.062901385 0.035626173 0.41470569 4291348423
0.063645981 0.035669122 0.41520563 4291348423
0.064392202 0.035712071 0.41570559 4291479239
0.065061785 0.035712071 0.41570559 4291479239
0.065830179 0.035765756 0.41633052 4291479239
0.066600583 0.035819441 0.41695544 4291479239
0.067352839 0.035862394 0.4174554 4291479239
0.068106703 0.035905343 0.41795534 4291281860
0.068779908 0.035905343 0.41795534 4291347653
0.069577731 0.035969764 0.41870525 4291479239
0.070377968 0.036034189 0.4194552 4291216837
0.071180619 0.036098614 0.42020512 4291216837
0.071985692 0.036163036 0.42095503 4291216837
0.072663724 0.036163036 0.42095503 4291348423
0.073494196 0.036238197 0.42182994 4291348423
0.074305497 0.036302619 0.42257985 4291348423
0.075119227 0.036367044 0.42332977 4291348423
0.075912982 0.036420729 0.4239547 4291348423
0.076595858 0.036420729 0.4239547 4291348423
0.077392638 0.036474418 0.42457965 4291348423
0.078168444 0.036517363 0.42507958 4291216837
0.078969046 0.036571048 0.42570451 4291216837
0.079795063 0.036635477 0.42645445 4291348423
0.080481954 0.036635477 0.42645445 4291151044
0.081359155 0.036721371 0.42745432 4291216837
0.082287565 0.036828745 0.4287042 4291151044
0.083171621 0.036914643 0.4297041 4291019458
0.084205255 0.037064966 0.43145391 4290953665
0.0849002 0.037064966 0.43145391 4291085251
0.086091056 0.03727971 0.43395364 4290953665
0.087314971 0.037505191 0.43657836 4290888129
0.088496938 0.037709199 0.4389531 4290559164
0.089610368 0.037880994 0.4409529 4290559164
0.090371817 0.037902471 0.44120288 4290493371
0.091211475 0.037956156 0.4418278 4290953667
0.091923133 0.037956156 0.4418278 4286742915
0.092765808 0.038009841 0.44245273 4282662216
0.14092989 0.055200171 0.64255637 4281219394
0.14196487 0.055200171 0.64255637 4281877324
0.14224881 0.054910265 0.63918173 4282467147
-0.03391473 0.038525611 0.44020298 4289965222
-0.033205692 0.038525611 0.44020298 4289965222
-0.03253356 0.038569365 0.44070292 4290031015
-0.031868841 0.038624056 0.44132784 4290096808
-0.031184463 0.038656875 0.44170281 4290162601
-0.030404028 0.038569365 0.44070292 4290359980
-0.029542597 0.038372472 0.43845317 4290229164
-0.028836379 0.038372472 0.43845317 4290229164
-0.027953742 0.038131822 0.43570346 4290360496
-0.027103417 0.037923992 0.43332872 4290360496
-0.026405454 0.037923992 0.43332872 4290228910
-0.025662996 0.03785836 0.43257877 4290294703
-0.024922956 0.037792727 0.43182886 4290426289
-0.024178319 0.037716158 0.43095395 4290360496
-0.023484178 0.037716158 0.43095395 4290491312
-0.022743771 0.037639588 0.43007904 4290557105
-0.021967731 0.037497386 0.42845422 4290491312
-0.021277616 0.037497386 0.42845422 4290557105
-0.020503422 0.037344247 0.42670441 4290557105
-0.019758081 0.037234861 0.42545456 4290491312
-0.019027974 0.037147354 0.42445466 4290491312
-0.018344302 0.037147354 0.42445466 4290557105
-0.017624227 0.037070785 0.42357975 4290557105
-0.01690197 0.036983274 0.42257985 4290557105
-0.016221318 0.036983274 0.42257985 4290557105
-0.015513086 0.036917642 0.42182994 4290557105
-0.014811665 0.036862951 0.42120501 4290557105
-0.014120645 0.036830135 0.42083004 4290557105
-0.013442811 0.036830135 0.42083004 4290557105
-0.012749813 0.036786381 0.42033011 4290557105
-0.012047654 0.036709812 0.4194552 4290491312
-0.011341536 0.036611363 0.41833031 4290425519
-0.010667729 0.036611363 0.41833031 4290491312
-0.0099760061 0.036545731 0.4175804 4290622898
-0.0092978356 0.036523856 0.41733041 4290557105
-0.0086178882 0.036491036 0.41695544 4290557105
-0.0079462947 0.036491036 0.41695544 4290491312
-0.0072681592 0.036458224 0.4165805 4290557105
-0.0065932111 0.036436345 0.41633052 4290491312
-0.0059190677 0.036414467 0.41608053 4290491312
-0.0052488837 0.036414467 0.41608053 4290491312
-0.0045745736 0.036381654 0.41570559 4290557105
-0.0039026451 0.036359776 0.41545561 4290557105
-0.0032315215 0.036337897 0.41520563 4290622898
-0.0025627466 0.036337897 0.41520563 4290754484
-0.0018928312 0.036316022 0.41495568 4290622898
-0.0012237212 0.036294144 0.41470569 4290622898
-0.00055508141 0.03625039 0.41420576 4290754484
0.00011208316 0.03625039 0.41420576 4290820277
0.00077830715 0.036206637 0.4137058 4290754484
0.0014429205 0.036162883 0.41320586 4290820277
0.0021059234 0.036119126 0.4127059 4290820277
0.0027706721 0.036119126 0.4127059 4290689461
0.0034322997 0.036086313 0.41233096 4290755254
0.0040939613 0.036064435 0.41208097 4290755254
0.004753374 0.036031619 0.41170603 4290755254
0.0054165125 0.036031619 0.41170603 4290689461
0.0060759592 0.036009744 0.41145605 4290755254
0.0067346008 0.035987865 0.41120607 4290821047
0.0073924367 0.035965987 0.41095608 4290886840
0.0080543673 0.035965987 0.41095608 4290952633
0.0087109962 0.035944112 0.41070613 4290821047
0.0093639661 0.035911296 0.41033116 4290821047
0.01001573 0.035878479 0.40995622 4290886840
0.01067605 0.035878479 0.40995622 4290821047
0.011329456 0.035856605 0.40970623 4290821047
0.011978402 0.035823785 0.40933126 4290886840
0.012629997 0.03580191 0.40908131 4290952633
0.013288908 0.03580191 0.40908131 4290952633
0.013939295 0.035780031 0.40883133 4290952633
0.014588877 0.035758156 0.40858135 4290887353
0.015232991 0.03572534 0.4082064 4290821560
0.015890492 0.03572534 0.4082064 4290887353
0.01653786 0.035703462 0.40795642 4290887353
0.017184421 0.035681587 0.40770644 4291018941
0.017824709 0.035648771 0.4073315 4291084734
0.018480802 0.035648771 0.4073315 4290887355
0.019125149 0.035626892 0.40708151 4291084734
0.019768693 0.035605013 0.40683153 4291084734
0.020417705 0.035594076 0.40670654 4291084734
0.021059839 0.035572201 0.40645659 4291018941
0.021714522 0.035572201 0.40645659 4291084734
0.022369204 0.035572201 0.40645659 4290624183
0.023016807 0.035561264 0.4063316 4291084734
0.02367129 0.035561264 0.4063316 4291150527
0.024325771 0.035561264 0.4063316 4291150527
0.024980253 0.035561264 0.4063316 4291150527
0.025626849 0.035550322 0.40620661 4291150527
0.02628113 0.035550322 0.40620661 4291216067
0.02693541 0.035550322 0.40620661 4291216067
0.027589688 0.035550322 0.40620661 4291216067
0.02824397 0.035550322 0.40620661 4291150274
0.028907141 0.035561264 0.4063316 4291150274
0.029570717 0.035572201 0.40645659 4291018688
0.030225402 0.035572201 0.40645659 4291150274
0.030880082 0.035572201 0.40645659 4291216067
0.031544462 0.035583138 0.40658155 4291281860
0.032199346 0.035583138 0.40658155 4291150274
0.032864328 0.035594076 0.40670654 4291150274
0.033519413 0.035594076 0.40670654 4291281860
0.034174502 0.035594076 0.40670654 4291216067
0.034829587 0.035594076 0.40670654 4291216067
0.035484672 0.035594076 0.40670654 4291150274
0.036139756 0.035594076 0.40670654 4291281860
0.036794841 0.035594076 0.40670654 4291281860
0.03744993 0.035594076 0.40670654 4291281860
0.038116723 0.035605013 0.40683153 4291216067
0.038783923 0.035615955 0.40695652 4291216067
0.039439414 0.035615955 0.40695652 4291150274
0.040107213 0.035626892 0.40708151 4291216067
0.040787935 0.035648771 0.4073315 4291216067
0.04145674 0.035659708 0.40745646 4291216067
0.042113036 0.035659708 0.40745646 4291347653
0.042795569 0.035681587 0.40770644 4291281860
0.043478906 0.035703462 0.40795642 4291479239
0.044176571 0.035736278 0.40833136 4291545032
0.044861719 0.035758156 0.40858135 4291479492
0.045519825 0.035758156 0.40858135 4291545285
0.04622031 0.035790972 0.40895632 4291479492
0.046907671 0.035812847 0.40920627 4291347906
0.047595844 0.035834726 0.40945625 4291347906
0.048284817 0.035856605 0.40970623 4291282113
0.048944734 0.035856605 0.40970623 4291479492
0.049634915 0.035878479 0.40995622 4291545285
0.050341237 0.035911296 0.41033116 4291347653
0.051033229 0.035933174 0.41058114 4291347653
0.051694557 0.035933174 0.41058114 4291216837
0.052387763 0.035955049 0.41083112 4291216837
0.053081769 0.035976924 0.41108108 4291348423
0.053776577 0.035998803 0.41133106 4291348423
0.054472197 0.036020681 0.41158104 4291216839
0.055135135 0.036020681 0.41158104 4291348425
0.055848904 0.036053497 0.41195598 4291348425
0.05654674 0.036075372 0.41220596 4291348425
0.057245374 0.036097251 0.41245595 4291348425
0.05790972 0.036097251 0.41245595 4291348425
0.058609564 0.036119126 0.4127059 4291151046
0.059346121 0.036162883 0.41320586 4291216839
0.060047977 0.036184762 0.41345584 4291216839
0.060787346 0.036228515 0.41395578 4291216839
0.06145411 0.036228515 0.41395578 4291216839
0.062195897 0.036272265 0.41445571 4291216839
0.062939301 0.036316022 0.41495568 4291348423
0.063703462 0.036370713 0.4155806 4291216837
0.064450279 0.036414467 0.41608053 4291281860
0.065120466 0.036414467 0.41608053 4291347653
0.065869704 0.036458224 0.4165805 4291479239
0.066640519 0.036512915 0.41720542 4291479239
0.067393169 0.036556672 0.41770539 4291479239
0.068147443 0.036600426 0.41820532 4291347653
0.06882105 0.036600426 0.41820532 4291282113
0.069598503 0.036655117 0.41883025 4291282113
0.070377968 0.036709812 0.4194552 4291217090
0.071180619 0.036775444 0.42020512 4291217090
0.07200706 0.036852013 0.42108002 4291348676
0.072685301 0.036852013 0.42108002 4291217090
0.073494196 0.036917642 0.42182994 4291217090
0.074327476 0.036994211 0.42270485 4291348676
0.075141408 0.037059844 0.42345476 4291348676
0.075935364 0.037114535 0.42407969 4291217090
0.076618433 0.037114535 0.42407969 4291217090
0.077438198 0.037180167 0.4248296 4291217090
0.078237399 0.037234861 0.42545456 4291217090
0.079061791 0.037300494 0.42620447 4291217090
0.079935379 0.037388001 0.42720437 4291151297
0.080623478 0.037388001 0.42720437 4291151297
0.081525683 0.037486445 0.42832923 4291151297
0.082479492 0.037606772 0.4297041 4291085504
0.083461918 0.037738036 0.43120393 4291019711
0.084400401 0.037847422 0.43245381 4291019711
0.085441284 0.038000561 0.43420362 4290953665
0.086140648 0.038000561 0.43420362 4290953665
0.087364964 0.03823027 0.43682835 4290887872
0.088547342 0.038438104 0.43920308 4290624700
0.089788169 0.038667813 0.4418278 4290558907
0.090679027 0.038744383 0.44270271 4290690493
0.091392092 0.038744383 0.44270271 4289374635
0.092105158 0.038744383 0.44270271 4284505953
0.14092989 0.056235142 0.64255637 4281679432
0.14196487 0.056235142 0.64255637 4281811018
-0.034682751 0.039301489 0.4409529 4290029218
-0.03391473 0.039234649 0.44020298 4290030502
-0.033205692 0.039234649 0.44020298 4290030502
-0.03253356 0.039279208 0.44070292 4290030502
-0.031868841 0.039334904 0.44132784 4290096295
-0.031184463 0.039368328 0.44170281 4290162088
-0.030464388 0.039357185 0.44157782 4290359467
-0.029593125 0.039145529 0.43920308 4290359980
-0.0288857 0.039145529 0.43920308 4290425773
-0.028017893 0.038922731 0.43670335 4290294957
-0.027173774 0.038722213 0.43445358 4290229164
-0.026473997 0.038722213 0.43445358 4290425519
-0.025700072 0.038610816 0.43320373 4290491312
-0.024959024 0.038543977 0.43245381 4290557105
-0.024241431 0.038510557 0.43207884 4290425519
-0.023545478 0.038510557 0.43207884 4290491312
-0.02277682 0.038388018 0.430704 4290491312
-0.021986956 0.03822092 0.42882919 4290491312
-0.021296239 0.03822092 0.42882919 4290557105
-0.020515434 0.038053822 0.42695439 4290557105
-0.019769689 0.037942421 0.42570451 4290491312
-0.019050386 0.037875582 0.42495459 4290557105
-0.018365908 0.037875582 0.42495459 4290557105
-0.017645027 0.037797604 0.42407969 4290557105
-0.016916968 0.037697345 0.42295483 4290491312
-0.016235711 0.037697345 0.42295483 4290557105
-0.015517682 0.037608225 0.42195493 4290491312
-0.01481606 0.037552524 0.42132998 4290491312
-0.01412484 0.037519109 0.42095503 4290491312
-0.013446804 0.037519109 0.42095503 4290491312
-0.012753603 0.037474547 0.42045507 4290557105
-0.012054833 0.037407707 0.41970515 4290491312
-0.011348314 0.037307449 0.41858029 4290425519
-0.010674104 0.037307449 0.41858029 4290491312
-0.0099789919 0.037229471 0.41770539 4290557105
-0.0093006203 0.03720719 0.4174554 4290557105
-0.0086230552 0.037184909 0.41720542 4290557105
-0.0079510594 0.037184909 0.41720542 4290491312
-0.0072747008 0.037162628 0.41695544 4290491312
-0.0065991492 0.037140351 0.41670549 4290491312
-0.0059226239 0.037106931 0.41633052 4290425519
-0.0052520372 0.037106931 0.41633052 4290491312
-0.0045773243 0.037073512 0.41595557 4290491312
-0.0039049932 0.037051231 0.41570559 4290557105
-0.0032334672 0.03702895 0.41545561 4290557105
-0.0025642896 0.03702895 0.41545561 4290622898
-0.0018939713 0.037006672 0.41520563 4290622898
-0.00122409 0.036973253 0.41483068 4290622898
-0.00055524887 0.036928691 0.41433072 4290622898
0.00011211698 0.036928691 0.41433072 4290754484
0.00077854225 0.036884133 0.41383079 4290622898
0.0014433571 0.036839575 0.41333085 4290689461
0.0021065613 0.036795013 0.41283089 4290689461
0.0027715112 0.036795013 0.41283089 4290689461
0.0034333402 0.036761597 0.41245595 4290689461
0.0040952028 0.036739316 0.41220596 4290755254
0.0047562597 0.036717035 0.41195598 4290755254
0.005419801 0.036717035 0.41195598 4290689461
0.0060796509 0.036694758 0.41170603 4290755254
0.0067386949 0.036672477 0.41145605 4290755254
0.0073969332 0.036650196 0.41120607 4290755254
0.008059267 0.036650196 0.41120607 4290821047
0.0087162973 0.036627915 0.41095608 4290755254
0.0093696713 0.036594499 0.41058114 4290755254
0.010021836 0.036561076 0.41020617 4290755254
0.010682559 0.036561076 0.41020617 4290821047
0.011336369 0.036538798 0.40995622 4290886840
0.011985716 0.036505379 0.40958124 4290886840
0.012637714 0.036483098 0.40933126 4290952633
0.013297027 0.036483098 0.40933126 4290821560
0.013947817 0.036460821 0.40908131 4290755767
0.01459334 0.036427397 0.40870634 4290755767
0.015242319 0.03640512 0.40845636 4290821560
0.015900223 0.03640512 0.40845636 4290887353
0.016542926 0.0363717 0.40808141 4290887353
0.017184421 0.036338281 0.40770644 4291018941
0.017830178 0.036316 0.40745646 4291018941
0.018480802 0.036304861 0.4073315 4290887355
0.019136894 0.036304861 0.4073315 4291018941
0.019780841 0.03628258 0.40708151 4291018941
0.020430254 0.036271442 0.40695652 4291018941
0.02107279 0.036249161 0.40670654 4291018941
0.021727875 0.036249161 0.40670654 4291018941
0.022382962 0.036249161 0.40670654 4290887355
0.023030967 0.036238018 0.40658155 4291018941
0.023685852 0.036238018 0.40658155 4291150527
0.024340736 0.036238018 0.40658155 4291084734
0.024995619 0.036238018 0.40658155 4291216320
0.025650505 0.036238018 0.40658155 4291084734
0.026305387 0.036238018 0.40658155 4291150274
0.026960272 0.036238018 0.40658155 4291216067
0.027615154 0.036238018 0.40658155 4291084481
0.02827004 0.036238018 0.40658155 4291150274
0.028933816 0.036249161 0.40670654 4291150274
0.029588902 0.036249161 0.40670654 4291150274
0.030243989 0.036249161 0.40670654 4291084481
0.030899072 0.036249161 0.40670654 4291084481
0.031563856 0.036260299 0.40683153 4291216067
0.032219142 0.036260299 0.40683153 4291150274
0.032874431 0.036260299 0.40683153 4291150274
0.033529714 0.036260299 0.40683153 4291150274
0.034185003 0.036260299 0.40683153 4291216067
0.03484029 0.036260299 0.40683153 4291216067
0.035495576 0.036260299 0.40683153 4291150274
0.036150865 0.036260299 0.40683153 4291150274
0.036817458 0.036271442 0.40695652 4291216067
0.037472948 0.036271442 0.40695652 4291216067
0.038140144 0.03628258 0.40708151 4291216067
0.038807746 0.036293723 0.40720651 4291216067
0.039463639 0.036293723 0.40720651 4291150274
0.040131841 0.036304861 0.4073315 4291150274
0.040800449 0.036316 0.40745646 4291150274
0.041482173 0.036338281 0.40770644 4291216067
0.042138871 0.036338281 0.40770644 4291347653
0.04282181 0.036360558 0.40795642 4291281860
0.043505549 0.036382839 0.4082064 4291479239
0.044190094 0.03640512 0.40845636 4291479239
0.044875443 0.036427397 0.40870634 4291479239
0.04553375 0.036427397 0.40870634 4291347653
0.04622031 0.036449678 0.40895632 4291216837
0.046921998 0.036483098 0.40933126 4291151044
0.047610372 0.036505379 0.40958124 4291216837
0.048299547 0.03652766 0.40983123 4291216837
0.048959665 0.03652766 0.40983123 4291348676
0.049650047 0.036549937 0.41008118 4291348676
0.050356571 0.036583357 0.41045615 4291216837
0.051048767 0.036605638 0.41070613 4291216837
0.051710296 0.036605638 0.41070613 4291216837
0.052403696 0.036627915 0.41095608 4291216837
0.053097907 0.036650196 0.41120607 4291348423
0.05379292 0.036672477 0.41145605 4291348423
0.054505277 0.036705896 0.41183099 4291216837
0.055168618 0.036705896 0.41183099 4291216837
0.055882797 0.036739316 0.41220596 4291348423
0.056581032 0.036761597 0.41245595 4291216837
0.057280064 0.036783874 0.4127059 4291216839
0.057944816 0.036783874 0.4127059 4291151046
0.058662817 0.036817294 0.41308087 4291151046
0.059382025 0.036850717 0.41345584 4291216839
0.060102433 0.036884133 0.41383079 4291216839
0.060824055 0.036917552 0.41420576 4291216839
0.061491221 0.036917552 0.41420576 4291151046
0.062233411 0.036962114 0.41470569 4291216839
0.06297721 0.037006672 0.41520563 4291348423
0.063722618 0.037051231 0.41570559 4291216837
0.064489 0.037106931 0.41633052 4291151044
0.065159589 0.037106931 0.41633052 4291085251
0.065909229 0.037151493 0.41683048 4291216837
0.066660479 0.037196051 0.41733041 4291348423
0.06741333 0.03724061 0.41783035 4291217090
0.068147443 0.037274029 0.41820532 4291217090
0.06882105 0.037274029 0.41820532 4291151297
0.069619268 0.037340868 0.41895524 4291151297
0.070398934 0.037396565 0.41958016 4291151297
0.071222961 0.037474547 0.42045507 4291151297
0.072028436 0.037541386 0.42120501 4291217090
0.072706878 0.037541386 0.42120501 4291217090
0.073537752 0.037619367 0.42207992 4291217090
0.074371435 0.037697345 0.42295483 4291217090
0.075185761 0.037764184 0.42370474 4291217090
0.075980127 0.037819885 0.42432967 4291151297
0.076663598 0.037819885 0.42432967 4291085504
0.07750655 0.037897862 0.42520458 4291085504
0.078352317 0.03797584 0.42607948 4291217088
0.079200901 0.038053822 0.42695439 4291348674
0.080099083 0.038154081 0.42807928 4291085502
0.080788597 0.038154081 0.42807928 4291151295
0.081715994 0.038265478 0.42932913 4291151295
0.082671419 0.038388018 0.430704 4291085502
0.083655454 0.038521696 0.43220383 4290954175
0.084644325 0.038655374 0.43370366 4290954175
0.085785605 0.038855892 0.43595344 4290691003
0.086661361 0.038933873 0.43682835 4290822589
0.087364964 0.038933873 0.43682835 4290822336
0.088547342 0.039145529 0.43920308 4290559164
0.089788169 0.039379466 0.4418278 4290427578
0.090679027 0.039457444 0.44270271 4290361785
0.091392092 0.039457444 0.44270271 4288058775
0.092105158 0.039457444 0.44270271 4283190093
-0.034682751 0.040011734 0.4409529 4289634976
-0.033972505 0.040011734 0.4409529 4290029986
-0.03326226 0.040011734 0.4409529 4290029986
-0.032625828 0.040102467 0.44195279 4290095779
-0.03191397 0.040102467 0.44195279 4290161572
-0.031202111 0.040102467 0.44195279 4290162086
-0.030464388 0.04006844 0.44157782 4290359465
-0.029593125 0.039852958 0.43920308 4290294185
-0.0288857 0.039852958 0.43920308 4290425771
-0.028017893 0.039626136 0.43670335 4290359980
-0.027173774 0.039421991 0.43445358 4290425773
-0.026458766 0.039399311 0.43420362 4290425773
-0.025700072 0.039308582 0.43320373 4290491566
-0.024959024 0.039240535 0.43245381 4290556846
-0.024241431 0.039206509 0.43207884 4290425260
-0.023545478 0.039206509 0.43207884 4290491053
-0.02277682 0.039081756 0.430704 4290491053
-0.021986956 0.038911641 0.42882919 4290556846
-0.021296239 0.038911641 0.42882919 4290556846
-0.020515434 0.038741522 0.42695439 4290622385
-0.019769689 0.038628109 0.42570451 4290556592
-0.019050386 0.038560063 0.42495459 4290491312
-0.018365908 0.038560063 0.42495459 4290622898
-0.017645027 0.038480673 0.42407969 4290622898
-0.016916968 0.038378604 0.42295483 4290557105
-0.016206924 0.038310554 0.42220488 4290557359
-0.015517682 0.038287874 0.42195493 4290557359
-0.01481606 0.038231164 0.42132998 4290557359
-0.01412484 0.038197145 0.42095503 4290491566
-0.013446804 0.038197145 0.42095503 4290491566
-0.012753603 0.038151778 0.42045507 4290557359
-0.012054833 0.038083732 0.41970515 4290491566
-0.011348314 0.037981663 0.41858029 4290557359
-0.010674104 0.037981663 0.41858029 4290491566
-0.0099789919 0.037902273 0.41770539 4290557359
-0.0093006203 0.03787959 0.4174554 4290491566
-0.0086230552 0.037856907 0.41720542 4290491566
-0.0079510594 0.037856907 0.41720542 4290425519
-0.0072747008 0.037834223 0.41695544 4290491312
-0.0065991492 0.037811544 0.41670549 4290557105
-0.0059226239 0.037777521 0.41633052 4290491312
-0.0052520372 0.037777521 0.41633052 4290556592
-0.0045773243 0.037743498 0.41595557 4290556592
-0.0039049932 0.037720814 0.41570559 4290557105
-0.0032334672 0.037698131 0.41545561 4290557105
-0.0025642896 0.037698131 0.41545561 4290622898
-0.0018939713 0.037675448 0.41520563 4290622898
-0.00122409 0.037641425 0.41483068 4290622898
-0.00055524887 0.037596058 0.41433072 4290557105
0.00011211698 0.037596058 0.41433072 4290557105
0.00077854225 0.037550695 0.41383079 4290622898
0.0014433571 0.037505332 0.41333085 4290623668
0.0021065613 0.037459966 0.41283089 4290623668
0.0027715112 0.037459966 0.41283089 4290689461
0.0034333402 0.037425943 0.41245595 4290689461
0.0040952028 0.037403259 0.41220596 4290755254
0.0047562597 0.037380576 0.41195598 4290755254
0.005419801 0.037380576 0.41195598 4290755254
0.0060796509 0.037357897 0.41170603 4290755254
0.0067386949 0.037335213 0.41145605 4290689461
0.0073969332 0.03731253 0.41120607 4290689461
0.008059267 0.03731253 0.41120607 4290755254
0.0087162973 0.037289847 0.41095608 4290821047
0.0093696713 0.037255824 0.41058114 4290755254
0.010021836 0.037221801 0.41020617 4290755254
0.010682559 0.037221801 0.41020617 4290821047
0.011336369 0.037199121 0.40995622 4290886840
0.011985716 0.037165094 0.40958124 4290886840
0.012637714 0.037142411 0.40933126 4290952633
0.013297027 0.037142411 0.40933126 4290886840
0.013947817 0.037119731 0.40908131 4290821047
0.01459334 0.037085708 0.40870634 4290755767
0.015242319 0.037063025 0.40845636 4290755767
0.015900223 0.037063025 0.40845636 4290887353
0.016542926 0.037029002 0.40808141 4290821560
0.017184421 0.036994975 0.40770644 4290887353
0.017830178 0.036972292 0.40745646 4290887353
0.018480802 0.036960956 0.4073315 4290887355
0.019136894 0.036960956 0.4073315 4291018941
0.019780841 0.036938272 0.40708151 4291084734
0.020430254 0.036926929 0.40695652 4291018941
0.02107279 0.036904246 0.40670654 4291018941
0.021727875 0.036904246 0.40670654 4291018941
0.022382962 0.036904246 0.40670654 4290887355
0.023030967 0.036892906 0.40658155 4291018941
0.023685852 0.036892906 0.40658155 4291084481
0.024340736 0.036892906 0.40658155 4291084481
0.024995619 0.036892906 0.40658155 4291150274
0.025666276 0.036915589 0.40683153 4291084481
0.02632156 0.036915589 0.40683153 4291150274
0.026976848 0.036915589 0.40683153 4291084481
0.027615154 0.036892906 0.40658155 4291084481
0.02827004 0.036892906 0.40658155 4291084481
0.028933816 0.036904246 0.40670654 4291084481
0.029588902 0.036904246 0.40670654 4291018688
0.030243989 0.036904246 0.40670654 4291084481
0.030899072 0.036904246 0.40670654 4291084481
0.031563856 0.036915589 0.40683153 4290887102
0.032219142 0.036915589 0.40683153 4291018688
0.032874431 0.036915589 0.40683153 4291150274
0.033529714 0.036915589 0.40683153 4291216067
0.034185003 0.036915589 0.40683153 4291150274
0.03484029 0.036915589 0.40683153 4291150274
0.035495576 0.036915589 0.40683153 4291150274
0.036150865 0.036915589 0.40683153 4291150274
0.036817458 0.036926929 0.40695652 4291216067
0.037472948 0.036926929 0.40695652 4291216067
0.038140144 0.036938272 0.40708151 4291150274
0.038807746 0.036949612 0.40720651 4291150274
0.039463639 0.036949612 0.40720651 4291150274
0.040131841 0.036960956 0.4073315 4291150274
0.040800449 0.036972292 0.40745646 4291084481
0.041482173 0.036994975 0.40770644 4291216067
0.042138871 0.036994975 0.40770644 4291347653
0.04282181 0.037017658 0.40795642 4291281860
0.043505549 0.037040342 0.4082064 4291347653
0.044190094 0.037063025 0.40845636 4291347653
0.044875443 0.037085708 0.40870634 4291479239
0.04553375 0.037085708 0.40870634 4291479239
0.04622031 0.037108392 0.40895632 4291216837
0.046921998 0.037142411 0.40933126 4291151044
0.047610372 0.037165094 0.40958124 4291151044
0.048299547 0.037187777 0.40983123 4291216837
0.048959665 0.037187777 0.40983123 4291216837
0.049650047 0.037210457 0.41008118 4291216837
0.050356571 0.037244484 0.41045615 4291216837
0.051048767 0.037267167 0.41070613 4291216837
0.051710296 0.037267167 0.41070613 4291151044
0.052403696 0.037289847 0.41095608 4291085251
0.053097907 0.03731253 0.41120607 4291216837
0.05379292 0.037335213 0.41145605 4291216837
0.054505277 0.037369236 0.41183099 4291216837
0.055168618 0.037369236 0.41183099 4291019458
0.055882797 0.037403259 0.41220596 4291085251
0.056581032 0.037425943 0.41245595 4291216837
0.057280064 0.037448622 0.4127059 4291216839
0.057944816 0.037448622 0.4127059 4291348425
0.058662817 0.037482649 0.41308087 4291216839
0.059382025 0.037516672 0.41345584 4291151046
0.060102433 0.037550695 0.41383079 4291216839
0.060824055 0.037584718 0.41420576 4291216839
0.061491221 0.037584718 0.41420576 4291085253
0.062233411 0.037630085 0.41470569 4291216839
0.06297721 0.037675448 0.41520563 4291085251
0.063722618 0.037720814 0.41570559 4291151044
0.064489 0.037777521 0.41633052 4291151044
0.065159589 0.037777521 0.41633052 4291085251
0.065909229 0.037822884 0.41683048 4291216837
0.066660479 0.03786825 0.41733041 4291216837
0.06741333 0.037913613 0.41783035 4291216837
0.068147443 0.037947636 0.41820532 4291151044
0.06882105 0.037947636 0.41820532 4291085251
0.069619268 0.038015682 0.41895524 4291151044
0.070398934 0.038072389 0.41958016 4291151044
0.071222961 0.038151778 0.42045507 4291151044
0.072028436 0.038219828 0.42120501 4291151297
0.072706878 0.038219828 0.42120501 4291217090
0.073537752 0.038299214 0.42207992 4291217090
0.074371435 0.038378604 0.42295483 4291151297
0.075185761 0.03844665 0.42370474 4291151297
0.075980127 0.038503356 0.42432967 4291151297
0.076663598 0.038503356 0.42432967 4291151297
0.07750655 0.038582746 0.42520458 4291085504
0.078352317 0.038662132 0.42607948 4291217088
0.079200901 0.038741522 0.42695439 4291414467
0.080099083 0.038843594 0.42807928 4291085502
0.080788597 0.038843594 0.42807928 4291085502
0.081715994 0.038957004 0.42932913 4291085504
0.082671419 0.039081756 0.430704 4291019711
0.083655454 0.039217852 0.43220383 4290888382
0.084644325 0.039353944 0.43370366 4290822589
0.085785605 0.039558087 0.43595344 4290690750
0.087033294 0.039807592 0.43870312 4290822336
0.087739922 0.039807592 0.43870312 4290822336
0.088975713 0.040045757 0.44132784 4290559164
0.090016767 0.040193196 0.44295269 4290427831
0.090909444 0.040272582 0.4438276 4290230452
-0.034790888 0.040848948 0.44232774 4290029734
-0.03407843 0.040848948 0.44232774 4289701535
-0.033365969 0.040848948 0.44232774 4289767328
-0.032708868 0.040918201 0.44307765 4289964709
-0.031977151 0.040895119 0.4428277 4290030502
-0.03126388 0.040895119 0.4428277 4290096295
-0.030473011 0.040791236 0.44170281 4290227881
-0.029609969 0.040583469 0.43945307 4290294187
-0.028902141 0.040583469 0.43945307 4290425773
-0.028082045 0.040421873 0.43770325 4290425519
-0.02725195 0.040237196 0.43570346 4290425519
-0.026458766 0.040098686 0.43420362 4290359980
-0.025759391 0.040098686 0.43420362 4290491566
-0.025002306 0.040006343 0.43320373 4290491053
-0.024255455 0.039925545 0.43232882 4290425260
-0.023559101 0.039925545 0.43232882 4290491053
-0.022790037 0.039798576 0.43095395 4290491053
-0.02200618 0.039636981 0.42920414 4290491053
-0.021240374 0.039498474 0.4277043 4290491053
-0.020527447 0.039452303 0.42720437 4290556592
-0.019792907 0.039359964 0.42620447 4290622385
-0.019072799 0.039290708 0.42545456 4290491312
-0.018387517 0.039290708 0.42545456 4290030761
-0.017660629 0.039198369 0.42445466 4290557359
-0.016931966 0.039094485 0.42332977 4290623152
-0.016206924 0.038990602 0.42220488 4290557359
-0.015526874 0.038990602 0.42220488 4290557359
-0.01481606 0.038909804 0.42132998 4290557359
-0.01412484 0.038875178 0.42095503 4290491566
-0.013446804 0.038875178 0.42095503 4290491566
-0.012753603 0.038829006 0.42045507 4290491566
-0.012054833 0.038759753 0.41970515 4290491566
-0.011351702 0.038667411 0.41870525 4290557359
-0.01067729 0.038667411 0.41870525 4290491566
-0.0099849626 0.038598157 0.41795534 4290557359
-0.0093061896 0.038575072 0.41770539 4290491566
-0.0086256387 0.038540445 0.41733041 4290425773
-0.0079534408 0.038540445 0.41733041 4290491312
-0.0072790626 0.038528901 0.41720542 4290491312
-0.0066031078 0.038505815 0.41695544 4290622898
-0.0059261802 0.038471188 0.4165805 4290491312
-0.0052551907 0.038471188 0.4165805 4290556592
-0.0045800749 0.038436562 0.41620553 4290556592
-0.0039073415 0.038413476 0.41595557 4290622385
-0.0032354128 0.038390391 0.41570559 4290622385
-0.0025658323 0.038390391 0.41570559 4290557105
-0.0018951116 0.038367305 0.41545561 4290557105
-0.0012244588 0.038321137 0.41495568 4290557105
-0.00055541639 0.038274966 0.41445571 4290557105
0.0001121508 0.038274966 0.41445571 4290491312
0.00077877741 0.038228799 0.41395578 4290557105
0.0014433571 0.038171086 0.41333085 4290622898
0.002107199 0.038136456 0.41295588 4290754484
0.0027723503 0.038136456 0.41295588 4290623668
0.0034333402 0.038090289 0.41245595 4290623668
0.0040952028 0.038067203 0.41220596 4290623668
0.0047562597 0.038044117 0.41195598 4290755254
0.005419801 0.038044117 0.41195598 4290755254
0.0060796509 0.038021032 0.41170603 4290755254
0.0067386949 0.037997946 0.41145605 4290689461
0.00740143 0.037997946 0.41145605 4290623668
0.0080641666 0.037997946 0.41145605 4290689461
