# .PCD v0.7 - Point Cloud Data file format
VERSION 0.7
FIELDS x y z rgba
SIZE 4 4 4 4
TYPE F F F U
COUNT 1 1 1 1
WIDTH 1004
HEIGHT 1
VIEWPOINT 0 0 0 1 0 0 0
POINTS 1004
DATA ascii
-0.01034263 -0.040937394 0.40558168 4291545802
-0.0096893562 -0.040937394 0.40558168 4291611595
-0.0090416512 -0.040962622 0.40583163 4291677388
-0.0083957249 -0.041000471 0.40620661 4291808974
-0.0077509726 -0.04105093 0.40670654 4291808204
-0.0071067903 -0.04111401 0.4073315 4291808204
-0.0064506982 -0.04111401 0.4073315 4291939792
-0.0058017178 -0.041164469 0.40783143 4292005585
-0.0051527042 -0.041227546 0.40845636 4292005585
-0.0045016776 -0.041290626 0.40908131 4291939792
-0.0038486375 -0.041353703 0.40970623 4292005585
-0.0031945566 -0.041429397 0.41045615 4291939792
-0.0025334316 -0.041429397 0.41045615 4291939792
-0.0018745869 -0.041479856 0.41095608 4291939792
-0.0012145009 -0.041542936 0.41158104 4291808206
-0.00055206649 -0.041580781 0.41195598 4291808206
0.00011157584 -0.04161863 0.41233096 4291808206
0.00077572063 -0.04161863 0.41233096 4291742413
0.0014411747 -0.041656476 0.4127059 4291808208
0.002107199 -0.041681707 0.41295588 4291742415
0.0027748677 -0.041719556 0.41333085 4291676622
0.0034406229 -0.041719556 0.41333085 4291742415
0.0041101035 -0.041757401 0.4137058 4291676622
0.0047822348 -0.041807864 0.41420576 4291676622
0.0054592658 -0.041883554 0.41495568 4291545806
0.0061424039 -0.04198448 0.41595557 4291545806
0.0068328562 -0.042110633 0.41720542 4291677392
0.007504852 -0.042110633 0.41720542 4291611599
0.0082013449 -0.04223679 0.4184553 4291611599
0.0088965623 -0.042337716 0.4194552 4291611599
0.0095921475 -0.042426024 0.42033011 4291808206
0.010290552 -0.042514332 0.42120501 4291676620
0.01098852 -0.042590026 0.42195493 4291808976
0.011668165 -0.042590026 0.42195493 4291808976
0.012369758 -0.04266572 0.42270485 4291808976
0.013077623 -0.042754028 0.42357975 4291677390
0.013792368 -0.042854954 0.42457965 4291808206
0.014510333 -0.042955875 0.42557955 4291742413
0.015195818 -0.042955875 0.42557955 4291742413
0.015923278 -0.043069415 0.42670441 4291742413
0.01665923 -0.043195572 0.42795429 4291808206
0.017404273 -0.043334339 0.42932913 4291808206
0.018164281 -0.043498341 0.43095395 4291808208
0.018945932 -0.043700192 0.43295375 4291808208
0.019734025 -0.04390204 0.43495354 4291677392
0.020434609 -0.04390204 0.43495354 4291545806
0.021232365 -0.044103887 0.43695331 4291611345
0.022011466 -0.044255275 0.43845317 4291611345
0.022769494 -0.044356201 0.43945307 4291480016
0.023524066 -0.044444509 0.44032797 4291480016
0.024267698 -0.044507585 0.4409529 4291414477
0.024977943 -0.044507585 0.4409529 4291348684
0.025731878 -0.04458328 0.44170281 4291348684
0.026510676 -0.044696819 0.4428277 4291282891
0.027331516 -0.044873435 0.44457752 4291348684
0.028110683 -0.044974357 0.44557738 4291151305
0.028990107 -0.045226671 0.44807714 4291085510
-0.11514273 -0.046156038 0.46470034 4290229946
-0.11439423 -0.046156038 0.46470034 4290164153
-0.10398526 -0.043375254 0.43670335 4290887872
-0.10328186 -0.043375254 0.43670335 4291019458
-0.10137477 -0.042866275 0.4315789 4291085251
-0.10035889 -0.042729717 0.43020403 4291085251
-0.099665955 -0.042729717 0.43020403 4291151044
-0.098570459 -0.042555917 0.42845422 4291085251
-0.097880341 -0.042555917 0.42845422 4291281860
-0.095829345 -0.041960035 0.42245486 4291479239
-0.093882121 -0.041401397 0.41683048 4291347653
-0.093210727 -0.041401397 0.41683048 4291347653
-0.092289597 -0.041289669 0.41570559 4291216320
-0.091537371 -0.041252423 0.41533062 4291216320
-0.090868399 -0.041252423 0.41533062 4291347906
-0.090145141 -0.041227598 0.41508067 4291282113
-0.089395732 -0.041190352 0.41470569 4291347906
-0.088674277 -0.041165523 0.41445571 4291347906
-0.08800672 -0.041165523 0.41445571 4291282113
-0.087286472 -0.041140698 0.41420576 4291347906
-0.086514756 -0.04109104 0.4137058 4291282113
-0.085744657 -0.041041382 0.41320586 4291282113
-0.085079096 -0.041041382 0.41320586 4291347906
-0.084183745 -0.040929653 0.41208097 4291479492
-0.083444007 -0.040892415 0.41170603 4291479492
-0.082780868 -0.040892415 0.41170603 4291347906
-0.081968151 -0.040817928 0.41095608 4291347906
-0.081207305 -0.040768269 0.41045615 4291479492
-0.080448084 -0.040718615 0.40995622 4291347906
-0.079787761 -0.040718615 0.40995622 4291347906
-0.079030938 -0.040668957 0.40945625 4291281860
-0.078251809 -0.040606886 0.40883133 4291281860
-0.077450983 -0.040532403 0.40808141 4291281860
-0.076793678 -0.040532403 0.40808141 4291347653
-0.076066419 -0.040495157 0.40770644 4291216067
-0.075317249 -0.040445503 0.40720651 4291150274
-0.074661359 -0.040445503 0.40720651 4291347140
-0.073891893 -0.040383428 0.40658155 4291412933
-0.073146954 -0.040333774 0.40608162 4291413186
-0.072425939 -0.040296528 0.40570664 4291347393
-0.071772464 -0.040296528 0.40570664 4291281600
-0.071031347 -0.040246874 0.40520671 4291281600
-0.070313558 -0.040209629 0.40483174 4291347393
-0.069639988 -0.040197216 0.40470678 4291347393
-0.068988122 -0.040197216 0.40470678 4291347393
-0.068294041 -0.040172387 0.40445679 4291347393
-0.067579873 -0.040135145 0.40408182 4291544002
-0.066887617 -0.04011032 0.40383187 4291412416
-0.066237159 -0.04011032 0.40383187 4291215807
-0.065546103 -0.040085487 0.40358189 4291347393
-0.064835757 -0.040048245 0.40320691 4291413186
-0.064146519 -0.04002342 0.40295696 4291347393
-0.063497476 -0.04002342 0.40295696 4291347393
-0.062789939 -0.039986175 0.40258199 4291347393
-0.062102914 -0.039961345 0.40233201 4291215807
-0.061416693 -0.03993652 0.40208206 4291150014
-0.060769059 -0.03993652 0.40208206 4291150014
-0.060084045 -0.039911691 0.40183207 4291215807
-0.059399832 -0.039886862 0.40158209 4291084734
-0.058698144 -0.03984962 0.40120715 4291150527
-0.058051914 -0.03984962 0.40120715 4291150527
-0.057369925 -0.039824791 0.40095717 4291216320
-0.056671049 -0.039787546 0.40058219 4291216320
-0.055973388 -0.039750304 0.40020725 4291282113
-0.055328768 -0.039750304 0.40020725 4291282111
-0.054649994 -0.039725475 0.39995727 4291347904
-0.053972028 -0.039700646 0.39970729 4291347391
-0.053294867 -0.039675821 0.39945734 4291413184
-0.052618507 -0.039650992 0.39920735 4291413184
-0.051942952 -0.039626162 0.39895737 4291413184
-0.051252142 -0.039588921 0.39858243 4291413186
-0.05061014 -0.039588921 0.39858243 4291347393
-0.04995247 -0.039576508 0.39845744 4291413186
-0.049279734 -0.039551675 0.39820746 4291544772
-0.048607808 -0.039526846 0.39795747 4291347393
-0.047966812 -0.039526846 0.39795747 4291347393
-0.047296096 -0.039502021 0.39770752 4291479492
-0.046655502 -0.039502021 0.39770752 4291479492
-0.045985989 -0.039477192 0.39745754 4291479492
-0.045345802 -0.039477192 0.39745754 4291479492
-0.04471967 -0.039489608 0.39758253 4291479239
-0.044079285 -0.039489608 0.39758253 4291281860
-0.04345255 -0.039502021 0.39770752 4291347653
-0.04281196 -0.039502021 0.39770752 4291479239
-0.042197872 -0.039526846 0.39795747 4291216837
-0.041556876 -0.039526846 0.39795747 4291216837
-0.040941589 -0.039551675 0.39820746 4291216837
-0.040312842 -0.039564092 0.39833245 4291216837
-0.039708588 -0.039601337 0.39870742 4291348423
-0.039090879 -0.039626162 0.39895737 4291414216
-0.038412143 -0.039588921 0.39858243 4291479239
-0.037734609 -0.039551675 0.39820746 4291545032
-0.037093211 -0.039551675 0.39820746 4291610825
-0.036451817 -0.039551675 0.39820746 4291545032
-0.035810418 -0.039551675 0.39820746 4291545032
-0.035180062 -0.039564092 0.39833245 4291545032
-0.034549303 -0.039576508 0.39845744 4291610825
-0.033918142 -0.039588921 0.39858243 4291610825
-0.033276141 -0.039588921 0.39858243 4291545032
-0.032644372 -0.039601337 0.39870742 4291545032
-0.032042302 -0.039650992 0.39920735 4291480009
-0.031438615 -0.039700646 0.39970729 4291480009
-0.030842954 -0.03976272 0.40033224 4291611595
-0.030198134 -0.03976272 0.40033224 4291545802
-0.029580997 -0.039799962 0.40070719 4291480009
-0.028971676 -0.03984962 0.40120715 4291545802
-0.028351918 -0.039886862 0.40158209 4291480009
-0.027722334 -0.039911691 0.40183207 4291414216
-0.027075099 -0.039911691 0.40183207 4291480011
-0.026444308 -0.03993652 0.40208206 4291480011
-0.025812706 -0.039961345 0.40233201 4291414475
-0.025188118 -0.039998591 0.40270698 4291480268
-0.024569942 -0.040048245 0.40320691 4291480266
-0.023920493 -0.040048245 0.40320691 4291348680
-0.023299899 -0.040097903 0.40370688 4291348682
-0.022670681 -0.040135145 0.40408182 4291480268
-0.022040257 -0.040172387 0.40445679 4291545804
-0.021395404 -0.040184803 0.40458179 4291545804
-0.020743743 -0.040184803 0.40458179 4291414216
-0.020098286 -0.040197216 0.40470678 4291480009
-0.019452427 -0.040209629 0.40483174 4291480009
-0.018800359 -0.040209629 0.40483174 4291545802
-0.018148294 -0.040209629 0.40483174 4291545804
-0.017490828 -0.040197216 0.40470678 4291545804
-0.016838964 -0.040197216 0.40470678 4291414218
-0.0161871 -0.040197216 0.40470678 4291480011
-0.015535235 -0.040197216 0.40470678 4291480009
-0.014883369 -0.040197216 0.40470678 4291480009
-0.014231505 -0.040197216 0.40470678 4291545802
-0.013588028 -0.040222045 0.40495673 4291545802
-0.012939754 -0.040234458 0.40508172 4291610825
-0.012287285 -0.040234458 0.40508172 4291610825
-0.011638407 -0.040246874 0.40520671 4291610825
-0.010989126 -0.040259287 0.4053317 4291610825
-0.01034263 -0.040284116 0.40558168 4291611078
-0.0096893562 -0.040284116 0.40558168 4291676871
-0.0090416512 -0.040308945 0.40583163 4291808204
-0.0083957249 -0.040346187 0.40620661 4291939790
-0.0077509726 -0.040395845 0.40670654 4291742411
-0.0071067903 -0.040457916 0.4073315 4291676618
-0.0064506982 -0.040457916 0.4073315 4291808204
-0.0058017178 -0.04050757 0.40783143 4291939790
-0.0051527042 -0.040569641 0.40845636 4291808206
-0.0045016776 -0.040631715 0.40908131 4291742413
-0.0038486375 -0.040693786 0.40970623 4291676618
-0.0031945566 -0.040768269 0.41045615 4291808204
-0.0025334316 -0.040768269 0.41045615 4291808204
-0.0018745869 -0.040817928 0.41095608 4291742411
-0.0012145009 -0.040879998 0.41158104 4291676618
-0.00055206649 -0.04091724 0.41195598 4291808204
0.00011157584 -0.040954486 0.41233096 4291808204
0.00077572063 -0.040954486 0.41233096 4291676618
0.0014411747 -0.040991724 0.4127059 4291742413
0.002107199 -0.041016553 0.41295588 4291742413
0.0027748677 -0.041053798 0.41333085 4291676620
0.0034406229 -0.041053798 0.41333085 4291808206
0.0041101035 -0.04109104 0.4137058 4291676620
0.0047822348 -0.041140698 0.41420576 4291808206
0.0054592658 -0.041215181 0.41495568 4291545804
0.0061424039 -0.041314498 0.41595557 4291545804
0.0068328562 -0.041438635 0.41720542 4291545806
0.007504852 -0.041438635 0.41720542 4291611599
0.0082013449 -0.041562781 0.4184553 4291611599
0.0088965623 -0.041662093 0.4194552 4291611599
0.0095921475 -0.041748993 0.42033011 4291742413
0.010290552 -0.041835893 0.42120501 4291808206
0.01098852 -0.04191038 0.42195493 4291808206
0.011668165 -0.04191038 0.42195493 4291939792
0.012369758 -0.041984864 0.42270485 4291808206
0.013077623 -0.042071763 0.42357975 4291808206
0.013792368 -0.042171076 0.42457965 4291873486
0.014510333 -0.042270392 0.42557955 4291807693
0.015195818 -0.042270392 0.42557955 4291807693
0.015923278 -0.042382117 0.42670441 4291807693
0.01665923 -0.042506259 0.42795429 4291742413
0.017404273 -0.042642817 0.42932913 4291808206
0.018164281 -0.0428042 0.43095395 4291808206
0.018945932 -0.043002829 0.43295375 4291742413
0.019734025 -0.043201458 0.43495354 4291808206
0.020434609 -0.043201458 0.43495354 4291742413
0.021232365 -0.043400083 0.43695331 4291611345
0.022011466 -0.043549053 0.43845317 4291545552
0.022769494 -0.04364837 0.43945307 4291545552
0.023524066 -0.043735269 0.44032797 4291545552
0.024267698 -0.043797337 0.4409529 4291480270
0.024977943 -0.043797337 0.4409529 4291282891
0.025731878 -0.043871824 0.44170281 4291348684
0.026510676 -0.043983553 0.4428277 4291282891
0.027331516 -0.044157352 0.44457752 4291282891
0.028110683 -0.044256661 0.44557738 4291151305
0.028990107 -0.044504948 0.44807714 4291151048
0.02981957 -0.044666335 0.44970196 4290953669
0.030543908 -0.044666335 0.44970196 4291610827
-0.11673384 -0.045444183 0.46507531 4280756009
-0.11598474 -0.045444183 0.46507531 4283453522
-0.11514273 -0.045407541 0.46470034 4288781476
-0.11439423 -0.045407541 0.46470034 4291215817
-0.10398526 -0.042671856 0.43670335 4291019458
-0.10322274 -0.042647429 0.43645337 4291019458
-0.10137477 -0.042171128 0.4315789 4291019458
-0.10035889 -0.042036783 0.43020403 4291019458
-0.099665955 -0.042036783 0.43020403 4291084481
-0.098570459 -0.041865803 0.42845422 4291216067
-0.097880341 -0.041865803 0.42845422 4291281860
-0.095772639 -0.041255157 0.42220488 4291281860
-0.093853965 -0.040717792 0.41670549 4291216067
-0.093182772 -0.040717792 0.41670549 4291281860
-0.092289597 -0.040620089 0.41570559 4291216320
-0.091537371 -0.04058345 0.41533062 4291216320
-0.090868399 -0.04058345 0.41533062 4291347906
-0.090145141 -0.040559024 0.41508067 4291282113
-0.089395732 -0.040522385 0.41470569 4291282113
-0.088674277 -0.040497959 0.41445571 4291347906
-0.08800672 -0.040497959 0.41445571 4291282113
-0.087286472 -0.040473536 0.41420576 4291282113
-0.086514756 -0.040424682 0.4137058 4291216320
-0.085744657 -0.040375832 0.41320586 4291282113
-0.085079096 -0.040375832 0.41320586 4291347906
-0.084183745 -0.040265914 0.41208097 4291347906
-0.083444007 -0.040229276 0.41170603 4291347906
-0.082780868 -0.040229276 0.41170603 4291282113
-0.081968151 -0.040155996 0.41095608 4291282113
-0.081207305 -0.040107146 0.41045615 4291347906
-0.080448084 -0.040058296 0.40995622 4291347906
-0.079787761 -0.040058296 0.40995622 4291347906
-0.079030938 -0.040009443 0.40945625 4291281860
-0.078251809 -0.039948381 0.40883133 4291281860
-0.077450983 -0.039875101 0.40808141 4291281860
-0.076793678 -0.039875101 0.40808141 4291281860
-0.076066419 -0.039838463 0.40770644 4291281860
-0.075317249 -0.039789613 0.40720651 4291216067
-0.074661359 -0.039789613 0.40720651 4291347140
-0.073891893 -0.039728545 0.40658155 4291412933
-0.073146954 -0.039679695 0.40608162 4291413186
-0.072425939 -0.039643057 0.40570664 4291281600
-0.071772464 -0.039643057 0.40570664 4291215807
-0.071031347 -0.039594207 0.40520671 4291281600
-0.070313558 -0.039557565 0.40483174 4291347393
-0.069639988 -0.039545354 0.40470678 4291347393
-0.068988122 -0.039545354 0.40470678 4291281600
-0.068294041 -0.039520927 0.40445679 4291281600
-0.067600772 -0.0394965 0.40420681 4291544002
-0.066908315 -0.039472073 0.40395683 4291675588
-0.066257656 -0.039472073 0.40395683 4291346623
-0.065566406 -0.03944765 0.40370688 4291412416
-0.064875953 -0.039423224 0.4034569 4291347393
-0.064166412 -0.039386585 0.40308192 4291215807
-0.063517161 -0.039386585 0.40308192 4291215807
-0.062828928 -0.039362162 0.40283197 4291281600
-0.062122207 -0.03932552 0.402457 4291215807
-0.061435778 -0.039301094 0.40220702 4291150014
-0.060787946 -0.039301094 0.40220702 4291150014
-0.060102731 -0.039276671 0.40195706 4291215807
-0.059418321 -0.039252244 0.40170708 4291150527
-0.058734711 -0.039227817 0.4014571 4291150527
-0.058088083 -0.039227817 0.4014571 4291150527
-0.057405692 -0.039203394 0.40120715 4291150527
-0.056706414 -0.039166752 0.40083218 4291150527
-0.056008346 -0.039130114 0.4004572 4291216320
-0.055363324 -0.039130114 0.4004572 4291281600
-0.054684151 -0.039105691 0.40020725 4291215807
-0.053988907 -0.039069049 0.39983228 4291281600
-0.053294867 -0.039032415 0.39945734 4291413186
-0.052651457 -0.039032415 0.39945734 4291413186
-0.051942952 -0.038983561 0.39895737 4291413186
-0.051268212 -0.038959134 0.39870742 4291413186
-0.05062601 -0.038959134 0.39870742 4291347393
-0.04995247 -0.038934711 0.39845744 4291347906
-0.049295202 -0.038922496 0.39833245 4291347906
-0.04863834 -0.038910285 0.39820746 4291282113
-0.047981877 -0.038898069 0.39808246 4291282113
-0.047340684 -0.038898069 0.39808246 4291479492
-0.046655502 -0.038861431 0.39770752 4291347906
-0.046014912 -0.038861431 0.39770752 4291347906
-0.045388583 -0.038873646 0.39783251 4291347906
-0.044747788 -0.038873646 0.39783251 4291281860
-0.044106998 -0.038873646 0.39783251 4291281860
-0.04347986 -0.038885858 0.39795747 4291347653
-0.042865776 -0.038910285 0.39820746 4291347653
-0.042224377 -0.038910285 0.39820746 4291281860
-0.041582983 -0.038910285 0.39820746 4291347653
-0.040980142 -0.038946923 0.39858243 4291347653
-0.040350787 -0.038959134 0.39870742 4291347653
-0.039721034 -0.038971346 0.39883238 4291479239
-0.039152108 -0.039044622 0.3995823 4291545032
-0.038448274 -0.038983561 0.39895737 4291479239
-0.037781984 -0.038959134 0.39870742 4291479239
-0.037128139 -0.038946923 0.39858243 4291610312
-0.036486141 -0.038946923 0.39858243 4291610312
-0.035832901 -0.038934711 0.39845744 4291544519
-0.035191104 -0.038934711 0.39845744 4291610312
-0.03456014 -0.038946923 0.39858243 4291610312
-0.033928778 -0.038959134 0.39870742 4291676105
-0.033286575 -0.038959134 0.39870742 4291479239
-0.032664839 -0.038983561 0.39895737 4291545032
-0.032052334 -0.039020199 0.39933234 4291479239
-0.031448446 -0.039069049 0.39983228 4291545032
-0.03085258 -0.039130114 0.4004572 4291414216
-0.030207559 -0.039130114 0.4004572 4291414216
-0.029599451 -0.039178967 0.40095717 4291414216
-0.028989725 -0.039227817 0.4014571 4291480009
-0.028369566 -0.039264459 0.40183207 4291480009
-0.027739581 -0.039288882 0.40208206 4291480009
-0.027091943 -0.039288882 0.40208206 4291480009
-0.026460746 -0.039313309 0.40233201 4291545802
-0.025836764 -0.039349947 0.40270698 4291480268
-0.025203755 -0.039374374 0.40295696 4291348682
-0.024585174 -0.039423224 0.4034569 4291414475
-0.023935324 -0.039423224 0.4034569 4291348682
-0.023314325 -0.039472073 0.40395683 4291282889
-0.022691717 -0.039520927 0.40445679 4291414475
-0.022053879 -0.039545354 0.40470678 4291414218
-0.021408623 -0.039557565 0.40483174 4291545804
-0.020756558 -0.039557565 0.40483174 4291414216
-0.020110698 -0.03956978 0.40495673 4291480009
-0.019464439 -0.039581992 0.40508172 4291480009
-0.018811969 -0.039581992 0.40508172 4291480009
-0.018153897 -0.03956978 0.40495673 4291611595
-0.01750163 -0.03956978 0.40495673 4291480009
-0.016849363 -0.03956978 0.40495673 4291348423
-0.016197097 -0.03956978 0.40495673 4291414216
-0.01554483 -0.03956978 0.40495673 4291480009
-0.014892561 -0.03956978 0.40495673 4291480009
-0.01424469 -0.039581992 0.40508172 4291480009
-0.013596416 -0.039594207 0.40520671 4291480009
-0.012951732 -0.039618634 0.40545669 4291610825
-0.012298659 -0.039618634 0.40545669 4291610825
-0.011652766 -0.039643057 0.40570664 4291610825
-0.010999291 -0.039643057 0.40570664 4291610825
-0.010352191 -0.039667483 0.40595663 4291610825
-0.0097042853 -0.03969191 0.40620661 4291676618
-0.0090500051 -0.03969191 0.40620661 4291807691
-0.0084034745 -0.039728545 0.40658155 4292005070
-0.0077557368 -0.039765187 0.40695652 4291807691
-0.0071111512 -0.039826248 0.40758145 4291807691
-0.0064546568 -0.039826248 0.40758145 4291808206
-0.005805274 -0.039875101 0.40808141 4291939792
-0.0051542809 -0.039923955 0.40858135 4291873486
-0.0045030527 -0.039985016 0.40920627 4291807693
-0.0038509856 -0.040058296 0.40995622 4291676618
-0.0031965023 -0.040131573 0.41070613 4291676618
-0.0025349746 -0.040131573 0.41070613 4291742411
-0.0018757272 -0.040180422 0.41120607 4291742411
-0.0012148697 -0.040229276 0.41170603 4291742411
-0.00055223395 -0.040265914 0.41208097 4292268755
0.00011160966 -0.040302556 0.41245595 4292005070
0.00077595579 -0.040302556 0.41245595 4291741898
0.0014416112 -0.040339191 0.41283089 4291807691
0.0021084747 -0.040375832 0.41320586 4291807691
0.0027757068 -0.040400259 0.41345584 4291873486
0.0034416635 -0.040400259 0.41345584 4292005072
0.0041125868 -0.040449109 0.41395578 4291807693
0.004785121 -0.040497959 0.41445571 4291741900
0.0054625543 -0.040571235 0.41520563 4291676107
0.0061460948 -0.040668938 0.41620553 4291676107
0.0068369503 -0.040791068 0.4174554 4291676620
0.0075093489 -0.040791068 0.4174554 4291742413
0.0082037952 -0.040900987 0.41858029 4291545804
0.0089018634 -0.041010901 0.41970515 4291480011
0.0095978519 -0.041096389 0.42058006 4291742413
0.010296659 -0.041181881 0.42145497 4291808206
0.010995029 -0.041255157 0.42220488 4291742413
0.011675077 -0.041255157 0.42220488 4291808206
0.012377072 -0.041328438 0.42295483 4291808206
0.013085341 -0.041413929 0.42382973 4291808206
0.013800487 -0.041511629 0.4248296 4291873484
0.014518855 -0.041609332 0.4258295 4291807691
0.015204742 -0.041609332 0.4258295 4291741898
0.015932608 -0.04171925 0.42695439 4291807691
0.016664095 -0.041829165 0.42807928 4291676618
0.01740934 -0.041963506 0.42945412 4291808204
0.01816955 -0.042122275 0.43107894 4291742411
0.018945932 -0.04230547 0.43295375 4291742411
0.019734025 -0.042500876 0.43495354 4291742413
0.020434609 -0.042500876 0.43495354 4291676620
0.021226294 -0.042684071 0.43682835 4291545552
0.022005191 -0.042830624 0.43832818 4291479759
0.022769494 -0.042940538 0.43945307 4291545552
0.023530742 -0.043038242 0.44045293 4291545552
0.024274576 -0.043099307 0.44107789 4291348684
0.025034584 -0.043184798 0.44195279 4291151305
0.025746442 -0.043184798 0.44195279 4291282891
0.026533123 -0.043306924 0.44320264 4291151305
0.027385304 -0.043526758 0.44545242 4291282891
0.028260501 -0.043771017 0.44795215 4291151305
0.029062884 -0.043893144 0.449202 4291085255
0.02981957 -0.043941997 0.44970196 4291019462
0.030543908 -0.043941997 0.44970196 4290887876
-0.11673384 -0.044695079 0.46507531 4280755752
-0.11598474 -0.044695079 0.46507531 4282268991
-0.11514273 -0.044659045 0.46470034 4287597202
-0.1141481 -0.044562954 0.46370047 4290821059
-0.1134012 -0.044562954 0.46370047 4289836213
-0.10678604 -0.042809263 0.44545242 4290888382
-0.10606854 -0.042809263 0.44545242 4291150527
-0.10304538 -0.04187236 0.43570346 4291150527
-0.1023436 -0.04187236 0.43570346 4291215807
-0.10073793 -0.041499998 0.43182886 4291150014
-0.10004238 -0.041499998 0.43182886 4291149761
-0.098656721 -0.041211724 0.42882919 4291347140
-0.097966 -0.041211724 0.42882919 4291281600
-0.095687583 -0.040539075 0.42182994 4291281600
-0.093853965 -0.040046599 0.41670549 4291150527
-0.093182772 -0.040046599 0.41670549 4291282113
-0.092289597 -0.039950509 0.41570559 4291216320
-0.091564924 -0.039926484 0.41545561 4291216320
-0.09089575 -0.039926484 0.41545561 4291347393
-0.090172276 -0.03990246 0.41520563 4291347393
-0.089449622 -0.039878439 0.41495568 4291282113
-0.088727765 -0.039854415 0.41470569 4291347906
-0.088059798 -0.039854415 0.41470569 4291282113
-0.087339148 -0.03983039 0.41445571 4291282113
-0.086567029 -0.039782345 0.41395578 4291282113
-0.085770592 -0.039722286 0.41333085 4291282113
-0.085104838 -0.039722286 0.41333085 4291282113
-0.084311411 -0.039662227 0.4127059 4291282113
-0.083520003 -0.039602172 0.41208097 4291347906
-0.082831129 -0.039590158 0.41195598 4291282113
-0.08206787 -0.039542112 0.41145605 4291282113
-0.081306219 -0.039494067 0.41095608 4291347906
-0.080521658 -0.039434008 0.41033116 4291282113
-0.079860732 -0.039434008 0.41033116 4291282113
-0.079079188 -0.039373953 0.40970623 4291281860
-0.078371428 -0.039349928 0.40945625 4291347653
-0.077522144 -0.039253835 0.40845636 4291281860
-0.076864235 -0.039253835 0.40845636 4291216067
-0.07611306 -0.03920579 0.40795642 4291347653
-0.075386599 -0.039169755 0.40758145 4291281860
-0.074730106 -0.039169755 0.40758145 4291281347
-0.07398276 -0.03912171 0.40708151 4291610312
-0.073191985 -0.03904964 0.4063316 4291347393
-0.072470561 -0.039013602 0.40595663 4291347393
-0.071816683 -0.039013602 0.40595663 4291347393
-0.071053259 -0.038953546 0.4053317 4291215807
-0.070335262 -0.038917512 0.40495673 4291281600
-0.069639988 -0.038893487 0.40470678 4291281600
-0.068988122 -0.038893487 0.40470678 4291347393
-0.068336256 -0.038893487 0.40470678 4291281600
-0.067642584 -0.038869467 0.40445679 4291281600
-0.066949718 -0.038845442 0.40420681 4291413186
-0.066298656 -0.038845442 0.40420681 4291346623
-0.065606996 -0.038821418 0.40395683 4291346623
-0.064896047 -0.038785383 0.40358189 4291346623
-0.064186312 -0.038749348 0.40320691 4291215037
-0.06353686 -0.038749348 0.40320691 4291280830
-0.062848426 -0.038725328 0.40295696 4291346623
-0.062160794 -0.038701303 0.40270698 4291150014
-0.061473962 -0.038677279 0.402457 4291150014
-0.060825728 -0.038677279 0.402457 4291215807
-0.060121421 -0.038641244 0.40208206 4291281600
-0.059436809 -0.038617224 0.40183207 4291150527
-0.058771286 -0.038605209 0.40170708 4291150527
-0.058124252 -0.038605209 0.40170708 4291150527
-0.057441454 -0.038581185 0.4014571 4291150527
-0.056741782 -0.038545154 0.40108216 4291215807
-0.056060791 -0.03852113 0.40083218 4291215807
-0.055415165 -0.03852113 0.40083218 4291347393
-0.054718304 -0.038485091 0.4004572 4291347393
-0.054022662 -0.03844906 0.40008226 4291281600
-0.053294867 -0.038389001 0.39945734 4291347393
-0.052651457 -0.038389001 0.39945734 4291347393
-0.051959228 -0.038352966 0.39908236 4291413186
-0.051284283 -0.038328942 0.39883238 4291413186
-0.050641879 -0.038328942 0.39883238 4291347393
-0.049968138 -0.038304921 0.39858243 4291347906
-0.049310669 -0.038292911 0.39845744 4291347906
-0.048653606 -0.038280897 0.39833245 4291282113
-0.047996942 -0.038268887 0.39820746 4291216320
-0.047355548 -0.038268887 0.39820746 4291216320
-0.046714149 -0.038268887 0.39820746 4291282113
-0.046072755 -0.038268887 0.39820746 4291282113
-0.045431361 -0.038268887 0.39820746 4291282113
-0.044804022 -0.038280897 0.39833245 4291281860
-0.044162426 -0.038280897 0.39833245 4291216067
-0.043534484 -0.038292911 0.39845744 4291347653
-0.042906143 -0.038304921 0.39858243 4291347653
-0.042277392 -0.038316935 0.39870742 4291282113
-0.041635189 -0.038316935 0.39870742 4291347906
-0.041005839 -0.038328942 0.39883238 4291347906
-0.040363435 -0.038328942 0.39883238 4291347906
-0.039733484 -0.038340956 0.39895737 4291479492
-0.039152108 -0.038401011 0.3995823 4291479492
-0.038448274 -0.038340956 0.39895737 4291544519
-0.037781984 -0.038316935 0.39870742 4291610312
-0.037128139 -0.038304921 0.39858243 4291610312
-0.036486141 -0.038304921 0.39858243 4291610312
-0.03584414 -0.038304921 0.39858243 4291610312
-0.035202142 -0.038304921 0.39858243 4291544519
-0.034570977 -0.038316935 0.39870742 4291544519
-0.033939414 -0.038328942 0.39883238 4291610312
-0.03329701 -0.038328942 0.39883238 4291479239
-0.032664839 -0.038340956 0.39895737 4291545032
-0.032062367 -0.038389001 0.39945734 4291479239
-0.031458277 -0.038437046 0.39995727 4291479239
-0.03087184 -0.038509116 0.40070719 4291348423
-0.030226417 -0.038509116 0.40070719 4291348423
-0.029627129 -0.038569175 0.40133211 4291348423
-0.029007778 -0.038605209 0.40170708 4291348423
-0.028387217 -0.038641244 0.40208206 4291348423
-0.027756825 -0.038665269 0.40233201 4291414216
-0.027108785 -0.038665269 0.40233201 4291348423
-0.026477188 -0.038689289 0.40258199 4291414216
-0.025852801 -0.038725328 0.40295696 4291414475
-0.025227206 -0.038761359 0.40333191 4291348682
-0.024608023 -0.038809408 0.40383187 4291414475
-0.023957569 -0.038809408 0.40383187 4291348682
-0.023335965 -0.038857453 0.4043318 4291348425
-0.022705743 -0.038893487 0.40470678 4291348425
-0.02207431 -0.038929522 0.40508172 4291414218
-0.021428453 -0.038941532 0.40520671 4291480011
-0.020775784 -0.038941532 0.40520671 4291610827
-0.020123113 -0.038941532 0.40520671 4291545034
-0.019476449 -0.038953546 0.4053317 4291610827
-0.018823577 -0.038953546 0.4053317 4291610827
-0.018165104 -0.038941532 0.40520671 4291676620
-0.017512433 -0.038941532 0.40520671 4291545034
-0.016859764 -0.038941532 0.40520671 4291479241
-0.016207095 -0.038941532 0.40520671 4291545034
-0.015554425 -0.038941532 0.40520671 4291414216
-0.014901754 -0.038941532 0.40520671 4291480009
-0.01425348 -0.038953546 0.4053317 4291348423
-0.013604804 -0.038965557 0.40545669 4291414216
-0.012959716 -0.038989581 0.40570664 4291414216
-0.012306241 -0.038989581 0.40570664 4291480009
-0.011659945 -0.039013602 0.40595663 4291610825
-0.011009457 -0.039025616 0.40608162 4291676618
-0.010358565 -0.039037626 0.40620661 4291676618
-0.0097102579 -0.039061651 0.40645659 4291676618
-0.0090555744 -0.039061651 0.40645659 4291741898
-0.0084086414 -0.039097685 0.40683153 4291807691
-0.0077605005 -0.03913372 0.40720651 4291873484
-0.0071133319 -0.039181765 0.40770644 4291807691
-0.0064566359 -0.039181765 0.40770644 4291873484
-0.0058070524 -0.039229814 0.4082064 4292005070
-0.0051558577 -0.039277859 0.40870634 4291873484
-0.0045058033 -0.039349928 0.40945625 4291807691
-0.0038533336 -0.039421998 0.41020617 4291807691
-0.0031974751 -0.039482057 0.41083112 4291741898
-0.0025357462 -0.039482057 0.41083112 4291807691
-0.0018768676 -0.039542112 0.41145605 4291807691
-0.0012152385 -0.039578147 0.41183099 4291807691
-0.00055256899 -0.039626196 0.41233096 4291873484
0.0001116773 -0.039662227 0.4127059 4291807691
0.00077642599 -0.039662227 0.4127059 4291741898
0.0014424841 -0.039698265 0.41308087 4291873484
0.0021097502 -0.0397343 0.41345584 4292005070
0.0027782239 -0.039770331 0.41383079 4291873484
0.0034489462 -0.039818376 0.41433072 4291807691
0.0041163121 -0.039818376 0.41433072 4291741898
0.0047880071 -0.039854415 0.41470569 4291741898
0.0054674875 -0.039938495 0.4155806 4291676105
0.0061516319 -0.040034588 0.4165805 4291676105
0.0068410444 -0.040142693 0.41770539 4291676620
0.0075138458 -0.040142693 0.41770539 4291676620
0.0082111433 -0.040262807 0.41895524 4291610827
0.0089071654 -0.040358901 0.41995513 4291610827
0.0096064089 -0.040454995 0.42095503 4291676620
0.010302766 -0.040527064 0.42170495 4291676620
0.011001538 -0.04059913 0.42245486 4291676620
0.01168199 -0.04059913 0.42245486 4291742413
0.012388045 -0.040683214 0.42332977 4291742413
0.013096916 -0.040767293 0.42420468 4291742413
0.013808608 -0.040851373 0.42507958 4291676618
0.014527379 -0.040947467 0.42607948 4291742411
0.015213668 -0.040947467 0.42607948 4291741898
0.015941937 -0.041055571 0.42720437 4291741898
0.01666896 -0.041151665 0.42820427 4291610825
0.017414406 -0.041283794 0.42957911 4291676618
0.018174818 -0.041439943 0.43120393 4291742411
0.018951401 -0.041620117 0.43307874 4291676618
0.019734025 -0.04180029 0.43495354 4291545802
0.020434609 -0.04180029 0.43495354 4291545802
0.02122022 -0.041968454 0.43670335 4291480013
0.021998916 -0.042112593 0.43820319 4291348427
0.022769494 -0.042232707 0.43945307 4291216587
0.023530742 -0.042328797 0.44045293 4291479759
0.024281455 -0.04240087 0.44120288 4291348684
0.025048742 -0.042496961 0.44220275 4291282891
0.025761003 -0.042496961 0.44220275 4291151305
0.026563054 -0.0426411 0.44370261 4291151305
0.027423723 -0.042869322 0.44607735 4291282891
0.028292041 -0.043097541 0.44845209 4291085512
0.029095231 -0.043217655 0.44970196 4291019460
0.02981957 -0.043217655 0.44970196 4291085253
0.030543908 -0.043217655 0.44970196 4289967031
-0.11673384 -0.043945979 0.46507531 4280821800
-0.11598474 -0.043945979 0.46507531 4281019179
-0.11514273 -0.043910544 0.46470034 4286412928
-0.1141481 -0.043816067 0.46370047 4290557887
-0.1134012 -0.043816067 0.46370047 4290033590
-0.10678604 -0.042091768 0.44545242 4290888377
-0.10446144 -0.041454013 0.43870312 4291215805
-0.10286803 -0.041099705 0.43495354 4291150012
-0.10216745 -0.041099705 0.43495354 4291215807
-0.10079625 -0.040828068 0.43207884 4291215807
-0.10010029 -0.040828068 0.43207884 4291215807
-0.098742984 -0.040556431 0.42920414 4291281600
-0.09805166 -0.040556431 0.42920414 4291281598
-0.095687583 -0.039859626 0.42182994 4291215805
-0.093853965 -0.039375409 0.41670549 4291215805
-0.093182772 -0.039375409 0.41670549 4291281598
-0.092317343 -0.039292738 0.41583058 4291281598
-0.091592468 -0.039269116 0.4155806 4291281598
-0.090923093 -0.039269116 0.4155806 4291347393
-0.090199426 -0.039245494 0.41533062 4291215807
-0.089476563 -0.039221875 0.41508067 4291216320
-0.088754505 -0.039198253 0.41483068 4291282113
-0.088086337 -0.039198253 0.41483068 4291282113
-0.087365486 -0.039174631 0.4145807 4291216320
-0.08661931 -0.039139204 0.41420576 4291347393
-0.085848399 -0.03909196 0.4137058 4291281600
-0.085182033 -0.03909196 0.4137058 4291216320
-0.084413551 -0.039044719 0.41320586 4291216320
-0.083621338 -0.03898567 0.41258094 4291347906
-0.082831129 -0.038926616 0.41195598 4291347906
-0.082167588 -0.038926616 0.41195598 4291347906
-0.081405133 -0.038879376 0.41145605 4291347906
-0.080619767 -0.038820326 0.41083112 4291282113
-0.079958037 -0.038820326 0.41083112 4291216320
-0.079175688 -0.038761273 0.41020617 4291216320
-0.078443192 -0.038725846 0.40983123 4291282113
-0.07773564 -0.038702223 0.40958124 4291282113
-0.077075921 -0.038702223 0.40958124 4291216320
-0.076416202 -0.038702223 0.40958124 4291282113
-0.075756483 -0.038702223 0.40958124 4291282113
-0.074775942 -0.03853688 0.40783143 4291216320
-0.074119046 -0.03853688 0.40783143 4291347906
-0.073304556 -0.038454209 0.40695652 4291282113
-0.072537504 -0.038395155 0.4063316 4291216320
-0.071883023 -0.038395155 0.4063316 4291282113
-0.071075171 -0.038312484 0.40545669 4291216320
-0.070356973 -0.038277052 0.40508172 4291216320
-0.069683 -0.038265243 0.40495673 4291150527
-0.069030732 -0.038265243 0.40495673 4291216320
-0.068336256 -0.038241625 0.40470678 4291216320
-0.06768439 -0.038241625 0.40470678 4291281600
-0.066991121 -0.038218003 0.40445679 4291347393
-0.066339664 -0.038218003 0.40445679 4291347393
-0.065627299 -0.038182572 0.40408182 4291215807
-0.06493625 -0.038158953 0.40383187 4291150014
-0.064226106 -0.038123518 0.4034569 4290952635
-0.063576251 -0.038123518 0.4034569 4291150014
-0.062887408 -0.0380999 0.40320691 4291150014
-0.062180087 -0.038064469 0.40283197 4291215807
-0.061493054 -0.038040847 0.40258199 4291150014
-0.060844619 -0.038040847 0.40258199 4291215807
-0.060140107 -0.038005415 0.40220702 4291281600
-0.059455294 -0.037981797 0.40195706 4291150527
-0.058771286 -0.037958175 0.40170708 4291150527
-0.058124252 -0.037958175 0.40170708 4291150527
-0.057441454 -0.037934553 0.4014571 4291150527
-0.056759462 -0.037910935 0.40120715 4291347393
-0.056095753 -0.037899125 0.40108216 4291215807
-0.055449724 -0.037899125 0.40108216 4291215807
-0.054752462 -0.037863694 0.40070719 4291413186
-0.054039538 -0.037816454 0.40020725 4291216320
-0.053328216 -0.03776921 0.39970729 4291216320
-0.052684404 -0.03776921 0.39970729 4291150527
-0.051991772 -0.037733782 0.39933234 4291216320
-0.051316425 -0.03771016 0.39908236 4291150527
-0.050657749 -0.037698351 0.39895737 4291216320
-0.050015144 -0.037698351 0.39895737 4291282113
-0.049326137 -0.03766292 0.39858243 4291347906
-0.048668873 -0.03765111 0.39845744 4291282113
-0.048027072 -0.03765111 0.39845744 4291216320
-0.047385275 -0.03765111 0.39845744 4291150527
-0.046743475 -0.03765111 0.39845744 4291282113
-0.046101678 -0.03765111 0.39845744 4291282113
-0.045488399 -0.037674733 0.39870742 4291282113
-0.044860251 -0.037686538 0.39883238 4291282113
-0.044217851 -0.037686538 0.39883238 4291216320
-0.043589104 -0.037698351 0.39895737 4291479492
-0.042946503 -0.037698351 0.39895737 4291282113
-0.042317152 -0.03771016 0.39908236 4291282113
-0.041674346 -0.03771016 0.39908236 4291347906
-0.041044392 -0.037721969 0.39920735 4291347906
-0.040401384 -0.037721969 0.39920735 4291347906
-0.039758381 -0.037721969 0.39920735 4291479492
-0.039127618 -0.037733782 0.39933234 4291347906
-0.038448274 -0.037698351 0.39895737 4291544772
-0.037781984 -0.037674733 0.39870742 4291544772
-0.037128139 -0.03766292 0.39858243 4291610565
-0.036486141 -0.03766292 0.39858243 4291544772
-0.03584414 -0.03766292 0.39858243 4291610565
-0.03521318 -0.037674733 0.39870742 4291544772
-0.034570977 -0.037674733 0.39870742 4291544519
-0.033950049 -0.037698351 0.39895737 4291544519
-0.033307444 -0.037698351 0.39895737 4291544519
-0.032675073 -0.03771016 0.39908236 4291610312
-0.032062367 -0.037745591 0.39945734 4291479239
-0.031468108 -0.037804645 0.40008226 4291479239
-0.0308911 -0.037887316 0.40095717 4291545032
-0.030245274 -0.037887316 0.40095717 4291479239
-0.029645585 -0.037946366 0.40158209 4291479239
-0.029034855 -0.037993606 0.40208206 4291479239
-0.028404864 -0.038017225 0.40233201 4291545032
-0.027774071 -0.038040847 0.40258199 4291479239
-0.027125629 -0.038040847 0.40258199 4291479239
-0.026501849 -0.038076282 0.40295696 4291479239
-0.025868839 -0.0380999 0.40320691 4291348423
-0.02525066 -0.03814714 0.40370688 4291348423
-0.024630871 -0.038194381 0.40420681 4291545802
-0.023979813 -0.038194381 0.40420681 4291348423
-0.023357607 -0.038241625 0.40470678 4291348423
-0.02272678 -0.038277052 0.40508172 4291414216
-0.022087933 -0.038300674 0.4053317 4291545032
-0.021441672 -0.038312484 0.40545669 4291545032
-0.020788601 -0.038312484 0.40545669 4291610312
-0.020141736 -0.038324296 0.40558168 4291610312
-0.019488461 -0.038324296 0.40558168 4291676105
-0.018835187 -0.038324296 0.40558168 4291676105
-0.01817631 -0.038312484 0.40545669 4291676105
-0.017523238 -0.038312484 0.40545669 4291544519
-0.016870165 -0.038312484 0.40545669 4291545032
-0.016217094 -0.038312484 0.40545669 4291545032
-0.015564022 -0.038312484 0.40545669 4291545032
-0.014910948 -0.038312484 0.40545669 4291479239
-0.014262271 -0.038324296 0.40558168 4291348423
-0.013617384 -0.038347915 0.40583163 4291414216
-0.012971694 -0.038371537 0.40608162 4291545032
-0.012317616 -0.038371537 0.40608162 4291610825
-0.011667126 -0.038383346 0.40620661 4291610825
-0.011016235 -0.038395155 0.4063316 4291676618
-0.01036494 -0.038406968 0.40645659 4291741898
-0.0097162295 -0.038430586 0.40670654 4291676105
-0.0090611428 -0.038430586 0.40670654 4291676105
-0.0084112249 -0.038454209 0.40695652 4291741898
-0.0077628829 -0.03848964 0.4073315 4291807691
-0.0071155126 -0.03853688 0.40783143 4291807691
-0.0064665326 -0.038584117 0.40833136 4291807691
-0.0058088298 -0.038584117 0.40833136 4291873484
-0.0051574344 -0.038631361 0.40883133 4291873484
-0.0045071789 -0.038702223 0.40958124 4291347140
-0.0038533336 -0.038761273 0.41020617 4291807944
-0.0031984476 -0.038832135 0.41095608 4291742151
-0.0025365173 -0.038832135 0.41095608 4291873737
-0.0018780079 -0.038902998 0.41170603 4291807944
-0.0012159761 -0.038938425 0.41208097 4291807944
-0.00055290398 -0.03898567 0.41258094 4291807944
0.00011177877 -0.03903291 0.41308087 4291807944
0.00077713147 -0.03903291 0.41308087 4291807944
0.0014437935 -0.039068341 0.41345584 4291873737
0.0021116633 -0.039103772 0.41383079 4291873737
0.0027807413 -0.039139204 0.41420576 4291807944
0.0034520673 -0.039186444 0.41470569 4291742151
0.0041200374 -0.039186444 0.41470569 4291742151
0.004793779 -0.039233685 0.41520563 4291742151
0.0054724207 -0.039304547 0.41595557 4291676105
0.0061571687 -0.039399028 0.41695544 4291610312
0.006845138 -0.039493509 0.41795534 4291676618
0.0075183418 -0.039493509 0.41795534 4291545032
0.008216043 -0.039611612 0.41920522 4291479241
0.0089124674 -0.039706096 0.42020512 4291676620
0.0096121132 -0.039800577 0.42120501 4291610827
0.010308874 -0.039871439 0.42195493 4291545034
0.011011303 -0.039954111 0.42282984 4291480011
0.011692359 -0.039954111 0.42282984 4291545804
0.012399018 -0.040036783 0.42370474 4291545804
0.013104635 -0.040107645 0.42445466 4291545804
0.013820789 -0.040202126 0.42545456 4291676620
0.014540164 -0.04029661 0.42645445 4291742413
0.015262758 -0.040391088 0.42745432 4291480011
0.015951265 -0.040391088 0.42745432 4291480011
0.016683556 -0.040497381 0.42857921 4291348425
0.017424541 -0.040615484 0.42982909 4291348425
0.018185355 -0.040769018 0.43145391 4291545804
0.018956872 -0.040934362 0.43320373 4291545804
0.019734025 -0.041099705 0.43495354 4291480011
0.020434609 -0.041099705 0.43495354 4291480011
0.02122022 -0.041265048 0.43670335 4291545806
0.021998916 -0.041406773 0.43820319 4291545806
0.022769494 -0.041524876 0.43945307 4291216841
0.023530742 -0.041619357 0.44045293 4291348427
0.024295211 -0.041713838 0.44145283 4291282891
0.025055822 -0.041796509 0.44232774 4291282891
0.025768284 -0.041796509 0.44232774 4291348684
0.026592983 -0.041973665 0.44420254 4291151305
0.027800232 -0.042729523 0.45220169 4291019719
0.028662644 -0.042930294 0.45432645 4290953926
0.029523816 -0.043119259 0.45632625 4291019460
-0.1151737 -0.04317366 0.46482533 4285097322
-0.114425 -0.04317366 0.46482533 4290163383
-0.10446144 -0.040747389 0.43870312 4291084219
-0.10286803 -0.040399123 0.43495354 4291084219
-0.10216745 -0.040399123 0.43495354 4291215805
-0.10082541 -0.040143728 0.43220383 4291281598
-0.10012925 -0.040143728 0.43220383 4291215805
-0.098829247 -0.039899938 0.42957911 4291215805
-0.098137319 -0.039899938 0.42957911 4291281598
-0.095886044 -0.039261449 0.42270485 4291281598
-0.09393841 -0.038739044 0.41708043 4291216059
-0.093266621 -0.038739044 0.41708043 4291281852
-0.092345096 -0.038634565 0.41595557 4291281598
-0.091620013 -0.038611345 0.41570559 4291347391
-0.090950437 -0.038611345 0.41570559 4291347391
-0.090226568 -0.038588129 0.41545561 4291215805
-0.089503504 -0.038564909 0.41520563 4291216320
-0.088807993 -0.038553301 0.41508067 4291282113
-0.088139422 -0.038553301 0.41508067 4291282113
-0.087444507 -0.038541693 0.41495568 4291150527
-0.086671583 -0.038495257 0.41445571 4291216320
-0.085926205 -0.03846043 0.41408077 4291216320
-0.085259244 -0.03846043 0.41408077 4291282113
-0.084439084 -0.038390778 0.41333085 4291216320
-0.083697326 -0.03835595 0.41295588 4291282113
-0.082906522 -0.038297907 0.41233096 4291282113
-0.082242377 -0.038297907 0.41233096 4291347906
-0.081479318 -0.038251467 0.41183099 4291347906
-0.080717877 -0.038205035 0.41133106 4291347906
-0.080055341 -0.038205035 0.41133106 4291347906
-0.079272188 -0.038146991 0.41070613 4291216067
-0.078586735 -0.03813538 0.41058114 4291216067
-0.077806801 -0.038077336 0.40995622 4291282113
-0.077146485 -0.038077336 0.40995622 4291216320
-0.076486163 -0.038077336 0.40995622 4291216320
-0.076057017 -0.038193423 0.41120607 4291216320
-0.074982189 -0.037984464 0.40895632 4291150274
-0.074323483 -0.037984464 0.40895632 4291150274
-0.073507175 -0.037903201 0.40808141 4291150527
-0.072582126 -0.037763894 0.40658155 4291150527
-0.071927242 -0.037763894 0.40658155 4291216320
-0.071118988 -0.03768263 0.40570664 4291216320
-0.070378684 -0.037636194 0.40520671 4291150274
-0.069704503 -0.037624586 0.40508172 4291150274
-0.069052033 -0.037624586 0.40508172 4291216067
-0.068357356 -0.037601367 0.40483174 4291150274
-0.06768439 -0.037589762 0.40470678 4291216320
-0.067032531 -0.037589762 0.40470678 4291282113
-0.066380665 -0.037589762 0.40470678 4291413186
-0.0656882 -0.037566543 0.40445679 4291215807
-0.064976439 -0.037531715 0.40408182 4291150012
-0.064265899 -0.037496887 0.40370688 4291084219
-0.063615642 -0.037496887 0.40370688 4291084221
-0.062906906 -0.037462059 0.40333191 4291084221
-0.06219938 -0.037427235 0.40295696 4291018941
-0.061512146 -0.037404016 0.40270698 4290887355
-0.06086351 -0.037404016 0.40270698 4291150527
-0.060177486 -0.0373808 0.402457 4291150527
-0.059492268 -0.03735758 0.40220702 4291150527
-0.058807857 -0.037334364 0.40195706 4291150527
-0.058160421 -0.037334364 0.40195706 4291215807
-0.057477225 -0.037311144 0.40170708 4291215807
-0.056794826 -0.037287924 0.4014571 4291215807
-0.056113236 -0.037264708 0.40120715 4291215807
-0.055467006 -0.037264708 0.40120715 4291215807
-0.054786619 -0.037241492 0.40095717 4291215807
-0.054073289 -0.037195053 0.4004572 4291084481
-0.053361569 -0.037148621 0.39995727 4291084481
-0.052717354 -0.037148621 0.39995727 4291019458
-0.052024316 -0.037113793 0.3995823 4291151044
-0.051348571 -0.037090577 0.39933234 4291085251
-0.050689489 -0.037078965 0.39920735 4291085251
-0.050046481 -0.037078965 0.39920735 4291151297
-0.049388006 -0.037067357 0.39908236 4291217090
-0.048729938 -0.037055746 0.39895737 4291216837
-0.048087332 -0.037055746 0.39895737 4291151044
-0.047444731 -0.037055746 0.39895737 4291019711
-0.046802126 -0.037055746 0.39895737 4291085504
-0.046159521 -0.037055746 0.39895737 4291216320
-0.045531176 -0.037067357 0.39908236 4291216320
-0.044902429 -0.037078965 0.39920735 4291347393
-0.044259425 -0.037078965 0.39920735 4291281600
-0.043630075 -0.037090577 0.39933234 4291347906
-0.043000322 -0.037102185 0.39945734 4291282113
-0.042356912 -0.037102185 0.39945734 4291282113
-0.041713502 -0.037102185 0.39945734 4291347906
-0.041070092 -0.037102185 0.39945734 4291282113
-0.040414035 -0.037090577 0.39933234 4291282113
-0.039770827 -0.037090577 0.39933234 4291347906
-0.039127618 -0.037090577 0.39933234 4291347906
-0.038448274 -0.037055746 0.39895737 4291544772
-0.037781984 -0.037032533 0.39870742 4291544772
-0.037139781 -0.037032533 0.39870742 4291544772
-0.036497582 -0.037032533 0.39870742 4291413186
-0.035855379 -0.037032533 0.39870742 4291544519
-0.03521318 -0.037032533 0.39870742 4291544519
-0.034581814 -0.037044138 0.39883238 4291412933
-0.033950049 -0.037055746 0.39895737 4291412933
-0.033307444 -0.037055746 0.39895737 4291347653
-0.032685306 -0.037078965 0.39920735 4291479239
-0.032072395 -0.037113793 0.3995823 4291479239
-0.031477939 -0.037171837 0.40020725 4291479239
-0.03090073 -0.0372531 0.40108216 4291610312
-0.030254703 -0.0372531 0.40108216 4291544519
-0.029664038 -0.037322756 0.40183207 4291610312
-0.029043877 -0.03735758 0.40220702 4291610312
-0.028422512 -0.037392408 0.40258199 4291545032
-0.02779994 -0.037427235 0.40295696 4291545032
-0.027150894 -0.037427235 0.40295696 4291479492
-0.026518287 -0.037450451 0.40320691 4291479492
-0.025892895 -0.037485279 0.40358189 4291545285
-0.025274111 -0.037531715 0.40408182 4291479492
-0.024653722 -0.037578151 0.40458179 4291545285
-0.024002058 -0.037578151 0.40458179 4291479492
-0.023372034 -0.037612978 0.40495673 4291479239
-0.022740804 -0.037647806 0.4053317 4291610825
-0.022101555 -0.037671022 0.40558168 4291676105
-0.021454891 -0.03768263 0.40570664 4291610312
-0.020801416 -0.03768263 0.40570664 4291544519
-0.020154148 -0.037694238 0.40583163 4291544519
-0.019500472 -0.037694238 0.40583163 4291610312
-0.018846795 -0.037694238 0.40583163 4291676105
-0.018187515 -0.03768263 0.40570664 4291610312
-0.01753404 -0.03768263 0.40570664 4291544519
-0.016880566 -0.03768263 0.40570664 4291610312
-0.016227091 -0.03768263 0.40570664 4291610312
-0.015573616 -0.03768263 0.40570664 4291545032
-0.01492014 -0.03768263 0.40570664 4291347653
-0.014275456 -0.03770585 0.40595663 4291479239
-0.013625773 -0.037717458 0.40608162 4291545032
-0.012979679 -0.037740678 0.4063316 4291545032
-0.012325197 -0.037740678 0.4063316 4291545032
-0.011674305 -0.037752286 0.40645659 4291676105
-0.011026399 -0.037775502 0.40670654 4291676105
-0.010374501 -0.03778711 0.40683153 4291676105
-0.009725187 -0.037810329 0.40708151 4291676105
-0.0090694968 -0.037810329 0.40708151 4291676105
-0.0084189745 -0.037833549 0.4073315 4291676105
-0.0077676466 -0.037856765 0.40758145 4291741898
-0.007119874 -0.037903201 0.40808141 4291676105
-0.0064685121 -0.037938029 0.40845636 4291610312
-0.0058106082 -0.037938029 0.40845636 4291741898
-0.0051590116 -0.037984464 0.40895632 4291807691
-0.0045085545 -0.038054116 0.40970623 4291676105
-0.0038556817 -0.038123772 0.41045615 4291807944
-0.0032003932 -0.038193423 0.41120607 4291676358
-0.0025380603 -0.038193423 0.41120607 4291807944
-0.0018785779 -0.038251467 0.41183099 4291742151
-0.0012170825 -0.038309515 0.41245595 4291807944
-0.00055340643 -0.03835595 0.41295588 4291873737
0.00011188023 -0.038402386 0.41345584 4291807944
0.00077783689 -0.038402386 0.41345584 4291676358
0.0014451029 -0.038437214 0.41383079 4291807944
0.0021135767 -0.038472041 0.41420576 4291742151
0.0027840976 -0.038518474 0.41470569 4291742151
0.0034551886 -0.038553301 0.41508067 4291676358
0.0041237627 -0.038553301 0.41508067 4291742151
0.0047995513 -0.038611345 0.41570559 4291742151
0.0054757092 -0.038657781 0.41620553 4291742151
0.0061608604 -0.038750652 0.41720542 4291610565
0.0068492321 -0.038843524 0.41820532 4291676105
0.0075228387 -0.038843524 0.41820532 4291610312
0.0082209427 -0.038959615 0.4194552 4291544519
0.00892042 -0.039064094 0.42058006 4291676105
0.0096206693 -0.039156966 0.42157996 4291610827
0.010321087 -0.039238229 0.42245486 4291610827
0.011021068 -0.039307881 0.42320478 4291610827
